# .PCD v0.7 - Point Cloud Data file format
VERSION 0.7
FIELDS x y z intensity
SIZE 4 4 4 4
TYPE F F F F
COUNT 1 1 1 1
WIDTH 1264
HEIGHT 1
VIEWPOINT 0 0 0 1 0 0 0
POINTS 1264
DATA ascii
0.98424411 7.37657166 -1.76270950 61
1.09574389 8.19041443 -1.75577044 35
1.23202479 9.18468475 -1.74524391 4
1.35276282 10.41570282 -1.72478008 227
1.57215190 12.08838558 -1.71226740 161
1.89040959 14.49592590 -1.70582426 156
2.33335662 17.84392738 -1.67755282 45
2.98304868 22.78140640 -1.60489261 132
3.40883303 25.96266747 -1.21916604 167
3.43243217 26.07185173 -0.60855675 241
6.68708849 50.72498703 0.00378975 35
6.70508480 50.72475433 1.19171834 213
6.72229052 50.71854019 2.38969922 18
0.00000083 -0.00013518 0.00006625 159
0.00000083 -0.00013518 0.00006625 244
0.00000083 -0.00013518 0.00006625 232
0.00000083 -0.00013518 0.00006625 126
0.00000083 -0.00013518 0.00006625 15
0.00000083 -0.00013518 0.00006625 152
0.07741345 0.57094669 -0.34165394 233
0.07937244 0.58386558 -0.33102208 24
0.08834774 0.64905351 -0.34823412 139
0.09690084 0.71004599 -0.35973525 126
0.11442613 0.83630729 -0.39946669 111
0.25101179 1.82997990 -0.82222092 46
0.58279914 4.24352217 -1.78875577 21
0.62438893 4.53460646 -1.78701437 192
0.67079937 4.85910797 -1.78492248 28
0.00000083 -0.00013518 0.00006625 139
0.78466791 5.66205788 -1.78319228 84
0.85430419 6.14875937 -1.77954865 84
0.93175465 6.69762325 -1.76967001 118
1.02800000 7.37060022 -1.76270998 100
1.14486921 8.18764305 -1.75660253 235
1.28759742 9.18499756 -1.74672520 62
1.41299605 10.40969563 -1.72510493 84
1.64412487 12.08080769 -1.71254635 165
0.00000083 -0.00013518 0.00006625 216
1.92525864 14.09128857 -1.32576787 206
3.11141396 22.71388626 -1.60140967 9
0.00000083 -0.00013518 0.00006625 167
3.58771372 26.08928490 -0.60943753 186
6.99098253 50.70619965 0.00378816 219
7.00095510 50.71302414 1.19236708 57
7.01950169 50.71658707 2.39146924 87
0.00000083 -0.00013518 0.00006625 122
0.00000083 -0.00013518 0.00006625 84
0.00000083 -0.00013518 0.00006625 25
0.00000083 -0.00013518 0.00006625 233
0.00000083 -0.00013518 0.00006625 26
0.00000083 -0.00013518 0.00006625 233
0.08031841 0.56707078 -0.33961380 222
0.08406177 0.59201640 -0.33591983 73
0.09095582 0.63977593 -0.34354007 53
0.10111324 0.70945889 -0.35973528 244
0.12015440 0.84098268 -0.40203339 24
0.26128924 1.82669485 -0.82140774 214
0.60928011 4.24912405 -1.79260957 220
0.65075660 4.52713299 -1.78556013 140
0.69877458 4.85516405 -1.78492272 243
0.00000083 -0.00013518 0.00006625 60
0.81907308 5.66297150 -1.78497958 161
0.89053077 6.14944553 -1.78120232 91
0.97203845 6.69580555 -1.77068317 197
1.07155406 7.37226152 -1.76455438 200
1.19116104 8.17510605 -1.75535583 204
1.34076166 9.17937565 -1.74709594 74
1.47612822 10.41089725 -1.72672594 1
1.71479118 12.07898140 -1.71365988 130
0.00000083 -0.00013518 0.00006625 239
0.00000083 -0.00013518 0.00006625 63
3.23569489 22.65016365 -1.59820569 192
3.71162653 25.91707802 -1.21898317 184
3.74133062 26.05961609 -0.60925406 12
7.29087973 50.72052383 0.00378906 222
7.30519104 50.69433594 1.19292259 77
7.32319164 50.69380951 2.39239883 149
0.00000083 -0.00013518 0.00006625 253
0.00000083 -0.00013518 0.00006625 57
0.00000083 -0.00013518 0.00006625 54
0.00000083 -0.00013518 0.00006625 219
0.00000083 -0.00013518 0.00006625 210
0.00000083 -0.00013518 0.00006625 55
0.08483879 0.57510829 -0.34471422 3
0.08670572 0.58634764 -0.33298123 66
0.09593266 0.64797574 -0.34823418 17
0.10651006 0.71770453 -0.36422160 172
0.12552859 0.84385318 -0.40374449 32
0.27180630 1.82515955 -0.82140779 206
0.63374293 4.24554396 -1.79260993 46
0.67737144 4.52699518 -1.78701496 244
0.72616965 4.84734106 -1.78355515 219
0.00000083 -0.00013518 0.00006625 112
0.85082322 5.65249681 -1.78319299 246
0.92593414 6.14421463 -1.78120279 44
1.01058722 6.69009686 -1.77068365 105
1.11312437 7.36019373 -1.76317203 180
1.23881292 8.17197895 -1.75618792 203
1.39478958 9.17927361 -1.74857724 229
1.53779578 10.41393757 -1.72867119 120
1.78693938 12.08653736 -1.71616447 103
1.54377377 10.41663837 -1.22876108 187
0.00000083 -0.00013518 0.00006625 96
3.35963845 22.58773422 -1.59514105 162
3.86967421 25.95454788 -1.22177553 83
3.89313459 26.04950142 -0.60953343 1
6.41383171 42.86467743 0.00321233 39
0.00000083 -0.00013518 0.00006625 237
0.00000083 -0.00013518 0.00006625 187
0.00000083 -0.00013518 0.00006625 55
6.19759560 41.07627106 3.87871838 141
6.16846418 40.78659821 4.82703018 36
0.00000083 -0.00013518 0.00006625 177
0.00000083 -0.00013518 0.00006625 26
0.00000083 -0.00013518 0.00006625 58
0.08694277 0.56609380 -0.33961514 188
0.09071233 0.58927077 -0.33494166 65
0.09896750 0.64216048 -0.34541902 209
0.10994685 0.71176207 -0.36153126 96
0.13010874 0.84133089 -0.40289038 101
0.28263089 1.82351601 -0.82141006 229
0.65892524 4.24170876 -1.79261386 36
0.70343351 4.52301836 -1.78701913 210
0.75492132 4.84294653 -1.78355956 170
0.82914418 5.31300783 -1.81653225 48
0.88365978 5.64938784 -1.78379357 46
0.96267569 6.14051008 -1.78175926 151
1.04940236 6.68607616 -1.77119577 217
1.15708280 7.35538244 -1.76363921 203
1.28707635 8.17243671 -1.75785732 54
1.44671535 9.16526413 -1.74747419 6
1.59926569 10.40267754 -1.72835577 148
1.86043787 12.08746719 -1.71784353 47
-0.00000217 -0.00013333 0.00006531 234
1.62559605 10.51280499 -0.99162757 65
1.70224428 10.99577332 -0.77719867 97
3.03173065 19.53863525 -0.92058605 178
-0.00000217 -0.00013333 0.00006531 195
6.32530499 40.62438583 0.00301973 97
6.33685160 40.60523605 0.95716774 20
6.34276724 40.59657288 1.91918051 115
6.35729408 40.59656906 2.87642646 64
6.26073265 39.93427658 3.77419662 35
6.26851559 39.89284515 4.72542191 146
-0.00000217 -0.00013333 0.00006531 6
-0.00000217 -0.00013333 0.00006531 136
-0.00000217 -0.00013333 0.00006531 177
0.09010366 0.56559980 -0.33961517 254
0.09372774 0.58703339 -0.33396220 255
0.10311040 0.64508569 -0.34729674 188
0.11335556 0.70760745 -0.35973680 29
0.13581248 0.84592181 -0.40545714 104
0.29281130 1.82190895 -0.82141012 207
0.68143106 4.23067379 -1.78953123 32
0.72947246 4.51889181 -1.78701949 251
0.78285706 4.84422159 -1.78561163 89
0.85730749 5.29318094 -1.81141198 184
0.91679502 5.64797497 -1.78498530 175
0.99695563 6.13503790 -1.78175962 213
1.08882678 6.68564987 -1.77271521 152
1.19845808 7.35072470 -1.76410067 123
1.33412468 8.16488934 -1.75785780 12
1.50043225 9.16259861 -1.74858534 67
1.65827250 10.39943027 -1.72932863 133
1.92729330 12.07297516 -1.71728778 17
-0.00000217 -0.00013333 0.00006531 139
1.63982904 10.22631931 -0.96545279 132
1.72188699 10.72606373 -0.75880247 169
2.66224408 16.54691315 -0.78030783 84
-0.00000217 -0.00013333 0.00006531 240
6.55815125 40.62593842 0.00302010 185
6.57886314 40.66395187 0.95940053 56
6.58831215 40.63233185 1.92263043 49
6.59256172 40.61360168 2.88019466 110
6.49607038 39.93097305 3.77735472 57
6.50457239 39.89529037 4.73006821 121
-0.00000217 -0.00013333 0.00006531 3
-0.00000217 -0.00013333 0.00006531 203
-0.00000217 -0.00013333 0.00006531 179
0.09448186 0.57186115 -0.34369549 58
0.09796220 0.59164435 -0.33690083 178
0.10624728 0.64099646 -0.34541911 144
0.11889406 0.71575874 -0.36422315 17
0.13890213 0.83442682 -0.40032396 192
0.30331737 1.81833673 -0.82059699 187
0.70700252 4.23396063 -1.79261434 90
0.75487226 4.51094103 -1.78556514 11
0.81065685 4.83392954 -1.78356016 138
0.88746595 5.28628635 -1.81077218 218
0.94867605 5.63883448 -1.78379428 149
1.03302431 6.12711811 -1.78120887 113
1.12699318 6.67736101 -1.77220929 174
1.24238122 7.34540319 -1.76456213 225
1.38320637 8.16068649 -1.75868988 95
1.55708122 9.16709709 -1.75117707 23
1.71781898 10.38775921 -1.72900510 100
1.99954915 12.06523323 -1.71784496 73
-0.00000217 -0.00013333 0.00006531 68
-0.00000217 -0.00013333 0.00006531 170
1.70844591 10.25317860 -0.72605127 139
-0.00000217 -0.00013333 0.00006531 37
-0.00000217 -0.00013333 0.00006531 39
6.80737543 40.63562393 0.00302119 40
6.82023668 40.66877365 0.96042252 20
6.82852030 40.63114548 1.92440093 18
6.84239817 40.62688828 2.88396287 233
6.73887777 39.92706299 3.78069901 100
6.73987150 39.89046097 4.73401737 60
-0.00000217 -0.00013333 0.00006531 34
-0.00000217 -0.00013333 0.00006531 42
-0.00000217 -0.00013333 0.00006531 45
0.09729346 0.56789845 -0.34165534 196
0.10029206 0.58417821 -0.33298263 116
0.11034882 0.64209574 -0.34635791 220
0.12313996 0.71504062 -0.36422315 55
0.14401342 0.83539420 -0.40117949 81
0.31565151 1.82736349 -0.82547718 187
0.73242944 4.23150921 -1.79338539 133
0.78243107 4.51569700 -1.78920209 99
0.83977079 4.83658791 -1.78629625 226
0.91854680 5.28482103 -1.81205273 112
0.98244792 5.64080095 -1.78617704 147
1.06961882 6.12864256 -1.78341389 224
1.16643202 6.67647743 -1.77372873 249
1.28500271 7.34004402 -1.76502359 102
1.42943788 8.15668774 -1.75952172 21
1.60723555 9.15244961 -1.75006711 71
1.78109837 10.38710976 -1.73062623 204
2.07001185 12.05937290 -1.71868038 201
1.69353902 9.84548664 -1.16571867 225
-0.00000217 -0.00013333 0.00006531 103
1.73286879 10.04262638 -0.71183616 173
-0.00000217 -0.00013333 0.00006531 245
2.70356297 15.61936951 -0.36682877 220
2.81535935 16.23151588 0.00124610 98
7.06692886 40.65910339 0.96116471 46
7.06893206 40.62854004 1.92617106 94
7.08484650 40.63594437 2.88745141 200
6.96861506 39.92802811 3.78441501 220
6.97738504 39.89599228 4.73936081 154
-0.00000217 -0.00013333 0.00006531 48
16.23354340 92.53610229 15.44229412 98
-0.00000217 -0.00013333 0.00006531 144
0.10046427 0.56734651 -0.34165546 249
0.10385834 0.58532614 -0.33396232 4
0.11424260 0.64320797 -0.34729680 0
0.12775844 0.71786124 -0.36601767 37
0.14787115 0.82921135 -0.39861295 241
0.32713553 1.83091056 -0.82791722 175
0.75605118 4.22735214 -1.79338562 186
0.80776930 4.50744820 -1.78774786 137
0.86661696 4.82612133 -1.78424478 179
0.94662333 5.26638889 -1.80757236 30
1.01559699 5.63880730 -1.78736866 117
1.10387504 6.11670399 -1.78176081 10
1.20452213 6.66774416 -1.77322280 152
1.32829666 7.33826590 -1.76640701 76
1.47921157 8.15576077 -1.76118481 6
1.66222155 9.14661789 -1.75080800 27
1.83873844 10.37505531 -1.73030281 71
2.14081907 12.05505085 -1.71979392 32
1.73424506 9.75568581 -1.15621495 16
-0.00000217 -0.00013333 0.00006531 225
1.77630830 9.95195103 -0.70612270 4
-0.00000217 -0.00013333 0.00006531 144
-0.00000217 -0.00013333 0.00006531 85
-0.00000217 -0.00013333 0.00006531 34
7.29990816 40.65245438 0.96195364 159
7.31060314 40.63041306 1.92822123 246
7.32656336 40.63765335 2.89052129 173
7.21251154 39.92516708 3.78813028 85
7.21412468 39.89423370 4.74400711 68
16.26428604 89.76284027 12.82750034 182
-0.00000217 -0.00013333 0.00006531 114
-0.00000217 -0.00013333 0.00006531 238
0.10475967 0.57181668 -0.34471568 223
0.10670100 0.58126932 -0.33200324 234
0.11741994 0.63904417 -0.34541923 60
0.13072237 0.71005869 -0.36242867 34
0.15246193 0.82654142 -0.39775756 180
0.34066111 1.84516740 -0.83523750 184
0.78179455 4.22642040 -1.79492724 146
0.83484221 4.50440741 -1.78847539 212
0.89508444 4.82474566 -1.78561294 8
0.97647280 5.25322771 -1.80501235 156
1.04834116 5.62892675 -1.78617787 111
1.13979101 6.11402512 -1.78286362 250
1.24548912 6.66808796 -1.77524889 208
1.37089753 7.33240652 -1.76686847 0
1.52616048 8.14710617 -1.76118541 126
1.71451175 9.13495922 -1.75043857 113
1.90240812 10.37560940 -1.73224819 107
1.82802165 9.96008968 -1.42239428 214
-0.00000217 -0.00013333 0.00006531 70
-0.00000217 -0.00013333 0.00006531 219
1.81984711 9.86699772 -0.70082736 108
-0.00000217 -0.00013333 0.00006531 210
-0.00000217 -0.00013333 0.00006531 147
-0.00000217 -0.00013333 0.00006531 170
7.55014372 40.65756607 0.96311498 65
7.55925417 40.62755966 1.93017781 143
7.56597805 40.62421417 2.89261365 26
7.44892025 39.91820145 3.79147458 97
7.45694256 39.88391495 4.74795580 197
-0.00000217 -0.00013333 0.00006531 78
-0.00000217 -0.00013333 0.00006531 155
-0.00000217 -0.00013333 0.00006531 249
0.10741260 0.56782311 -0.34267554 52
0.11069699 0.58407110 -0.33396232 57
0.12142828 0.64009291 -0.34635803 53
0.13447675 0.70753837 -0.36153147 120
0.15707637 0.82567722 -0.39775753 222
0.35094118 1.84137976 -0.83442426 84
0.80439329 4.21278477 -1.79107404 226
0.86033607 4.50150394 -1.78920305 90
0.92179769 4.81397295 -1.78356147 87
1.00579703 5.24769115 -1.80501282 71
1.07940257 5.62110853 -1.78558278 213
1.17498612 6.10735941 -1.78286409 241
1.28197932 6.65722704 -1.77423656 140
1.41384351 7.32820988 -1.76779115 116
1.57275140 8.14421654 -1.76243317 105
1.76774406 9.13682175 -1.75266016 141
1.96140158 10.36060238 -1.73160076 211
1.57709181 8.32260036 -1.18981600 185
1.84116459 9.69765663 -1.15181208 87
-0.00000217 -0.00013333 0.00006531 208
1.86097407 9.77403641 -0.69497460 48
2.90911484 15.25005436 -0.72282463 74
-0.00000217 -0.00013333 0.00006531 82
-0.00000217 -0.00013333 0.00006531 55
7.79096317 40.64875412 0.96395004 153
7.79394913 40.62590790 1.93213451 17
7.80811739 40.62306213 2.89568305 182
7.68153238 39.92681885 3.79630589 85
7.68747759 39.88260651 4.75283480 237
-0.00000217 -0.00013333 0.00006531 235
-0.00000217 -0.00013333 0.00006531 62
-0.00000217 -0.00013333 0.00006531 234
0.11058283 0.56721485 -0.34267566 67
0.11395793 0.58344370 -0.33396241 171
0.12477448 0.63764983 -0.34541932 174
0.13911387 0.71028405 -0.36332610 75
0.16148184 0.82298541 -0.39690211 151
1.76754379 8.99278736 -4.07966232 116
0.82793063 4.20445967 -1.78953290 142
0.88552809 4.49281836 -1.78774881 143
0.95096511 4.81595945 -1.78629768 16
1.03839028 5.24906588 -1.80757344 198
1.11385310 5.62022305 -1.78736997 21
1.21163845 6.10803366 -1.78506899 1
1.32334685 6.65899134 -1.77676892 17
1.45616484 7.31396532 -1.76640868 33
1.62094140 8.12678432 -1.76077104 67
1.81962287 9.11460400 -1.75044000 49
2.01885748 10.34754848 -1.73127747 89
1.57484818 8.05679989 -1.15309334 1
1.88995790 9.65992832 -1.14856732 80
1.90599453 9.72386646 -0.92368758 122
1.91070211 9.72987366 -0.69260597 106
-0.00000217 -0.00013333 0.00006531 179
-0.00000217 -0.00013333 0.00006531 168
-0.00000217 -0.00013333 0.00006531 68
8.03270626 40.64243698 0.96487844 21
8.04459190 40.62794113 1.93446398 24
8.04932976 40.61460114 2.89833283 225
7.92414570 39.90983200 3.79909158 237
7.93137503 39.87330246 4.75724792 124
16.39976501 82.29621124 11.79958439 13
16.41676521 82.30643463 13.79505444 75
-0.00000217 -0.00013333 0.00006531 133
0.11438575 0.56821525 -0.34369567 74
0.11579729 0.57419086 -0.32906461 252
0.12890615 0.63862860 -0.34635824 184
0.14380498 0.71117359 -0.36422348 65
0.16672188 0.82378370 -0.39775774 118
0.37099808 1.82998681 -0.83117121 184
0.85470229 4.20851660 -1.79338682 50
0.91291535 4.49113512 -1.78920376 236
0.97915161 4.80838919 -1.78561401 47
1.06784868 5.23928452 -1.80629373 193
1.14658666 5.61558580 -1.78796589 114
1.24709249 6.09696913 -1.78396726 1
1.36167789 6.65125942 -1.77676940 204
1.49904788 7.30926991 -1.76733112 86
1.66787779 8.12526989 -1.76243448 132
1.87367249 9.11167526 -1.75192142 62
-0.00000217 -0.00013333 0.00006531 255
1.61088657 7.98906708 -1.14474785 188
1.67556953 8.29490566 -0.98745799 171
1.68335152 8.31845474 -0.79114008 202
1.67809618 8.28503132 -0.59044802 36
-0.00000217 -0.00013333 0.00006531 218
-0.00000217 -0.00013333 0.00006531 169
2.97895098 14.64190102 0.00113094 69
8.28172874 40.63323593 0.96580642 152
8.28724289 40.62399673 1.93651378 128
8.29858875 40.60716629 2.90126228 252
8.16585159 39.92206192 3.80466628 35
8.17246246 39.88339996 4.76398516 201
-0.00000217 -0.00013333 0.00006531 206
-0.00000217 -0.00013333 0.00006531 59
-0.00000217 -0.00013333 0.00006531 234
0.11825576 0.57093596 -0.34573594 82
0.12148224 0.58548611 -0.33592156 79
0.13211247 0.63617027 -0.34541944 171
0.14886722 0.71560854 -0.36691520 131
0.17072684 0.81927085 -0.39604670 130
0.38270524 1.83504105 -0.83442473 129
0.87630659 4.19464397 -1.78953362 225
0.93876714 4.48580313 -1.78920412 212
1.00753248 4.81020355 -1.78834999 191
1.09450507 5.21635818 -1.80053329 10
1.17773283 5.60328341 -1.78617954 176
1.28191626 6.09367132 -1.78506994 61
1.39996374 6.64330530 -1.77677000 214
1.54024863 7.30268908 -1.76779282 188
1.71545696 8.11935806 -1.76326644 104
1.92652750 9.10265541 -1.75229228 78
1.57054079 7.57716465 -1.27073240 51
1.65387166 7.97218847 -1.14363563 80
-0.00000217 -0.00013333 0.00006531 120
-0.00000217 -0.00013333 0.00006531 256
-0.00000217 -0.00013333 0.00006531 96
-0.00000217 -0.00013333 0.00006531 192
-0.00000217 -0.00013333 0.00006531 203
-0.00000217 -0.00013333 0.00006531 175
8.51756287 40.62940216 0.96682769 183
8.52436924 40.59123993 1.93725693 124
8.52853870 40.57581329 2.90237689 201
8.40426731 39.91528702 3.80856752 1
8.41310883 39.88814926 4.77025843 25
8.41294575 39.85286331 5.72743511 6
-0.00000217 -0.00013333 0.00006531 141
16.08390999 75.92842865 14.62890530 180
0.12046713 0.56519830 -0.34267581 27
0.12412498 0.58136612 -0.33396247 19
0.13429913 0.62849081 -0.34166417 193
0.15074259 0.70425278 -0.36153173 184
0.17658003 0.82357669 -0.39861339 180
0.39320460 1.83095157 -0.83361155 208
0.89890015 4.18231010 -1.78645110 253
0.96458793 4.48032188 -1.78920448 238
1.03447425 4.79679155 -1.78561485 92
1.12892818 5.23034048 -1.80757475 14
1.21200299 5.60573816 -1.78915823 211
1.31846118 6.08783674 -1.78562164 214
1.43943250 6.64080429 -1.77828956 247
1.58520806 7.30102730 -1.76963723 100
1.76319206 8.10712337 -1.76285148 231
1.98134649 9.09490395 -1.75303328 92
1.61456788 7.56992292 -1.27105701 121
-0.00000217 -0.00013333 0.00006531 107
1.65117681 7.72172070 -0.92139250 58
-0.00000217 -0.00013333 0.00006531 80
-0.00000217 -0.00013333 0.00006531 192
-0.00000217 -0.00013333 0.00006531 44
-0.00000217 -0.00013333 0.00006531 224
-0.00000217 -0.00013333 0.00006531 147
16.67628098 77.32666016 1.84227145 155
11.11489010 51.45162964 2.45857096 159
13.01408672 60.14134598 4.30730152 132
-0.00000217 -0.00013333 0.00006531 105
16.47261429 75.93150330 9.09183025 107
16.49951172 75.92744446 10.92567158 114
-0.00000217 -0.00013333 0.00006531 238
-0.00000217 -0.00013333 0.00006531 85
0.12345107 0.56279302 -0.34165573 76
0.12757331 0.58061951 -0.33396259 88
0.13992292 0.63630688 -0.34635833 191
0.15568852 0.70683682 -0.36332625 25
0.18185413 0.82427931 -0.39946890 213
0.40248629 1.82144940 -0.83035827 203
0.92609352 4.18771410 -1.79107571 23
0.99075466 4.47270060 -1.78847754 166
1.06373465 4.79423857 -1.78698301 145
1.15789187 5.21430111 -1.80437481 128
1.24400306 5.59285593 -1.78737175 180
1.35581779 6.08553600 -1.78727567 53
1.47881424 6.63214540 -1.77829015 222
1.62765658 7.28769350 -1.76871586 132
1.81169653 8.09842682 -1.76326787 154
1.68159926 7.50456285 -1.44838870 77
1.66072965 7.56599236 -1.27203000 104
-0.00000217 -0.00013333 0.00006531 242
1.65641272 7.52747679 -0.89937085 175
1.66223228 7.54136658 -0.71985555 122
1.66242957 7.52974463 -0.53860402 0
-0.00000217 -0.00013333 0.00006531 152
1.69677973 7.66623640 -0.18167417 218
-0.00000217 -0.00013333 0.00006531 76
11.43261528 51.52647018 1.22920716 32
11.43301773 51.44327545 2.46136546 57
-0.00000217 -0.00013333 0.00006531 157
10.36519337 46.48514175 4.44684219 4
-0.00000217 -0.00013333 0.00006531 26
-0.00000217 -0.00013333 0.00006531 166
-0.00000217 -0.00013333 0.00006531 46
-0.00000217 -0.00013333 0.00006531 146
0.12772420 0.56713110 -0.34471712 175
0.13004497 0.57649702 -0.33200473 104
0.14308386 0.63379425 -0.34542081 152
0.15884364 0.70247108 -0.36153305 197
0.18565460 0.81972611 -0.39775926 124
0.41224745 1.81739271 -0.82954705 252
0.94987601 4.18427658 -1.79184997 132
1.01530623 4.46528053 -1.78775406 24
1.09007668 4.78639030 -1.78630316 99
1.18868017 5.21514225 -1.80693936 55
1.27606964 5.58954430 -1.78856754 46
1.38978457 6.07786942 -1.78728044 127
1.51496863 6.62001133 -1.77728248 10
1.66876793 7.28038597 -1.76918244 48
1.85689807 8.08818245 -1.76327384 140
1.72436666 7.49888659 -1.44913459 34
1.59492409 7.07720423 -1.19133437 152
1.67021251 7.39923382 -1.06546700 44
1.66296995 7.36115646 -0.88059968 2
1.68718374 7.45622015 -0.71262103 32
1.67270386 7.38024712 -0.52857488 249
-0.00000520 -0.00013147 0.00006448 27
1.71564639 7.55135298 -0.17918073 237
-0.00000520 -0.00013147 0.00006448 50
1.82216251 8.00077248 0.19115673 23
-0.00000520 -0.00013147 0.00006448 217
-0.00000520 -0.00013147 0.00006448 169
10.46250057 45.71801376 4.37894917 162
-0.00000520 -0.00013147 0.00006448 133
-0.00000520 -0.00013147 0.00006448 68
-0.00000520 -0.00013147 0.00006448 217
15.99011040 69.53672791 13.44861317 111
0.12953660 0.55965883 -0.34063697 50
0.13425174 0.57911319 -0.33396387 15
0.14764105 0.63637394 -0.34729844 181
0.16543701 0.71196187 -0.36691669 163
0.19010654 0.81684917 -0.39690375 60
0.42270836 1.81498814 -0.82954717 154
0.97594684 4.18395805 -1.79416239 18
1.04305720 4.46462059 -1.78993642 55
1.11762619 4.78003216 -1.78630352 168
1.22003829 5.20984221 -1.80757976 23
1.30965197 5.58373165 -1.78916359 16
1.42476714 6.06976366 -1.78728092 144
1.55466843 6.61278820 -1.77778947 100
1.71200919 7.27633667 -1.77056599 154
1.90255404 8.07354450 -1.76244318 144
1.73411918 7.34727526 -1.42174292 237
1.61462831 6.97148180 -1.17512977 179
1.68015540 7.24864531 -1.04515851 155
1.67787194 7.22731447 -0.86576402 14
-0.00000520 -0.00013147 0.00006448 253
1.68126869 7.22474957 -0.51812249 205
-0.00000520 -0.00013147 0.00006448 141
-0.00000520 -0.00013147 0.00006448 123
-0.00000520 -0.00013147 0.00006448 230
1.80218601 7.70168161 0.18426493 51
16.33868408 69.71480560 3.34429598 226
-0.00000520 -0.00013147 0.00006448 27
10.45969009 44.52486801 4.27036572 35
-0.00000520 -0.00013147 0.00006448 169
16.34587097 69.41777039 10.02805138 251
16.40515137 69.56057739 11.74715710 246
-0.00000520 -0.00013147 0.00006448 72
0.13315594 0.56057727 -0.34165698 32
0.13839255 0.58172232 -0.33592296 80
0.14966866 0.62864161 -0.34354320 59
0.16704831 0.70056546 -0.36153316 131
0.19480866 0.81574064 -0.39690381 34
0.43134677 1.80356216 -0.82548058 72
0.99959886 4.17647266 -1.79339206 237
1.06918848 4.46035051 -1.79066408 114
1.14728761 4.77879810 -1.78835547 173
1.25002444 5.20272827 -1.80758023 178
1.34089661 5.57238340 -1.78797269 48
1.46121109 6.06307030 -1.78783250 209
1.59363675 6.60748720 -1.77880275 240
1.75470054 7.26415825 -1.77010560 210
1.95180976 8.06781673 -1.76369083 222
1.68234718 6.94336128 -1.34548938 177
1.64562726 6.92366600 -1.16864836 218
1.69332790 7.11331034 -1.02707565 244
1.69369018 7.10931444 -0.85278302 58
-0.00000520 -0.00013147 0.00006448 93
1.70092595 7.11762094 -0.51115441 34
-0.00000520 -0.00013147 0.00006448 96
2.05766368 8.59050846 -0.20440516 244
-0.00000520 -0.00013147 0.00006448 236
-0.00000520 -0.00013147 0.00006448 228
16.71005058 69.49522400 3.33831835 113
-0.00000520 -0.00013147 0.00006448 108
-0.00000520 -0.00013147 0.00006448 86
-0.00000520 -0.00013147 0.00006448 61
-0.00000520 -0.00013147 0.00006448 217
-0.00000520 -0.00013147 0.00006448 53
-0.00000520 -0.00013147 0.00006448 24
0.13607334 0.55810577 -0.34063703 239
0.14101565 0.57750368 -0.33396390 23
0.15381619 0.62945759 -0.34448215 126
0.17247771 0.70477033 -0.36422512 183
0.19964652 0.81457007 -0.39690396 131
0.43998688 1.79394960 -0.82222730 53
1.02304423 4.16509056 -1.79108036 169
1.09519279 4.45211840 -1.78993726 83
1.17434323 4.77028608 -1.78767204 224
1.27906168 5.18786097 -1.80502033 39
1.37485552 5.56803560 -1.78916454 132
1.49656856 6.05642080 -1.78838408 25
1.63328290 6.59979200 -1.77930963 12
1.79791331 7.25959921 -1.77148914 147
2.00107002 8.06783390 -1.76618564 129
1.69482887 6.82292175 -1.32402027 115
1.66750658 6.83516645 -1.15536070 117
-0.00000520 -0.00013147 0.00006448 61
1.70848215 6.98721695 -0.83933836 224
1.71604383 7.00752926 -0.67252386 57
1.71719801 7.00693941 -0.50390774 24
-0.00000520 -0.00013147 0.00006448 120
-0.00000520 -0.00013147 0.00006448 220
-0.00000520 -0.00013147 0.00006448 89
-0.00000520 -0.00013147 0.00006448 135
-0.00000520 -0.00013147 0.00006448 254
-0.00000520 -0.00013147 0.00006448 207
10.42940426 42.17450333 4.05636072 208
9.08471107 36.68180847 4.42201853 219
-0.00000520 -0.00013147 0.00006448 1
-0.00000520 -0.00013147 0.00006448 193
-0.00000520 -0.00013147 0.00006448 179
0.13928612 0.55731332 -0.34063706 191
0.14391677 0.57499021 -0.33298439 38
0.15743966 0.62856090 -0.34448221 66
0.17523015 0.69856405 -0.36153331 149
0.20507355 0.81694943 -0.39861503 73
0.44719446 1.77898204 -0.81653404 19
1.04791737 4.16270876 -1.79262221 241
1.11958563 4.44412470 -1.78921008 69
1.20179856 4.76344347 -1.78767240 169
1.30987120 5.18798447 -1.80758119 219
1.40686774 5.56397200 -1.79035604 47
1.53142619 6.04770088 -1.78838468 0
1.67249370 6.59994411 -1.78184199 106
1.83921671 7.24723625 -1.77102876 119
2.04561663 8.05463505 -1.76577067 130
1.70577896 6.70668173 -1.30329156 216
1.70253778 6.80821753 -1.15244436 71
1.72851527 6.90696812 -1.00009072 3
1.72358489 6.87706089 -0.82728451 228
1.73116732 6.89709425 -0.66287094 67
-0.00000520 -0.00013147 0.00006448 247
-0.00000520 -0.00013147 0.00006448 136
-0.00000520 -0.00013147 0.00006448 206
-0.00000520 -0.00013147 0.00006448 100
-0.00000520 -0.00013147 0.00006448 65
16.13324928 63.85143280 3.07592726 156
13.39539242 52.93776703 3.82236218 100
-0.00000520 -0.00013147 0.00006448 109
9.27235031 36.56310272 4.41388035 39
16.06554794 63.25761414 9.17726135 162
16.04897499 63.14607620 10.70912457 128
16.06353188 63.11096573 12.27465916 95
0.14367624 0.56152594 -0.34369734 170
0.14799197 0.57755506 -0.33494365 39
0.16226403 0.63280416 -0.34729871 227
0.18090752 0.70449942 -0.36512250 28
0.20662479 0.80349874 -0.39262643 125
0.45606676 1.77106750 -0.81409419 77
1.07114995 4.15679169 -1.79262257 41
1.14655972 4.44301462 -1.79139256 156
1.23015428 4.76008224 -1.78904068 218
1.34352529 5.19502926 -1.81270242 245
1.43984771 5.55947351 -1.79154789 152
1.56719804 6.04250193 -1.78948748 213
1.70950663 6.58645630 -1.78082991 253
1.88190627 7.24029112 -1.77195132 128
2.09534860 8.04992771 -1.76743424 229
1.74455571 6.69263554 -1.30255175 10
1.73661971 6.78330660 -1.14985204 20
1.74711740 6.81440115 -0.98812848 33
1.74271321 6.79228449 -0.81824434 108
1.74884737 6.80631208 -0.65507448 194
1.75255442 6.81086445 -0.49122602 95
-0.00000520 -0.00013147 0.00006448 149
1.78589559 6.92539215 -0.16548455 16
-0.00000520 -0.00013147 0.00006448 81
-0.00000520 -0.00013147 0.00006448 201
16.33906174 63.13275146 3.04578400 161
14.98798656 57.82899094 4.18168354 95
11.47783279 44.22190857 4.26570272 102
9.47379780 36.47448730 4.40969324 60
16.42513084 63.14677811 9.17474747 180
-0.00000520 -0.00013147 0.00006448 97
-0.00000520 -0.00013147 0.00006448 182
0.14482529 0.55234325 -0.33859703 183
0.14920348 0.56823415 -0.33004582 256
0.16422209 0.62499797 -0.34354344 220
0.18372120 0.69822764 -0.36243075 135
0.21415314 0.81274694 -0.39775968 219
0.46532860 1.76487815 -0.81246763 143
1.09674001 4.15393114 -1.79416430 111
1.17147613 4.43072844 -1.78921092 227
1.25706911 4.75110102 -1.78835714 253
1.36802053 5.16315460 -1.80438173 19
1.47232318 5.54898596 -1.79095292 19
1.60049415 6.02780008 -1.78783464 176
1.74905825 6.57806683 -1.78133690 208
1.92357600 7.22933197 -1.77195203 9
2.14218140 8.03961658 -1.76785064 16
1.78408682 6.68627548 -1.30329275 149
1.77483904 6.76524639 -1.14855635 240
1.77426684 6.75824881 -0.98145205 84
1.76783609 6.72418594 -0.81129050 178
1.77298236 6.73418999 -0.64913458 25
1.77345467 6.73120403 -0.48620921 98
-0.00000520 -0.00013147 0.00006448 233
-0.00000520 -0.00013147 0.00006448 44
-0.00000520 -0.00013147 0.00006448 16
1.85872734 7.01999712 0.16917568 219
16.72518539 63.07909012 3.04792356 60
15.33974266 57.81306076 4.18684578 103
11.74205875 44.19163513 4.26923132 226
9.67730713 36.36963272 4.40387869 88
-0.00000520 -0.00013147 0.00006448 23
-0.00000520 -0.00013147 0.00006448 31
-0.00000520 -0.00013147 0.00006448 112
0.14978801 0.55814618 -0.34267738 256
0.15428425 0.57410109 -0.33396420 245
0.16873677 0.62745279 -0.34542114 154
0.18774024 0.69715774 -0.36243084 138
0.21789001 0.80800921 -0.39604872 16
0.47548619 1.76216888 -0.81246781 87
1.11920249 4.14219999 -1.79185247 173
1.19746244 4.42570686 -1.78993881 140
1.28392136 4.74196815 -1.78767371 70
1.39971888 5.16250515 -1.80694258 148
1.50375819 5.53857136 -1.79035759 133
1.63820934 6.02961397 -1.79114199 144
1.78488421 6.56041527 -1.77931201 189
1.96671557 7.22376585 -1.77333570 255
2.18845081 8.02714539 -1.76785135 2
1.82101476 6.67020130 -1.30218291 206
-0.00000520 -0.00013147 0.00006448 172
1.80082774 6.70201397 -0.97477567 219
1.79569590 6.67360735 -0.80642301 92
1.80241370 6.68925762 -0.64579350 24
1.80492294 6.69390774 -0.48425853 123
-0.00000520 -0.00013147 0.00006448 121
-0.00000520 -0.00013147 0.00006448 154
-0.00000520 -0.00013147 0.00006448 9
-0.00000520 -0.00013147 0.00006448 30
-0.00000520 -0.00013147 0.00006448 15
-0.00000520 -0.00013147 0.00006448 189
12.02460289 44.22703934 4.27926683 189
9.86835861 36.24621201 4.39574003 255
-0.00000520 -0.00013147 0.00006448 237
-0.00000520 -0.00013147 0.00006448 173
-0.00000520 -0.00013147 0.00006448 76
0.15117931 0.55063862 -0.33859709 255
0.15758887 0.57320368 -0.33396423 173
0.17234844 0.62647003 -0.34542122 68
1.66791201 6.05540228 -3.15292740 15
0.22302140 0.80848384 -0.39690432 71
0.48514193 1.75763977 -0.81165463 12
1.14205790 4.13212776 -1.79031157 52
1.22293282 4.41873693 -1.78993928 246
1.31121182 4.73449421 -1.78767419 256
1.43145478 5.16166067 -1.80950356 11
1.53614390 5.53165865 -1.79095399 227
1.67188072 6.01637363 -1.79004037 159
1.82627058 6.56307459 -1.78285718 94
2.00881076 7.21419287 -1.77379739 213
2.23412156 8.01252270 -1.76743650 21
1.86045933 6.66338921 -1.30292392 35
-0.00000520 -0.00013147 0.00006448 187
1.83572423 6.67816305 -0.97282887 212
1.83146763 6.65357924 -0.80526447 185
1.83879483 6.67108631 -0.64505160 92
1.84132540 6.67570972 -0.48370174 39
-0.00000520 -0.00013147 0.00006448 25
-0.00000520 -0.00013147 0.00006448 15
1.87459886 6.77324724 0.00055477 149
-0.00000520 -0.00013147 0.00006448 217
-0.00000520 -0.00013147 0.00006448 251
16.04577827 57.78054810 4.19758797 158
12.29033756 44.19733429 4.28316689 117
10.05937386 36.12561798 4.38806581 100
-0.00000520 -0.00013147 0.00006448 181
-0.00000520 -0.00013147 0.00006448 56
15.86977959 56.80012894 11.11589527 43
0.15481378 0.55141437 -0.33961719 184
0.15900095 0.56557202 -0.33004600 174
0.17499807 0.62206751 -0.34354368 38
0.19672865 0.69838995 -0.36422551 73
0.22571206 0.80022597 -0.39348224 148
0.49773875 1.76360881 -0.81572157 1
1.16834760 4.13436127 -1.79416549 249
1.24937701 4.41520452 -1.79139423 172
1.33845866 4.72686386 -1.78767467 28
1.46115994 5.15333176 -1.80950403 45
1.56797838 5.52271986 -1.79095447 32
1.70650470 6.00664425 -1.79004097 242
1.86457014 6.55430841 -1.78336430 14
2.05139351 7.20624781 -1.77472007 189
-0.00000520 -0.00013147 0.00006448 8
-0.00000520 -0.00013147 0.00006448 238
-0.00000520 -0.00013147 0.00006448 200
1.87683702 6.67701244 -0.97422057 66
1.87514150 6.66204262 -0.80758333 152
1.87880802 6.66613436 -0.64560920 199
1.88136923 6.67075348 -0.48412052 87
1.88407540 6.67142391 -0.32274151 143
-0.00000520 -0.00013147 0.00006448 99
1.91194570 6.75656319 0.00055373 44
1.94322252 6.85794497 0.16605400 231
16.20989990 57.13205719 2.77367902 221
9.05364895 31.88843727 2.32038116 131
9.07920551 31.93596649 3.09995127 149
9.08054161 31.89828491 3.88087869 38
-0.00000520 -0.00013147 0.00006448 17
16.16956139 56.68790054 9.68924999 229
16.21015930 56.75502014 11.12514973 141
0.15703882 0.54720700 -0.33757725 69
0.16273786 0.56632274 -0.33102569 31
0.17857864 0.62104887 -0.34354365 93
0.19975948 0.69380993 -0.36243102 253
0.23081857 0.80064952 -0.39433780 194
0.50667578 1.75535786 -0.81328171 105
1.19111621 4.12401724 -1.79262459 193
1.27375066 4.40435648 -1.78994012 158
1.36700737 4.72064304 -1.78835905 155
1.48817968 5.13572931 -1.80630398 1
1.60082459 5.51726389 -1.79214621 119
1.74104559 5.99272060 -1.78893924 99
1.90174901 6.54160261 -1.78285861 159
2.09357619 7.19207907 -1.77425981 27
2.32492614 7.97646046 -1.76535976 6
-0.00000520 -0.00013147 0.00006448 143
1.90788507 6.64479351 -1.13527071 7
1.91752088 6.66956377 -0.97477770 124
1.91457963 6.65494967 -0.80804765 2
1.91882479 6.66094446 -0.64616680 240
1.92092156 6.65947151 -0.48412120 71
1.92800951 6.67965555 -0.32367238 220
1.94302058 6.72284555 -0.16192417 246
-0.00000520 -0.00013147 0.00006448 21
1.98157740 6.84279871 0.16596027 173
16.45300865 56.74224854 2.75930381 129
-0.00000520 -0.00013147 0.00006448 255
-0.00000520 -0.00013147 0.00006448 126
-0.00000520 -0.00013147 0.00006448 70
-0.00000520 -0.00013147 0.00006448 188
-0.00000520 -0.00013147 0.00006448 51
-0.00000520 -0.00013147 0.00006448 100
0.16125238 0.54956645 -0.33961734 186
0.16609627 0.56534630 -0.33102578 195
0.18325746 0.62336677 -0.34542146 200
0.20488301 0.69604170 -0.36422563 40
0.23812126 0.80793619 -0.39861566 234
0.51811802 1.75582480 -0.81490862 192
1.21661258 4.12041664 -1.79416633 23
1.30092049 4.40029335 -1.79139519 137
1.39446259 4.71064568 -1.78767562 78
1.51862931 5.12680817 -1.80630457 53
1.63353634 5.50766706 -1.79214680 13
1.77767110 5.98596954 -1.79004216 168
1.94108510 6.53205633 -1.78336561 131
2.13566256 7.17766380 -1.77379966 234
2.36886668 7.95127487 -1.76286650 180
-0.00000520 -0.00013147 0.00006448 188
1.95228553 6.65039587 -1.13818836 87
1.95929921 6.66566944 -0.97589117 157
1.95627964 6.65109396 -0.80897564 93
1.96225607 6.66281271 -0.64746702 111
1.96322763 6.65752268 -0.48481876 118
1.96817899 6.67001390 -0.32376620 52
1.98458099 6.71694851 -0.16206372 232
-0.00000520 -0.00013147 0.00006448 212
-0.00000520 -0.00013147 0.00006448 88
-0.00000520 -0.00013147 0.00006448 218
-0.00000520 -0.00013147 0.00006448 240
-0.00000520 -0.00013147 0.00006448 114
-0.00000520 -0.00013147 0.00006448 128
8.83784962 29.68345070 4.35499287 98
-0.00000520 -0.00013147 0.00006448 121
16.02549171 53.72145081 10.56651306 201
0.16540065 0.55192554 -0.34165862 55
0.17085096 0.56939262 -0.33396560 202
0.18836616 0.62737632 -0.34823909 250
0.20734315 0.68971598 -0.36153498 102
0.23964299 0.79616618 -0.39348370 214
0.52822089 1.75281298 -0.81491041 17
1.23872566 4.10804033 -1.79185724 164
1.32516563 4.38916159 -1.78994381 120
1.42265832 4.70613480 -1.78904700 3
1.54703522 5.11434984 -1.80502796 56
1.66689122 5.50364971 -1.79393756 223
1.81379175 5.98115063 -1.79169977 177
1.97755086 6.51706600 -1.78235734 106
2.17809844 7.16896772 -1.77472627 181
2.41177607 7.92814064 -1.76079309 129
2.03410101 6.67822409 -1.31477594 76
1.99565673 6.65605545 -1.14110970 210
2.00050426 6.66375971 -0.97728670 173
1.99569619 6.64352179 -0.80944371 204
2.00461197 6.66474867 -0.64877105 245
2.00498986 6.65756893 -0.48565954 18
2.00886631 6.66621923 -0.32414272 188
2.02612019 6.71498060 -0.16229965 234
-0.00000821 -0.00012962 0.00006366 121
-0.00000821 -0.00012962 0.00006366 165
-0.00000821 -0.00012962 0.00006366 27
-0.00000821 -0.00012962 0.00006366 83
-0.00000821 -0.00012962 0.00006366 240
-0.00000821 -0.00012962 0.00006366 163
9.00405025 29.61690712 4.35274839 15
-0.00000821 -0.00012962 0.00006366 234
-0.00000821 -0.00012962 0.00006366 110
0.16615590 0.54271007 -0.33655834 238
0.17371646 0.56670099 -0.33298597 172
0.19105083 0.62287062 -0.34636152 14
0.21038362 0.68505603 -0.35974056 102
0.24475613 0.79650116 -0.39433929 167
0.53669626 1.74450231 -0.81247056 86
1.26416790 4.10414505 -1.79339910 177
1.35261834 4.38857746 -1.79285347 253
1.45029426 4.69965887 -1.78973126 203
1.57758379 5.10897589 -1.80630863 96
1.69687021 5.48848581 -1.79215109 153
1.84821057 5.97060585 -1.79170036 18
2.01619840 6.50926399 -1.78337061 87
2.21992922 7.15816498 -1.77518797 72
2.45427799 7.90894222 -1.75954688 242
2.07486653 6.67802191 -1.31699741 245
2.03974342 6.65919352 -1.14370334 160
2.04175377 6.66159487 -0.97867841 18
2.03974724 6.64675570 -0.81129897 219
2.04822063 6.66606092 -0.65007114 56
2.04564667 6.65353870 -0.48621765 159
2.05485535 6.67518425 -0.32516670 137
2.06947112 6.71848726 -0.16267052 133
2.08239412 6.75205278 0.00055017 143
-0.00000821 -0.00012962 0.00006366 119
-0.00000821 -0.00012962 0.00006366 131
-0.00000821 -0.00012962 0.00006366 163
-0.00000821 -0.00012962 0.00006366 115
-0.00000821 -0.00012962 0.00006366 212
9.17331028 29.56077194 4.35218906 106
-0.00000821 -0.00012962 0.00006366 151
15.81234932 50.86075592 10.03897285 4
0.17379931 0.55655229 -0.34573901 95
0.17635910 0.56405824 -0.33200654 171
0.19505437 0.62347949 -0.34730035 14
0.21527538 0.68728215 -0.36153510 98
0.24771747 0.78990334 -0.39177278 58
0.55080724 1.75542450 -0.81897748 13
1.28762317 4.09878111 -1.79417026 200
1.37787211 4.38071442 -1.79285395 46
1.47595513 4.68969297 -1.78904784 4
1.61096942 5.11245537 -1.81078994 60
1.72902787 5.48044205 -1.79274738 15
1.88094890 5.95835638 -1.79114974 184
2.05307221 6.49569941 -1.78286493 202
-0.00000821 -0.00012962 0.00006366 91
2.49860835 7.89094496 -1.75871634 82
2.11685824 6.67720127 -1.31921923 226
2.07925749 6.65523195 -1.14500034 137
2.08129072 6.65764761 -0.97979188 93
2.07921147 6.64284325 -0.81222689 114
2.08899212 6.66592026 -0.65118575 233
2.08695436 6.65533638 -0.48719385 201
2.09629393 6.67694712 -0.32581854 90
2.11292982 6.72171593 -0.16304149 61
2.12487340 6.75557899 0.00055065 16
2.14767814 6.81975460 0.16655880 107
9.05281448 28.71169281 1.40606463 20
9.05578136 28.70359612 2.10682487 231
9.08642960 28.76569748 2.81657720 226
9.08251858 28.71836853 3.52452016 78
9.33946228 29.51285362 4.35274315 1
15.95768452 50.36541748 8.68395233 26
15.96953297 50.34170914 9.95450783 106
0.17386961 0.54570705 -0.33961868 123
0.18013535 0.56469434 -0.33298618 0
0.19595826 0.61393374 -0.34260634 245
0.21868682 0.68432850 -0.36063799 124
0.25336507 0.79190660 -0.39348394 136
0.56232947 1.75560498 -0.82060432 84
1.31064570 4.08953905 -1.79339993 10
1.40251112 4.37093115 -1.79212713 23
1.50375819 4.68085194 -1.78904843 82
1.64212763 5.10850334 -1.81271064 92
1.76231897 5.47584534 -1.79453492 127
1.91745245 5.95074940 -1.79225266 217
2.08926320 6.48008347 -1.78185284 86
2.29864907 7.12100506 -1.77242362 62
2.54298329 7.86853218 -1.75705445 191
2.16310024 6.68509245 -1.32329190 217
2.12175035 6.65630865 -1.14726973 179
2.12497711 6.65838909 -0.98174012 15
2.11985445 6.63832760 -0.81315476 52
2.13159561 6.66705418 -0.65248585 1
2.13066912 6.65613699 -0.48817021 194
2.13715386 6.67237377 -0.32619137 127
2.15405178 6.71704912 -0.16322738 142
2.16798186 6.75237179 0.00055053 75
2.18997931 6.81679058 0.16679092 47
-0.00000821 -0.00012962 0.00006366 209
-0.00000821 -0.00012962 0.00006366 25
9.10053730 28.22608566 2.76897812 182
-0.00000821 -0.00012962 0.00006366 230
9.04144859 27.99254036 4.13635874 222
-0.00000821 -0.00012962 0.00006366 140
15.94942760 49.29148865 9.76483727 182
0.17497796 0.53812230 -0.33553845 230
0.18456312 0.56693155 -0.33494529 5
0.19905168 0.61108106 -0.34166753 137
0.22440679 0.68811667 -0.36332986 197
0.25848320 0.79215300 -0.39433956 165
0.57583600 1.76275814 -0.82548469 75
1.33775842 4.09045982 -1.79725397 70
1.42650354 4.35924006 -1.79067290 164
1.53244829 4.67747211 -1.79110062 144
1.67506444 5.10976410 -1.81655180 102
1.79204202 5.46016216 -1.79274857 149
1.95109415 5.93778086 -1.79170227 226
2.12957287 6.47713375 -1.78438544 72
2.33840775 7.10394955 -1.77150238 187
2.20622945 6.69844770 -1.49849641 57
2.20163417 6.67664003 -1.32403278 215
2.16609645 6.65861464 -1.14986324 183
2.16635609 6.65545654 -0.98313183 195
2.16351843 6.63885212 -0.81477827 121
2.17544532 6.66753960 -0.65378624 180
2.17268586 6.65513372 -0.48900726 65
2.18105578 6.67286682 -0.32684329 203
2.19705439 6.71783400 -0.16355206 121
2.21119380 6.75307798 0.00055084 184
2.23475313 6.81697416 0.16711615 7
-0.00000821 -0.00012962 0.00006366 8
-0.00000821 -0.00012962 0.00006366 179
9.08646870 27.65266991 2.71766138 78
-0.00000821 -0.00012962 0.00006366 239
9.03709793 27.43774223 4.06200123 165
-0.00000821 -0.00012962 0.00006366 11
15.98735142 48.45410538 9.61702633 209
0.17960426 0.54203540 -0.33859873 125
0.18772717 0.56589204 -0.33494538 196
0.20468703 0.61666405 -0.34542298 20
0.22768344 0.68515646 -0.36243260 3
0.26190075 0.78722090 -0.39262855 179
0.58482486 1.75594509 -0.82385808 254
1.35941613 4.07942295 -1.79571307 11
1.45276642 4.35448647 -1.79212809 211
1.55876756 4.66678476 -1.79041708 116
1.69966197 5.08565569 -1.81143165 74
1.82285464 5.44793892 -1.79215348 68
1.98403943 5.92279959 -1.79060042 181
2.16807222 6.46842909 -1.78539896 137
2.37680840 7.08298445 -1.76965928 155
-0.00000821 -0.00012962 0.00006366 49
2.24748087 6.68208742 -1.32773519 195
2.20635629 6.65577936 -1.15148461 37
2.20902038 6.65602684 -0.98508000 49
2.20369363 6.63609171 -0.81593806 92
2.21453500 6.66095543 -0.65434390 205
2.21602178 6.65765429 -0.49012297 219
2.22207808 6.67195320 -0.32740223 59
2.23950529 6.71644926 -0.16383052 146
2.25321889 6.74971581 0.00055070 60
2.27785993 6.81955814 0.16748779 97
-0.00000821 -0.00012962 0.00006366 69
-0.00000821 -0.00012962 0.00006366 205
9.08712769 27.11113167 2.66969085 11
11.60362530 34.59895325 4.27016973 135
-0.00000821 -0.00012962 0.00006366 124
-0.00000821 -0.00012962 0.00006366 79
-0.00000821 -0.00012962 0.00006366 12
0.18557161 0.54910922 -0.34369910 159
0.18940631 0.55981266 -0.33200678 256
0.20890954 0.61711138 -0.34636176 176
0.23117217 0.68210036 -0.36153546 216
0.26714894 0.78736401 -0.39348418 123
0.60256404 1.77504027 -0.83443183 220
1.38300586 4.06953716 -1.79494274 106
1.47798049 4.34402466 -1.79140115 255
1.58562016 4.65772963 -1.79041755 236
1.72919965 5.07368612 -1.81079209 91
1.85700059 5.44244671 -1.79394102 212
2.02060413 5.91855097 -1.79280591 188
2.20579290 6.45361900 -1.78489327 119
2.41504455 7.06181192 -1.76781619 232
-0.00000821 -0.00012962 0.00006366 179
2.28975344 6.68018723 -1.32995701 52
2.24960661 6.65378761 -1.15342999 135
2.25112748 6.65445042 -0.98675007 173
2.24749517 6.63606977 -0.81756157 256
2.25849915 6.66089773 -0.65564418 255
2.25817657 6.65611792 -0.49095994 227
2.26484394 6.66810799 -0.32786813 8
2.28575921 6.72197104 -0.16429415 205
2.29656672 6.74988079 0.00055090 224
2.32151151 6.81538534 0.16771981 205
-0.00000821 -0.00012962 0.00006366 237
-0.00000821 -0.00012962 0.00006366 40
9.08477306 26.59477997 2.62395167 115
11.82866192 34.58775330 4.27737141 71
10.01043034 29.25439262 4.34771681 141
-0.00000821 -0.00012962 0.00006366 133
-0.00000821 -0.00012962 0.00006366 208
0.18649152 0.54152441 -0.33961892 255
0.19546930 0.56695443 -0.33690456 220
0.21015778 0.60922021 -0.34260654 199
0.23626433 0.68413597 -0.36333013 85
0.27108935 0.78410375 -0.39262870 81
0.61158335 1.76808667 -0.83280534 223
1.40581799 4.05976057 -1.79417253 120
1.50419617 4.33896112 -1.79285634 19
1.61426830 4.65384626 -1.79246998 214
1.76709485 5.08870173 -1.81975412 171
1.88831592 5.43166161 -1.79394162 91
2.05529022 5.90863132 -1.79335761 35
-0.00000821 -0.00012962 0.00006366 210
2.45311618 7.04043388 -1.76597285 210
2.71519446 7.78385019 -1.75165391 86
2.33402228 6.68358850 -1.33328938 22
2.29303479 6.65564728 -1.15602350 136
2.29393506 6.65447950 -0.98869830 152
2.29021549 6.63615942 -0.81918502 163
2.30007768 6.65719080 -0.65657312 46
2.30103898 6.65619946 -0.49193639 49
2.30909324 6.67194605 -0.32870618 228
2.32836556 6.72003269 -0.16457266 237
2.34064698 6.75165939 0.00055123 107
2.36662817 6.81890249 0.16813813 209
16.27383995 46.83714676 2.31575441 157
-0.00000821 -0.00012962 0.00006366 136
-0.00000821 -0.00012962 0.00006366 149
-0.00000821 -0.00012962 0.00006366 111
8.92955971 25.61309814 3.81414390 43
-0.00000821 -0.00012962 0.00006366 50
15.77319050 45.14155960 9.01282597 10
0.18903857 0.53881830 -0.33859897 70
0.19584340 0.55759364 -0.33200693 249
0.21366374 0.60799974 -0.34260672 250
0.23782887 0.67601985 -0.35974112 254
0.27606508 0.78428334 -0.39348435 61
0.62297142 1.76798105 -0.83443224 112
1.42979074 4.05333614 -1.79494357 10
1.52778602 4.32873631 -1.79212952 97
1.63854098 4.63738346 -1.78973484 233
1.78664625 5.05374384 -1.81079328 123
1.91862249 5.42103004 -1.79394221 173
2.08800316 5.89307070 -1.79225600 119
2.27692366 6.42270994 -1.78337562 241
2.49232388 7.02252054 -1.76505184 61
2.75600624 7.76118994 -1.74999201 175
2.37921405 6.69267130 -1.33773208 192
2.33590579 6.65536594 -1.15829313 89
2.33616209 6.65236950 -0.99036837 126
2.33366990 6.63785124 -0.82104033 200
2.34301019 6.65698242 -0.65787351 216
2.34331441 6.65412712 -0.49277344 245
2.35346103 6.67549276 -0.32954428 212
2.37118244 6.72200632 -0.16494364 5
2.38548899 6.75503874 0.00055175 11
2.40986204 6.81646824 0.16841659 110
-0.00000821 -0.00012962 0.00006366 128
-0.00000821 -0.00012962 0.00006366 66
9.05270195 25.54962730 2.53079987 200
9.05065632 25.51552200 3.16794324 68
9.04644680 25.47538948 3.80133033 178
8.79097652 24.74223328 4.31587839 118
15.75106525 44.28243637 8.85871887 249
0.19204552 0.53775364 -0.33859900 51
0.20012897 0.55977458 -0.33396611 86
0.22003019 0.61511064 -0.34730086 231
0.23979379 0.66963261 -0.35704938 145
0.27935827 0.77927625 -0.39177337 192
1.36688542 3.80918241 -1.80150449 189
1.45240653 4.04528761 -1.79494405 210
1.55269229 4.31986427 -1.79213011 145
1.66776848 4.63494349 -1.79247105 187
1.81829119 5.05050039 -1.81335437 173
1.95046079 5.41168642 -1.79453862 17
2.12386727 5.88637304 -1.79391015 204
2.31256390 6.40584898 -1.78236377 23
2.53074431 7.00255728 -1.76366973 91
2.80201316 7.74469852 -1.74999297 11
-0.00000821 -0.00012962 0.00006366 190
2.37569594 6.64964914 -1.15959024 183
2.38177490 6.65931797 -0.99342942 9
2.37539148 6.63780594 -0.82266390 138
2.38485479 6.65691423 -0.65917373 86
2.38766265 6.65742302 -0.49402857 23
2.39543128 6.67540836 -0.33019614 215
2.41459107 6.72141218 -0.16526848 51
2.42841721 6.75247860 0.00055169 79
2.45398808 6.81983566 0.16883489 107
-0.00000821 -0.00012962 0.00006366 77
-0.00000821 -0.00012962 0.00006366 79
-0.00000821 -0.00012962 0.00006366 156
12.49071503 34.58029175 4.30223036 211
10.19651318 28.19797325 4.21626377 247
8.93630314 24.68592072 4.31522703 2
15.91616726 43.94335938 8.80907440 226
0.19523384 0.53660494 -0.33859912 169
0.20165788 0.55366158 -0.33102754 3
0.22367705 0.61379379 -0.34730095 162
0.24621381 0.67491436 -0.36063844 57
0.28211805 0.77251029 -0.38920680 116
-0.00000821 -0.00012962 0.00006366 55
1.47638607 4.03659678 -1.79494464 76
1.57893980 4.31232357 -1.79285789 108
1.69589019 4.62672997 -1.79315567 53
1.84757686 5.03784180 -1.81271470 202
1.98385584 5.40360117 -1.79573035 228
2.16273952 5.88449287 -1.79721785 74
2.34719729 6.38293314 -1.77983260 191
2.57023668 6.98193884 -1.76228774 208
2.47789383 6.72383738 -1.52261114 159
2.47003984 6.69531298 -1.34402680 239
-0.00000821 -0.00012962 0.00006366 242
2.42531848 6.65623283 -0.99509960 240
2.41950274 6.63665915 -0.82428747 150
2.42909503 6.65574026 -0.66047412 140
2.43055034 6.65250635 -0.49472630 57
2.44117546 6.67796421 -0.33103433 93
2.46061873 6.72386360 -0.16568589 235
2.47394848 6.75297451 0.00055200 80
2.49923182 6.81829453 0.16915993 160
-0.00000821 -0.00012962 0.00006366 189
16.13889503 43.93492889 3.27621460 175
-0.00000821 -0.00012962 0.00006366 160
12.71627903 34.56149292 4.30919886 25
10.19116783 27.66864014 4.14608335 227
9.07376194 24.60838509 4.31100655 111
-0.00000821 -0.00012962 0.00006366 34
0.19961059 0.53866339 -0.34063923 220
0.20372771 0.54918563 -0.32906848 167
0.22424410 0.60417819 -0.34260690 59
0.25083753 0.67511672 -0.36153591 114
0.29110870 0.78268337 -0.39519575 25
1.40880895 3.78412914 -1.79743862 247
1.49966967 4.02603626 -1.79417443 160
1.60645461 4.30811596 -1.79504061 84
1.72331583 4.61658525 -1.79315627 184
1.87213588 5.01258993 -1.80759454 39
2.01588631 5.39173412 -1.79573107 240
2.19357705 5.86075211 -1.79391158 82
2.38164043 6.35983276 -1.77730167 25
2.61025691 6.96291828 -1.76136661 78
2.50194097 6.66688871 -1.51305115 80
2.49797678 6.64925671 -1.33773470 30
2.50383782 6.75422382 -1.18292761 134
-0.00000821 -0.00012962 0.00006366 119
2.46437430 6.63708258 -0.82614291 98
2.47271132 6.65240812 -0.66158885 137
2.47833395 6.66040468 -0.49639973 177
2.48424554 6.67272091 -0.33150032 181
2.50536418 6.72225904 -0.16601072 244
2.51957154 6.75316477 0.00055220 192
2.54524326 6.81832933 0.16953146 177
-0.00000821 -0.00012962 0.00006366 212
-0.00000821 -0.00012962 0.00006366 10
15.68519688 41.88476562 4.17579937 77
12.94484425 34.54866791 4.31709623 99
