# .PCD v0.7 - Point Cloud Data file format
VERSION 0.7
FIELDS x y z intensity
SIZE 4 4 4 4
TYPE F F F F
COUNT 1 1 1 1
WIDTH 1
HEIGHT 122
VIEWPOINT 0 0 0 1 0 0 0
POINTS 122
DATA ascii
11.978782 4.0103741 -0.5890941 0
11.95201 3.9643242 -0.58723074 1
11.948537 3.9238546 -0.58648539 1
11.948046 3.8867724 -0.58592641 1
11.933573 3.8406451 -0.58462203 1
11.926457 3.8039281 -0.58378357 1
11.931974 3.7667227 -0.58350408 1
11.92468 3.7232611 -0.5825724 1
11.934387 3.6920257 -0.5825724 1
11.922363 3.64959 -0.5814544 1
11.919756 3.6101425 -0.5808022 1
11.923384 3.5703876 -0.58042955 1
11.914152 3.5313962 -0.57949787 1
11.914382 3.495302 -0.57903206 1
11.920864 3.4588189 -0.57884574 1
11.920278 3.4248416 -0.57837987 1
11.822724 3.3566439 -0.85939974 1
11.921368 3.38465 -0.577914 1
11.923665 3.3471005 -0.57754141 0
11.918142 3.307436 -0.57679605 0
11.65383 3.2012522 -1.1275223 2
11.942172 3.2804585 -0.57754141 0
11.640215 3.1603956 -1.125293 2
11.953781 3.2455308 -0.57763457 0
11.643229 3.1263254 -1.1247357 2
11.984024 3.2178326 -0.57865942 0
11.637053 3.0876875 -1.1232494 2
12.00317 3.1848304 -0.57912523 0
11.903333 3.122782 -1.4391072 2
11.637925 3.0531538 -1.1225063 2
12.025547 3.1548445 -0.57977742 0
11.910623 3.0869482 -1.438875 2
11.643079 3.0176072 -1.1221347 2
11.784896 3.0543628 -0.85130799 3
12.007778 3.1121285 -0.57847303 0
11.899954 3.0487478 -1.4365519 2
11.639885 2.9821186 -1.12102 2
11.772119 3.0159967 -0.84977335 3
12.03384 3.0830493 -0.57931155 0
11.60269 2.9359336 -1.6820462 3
11.887763 3.0080683 -1.4339966 2
11.650612 2.9480598 -1.1212058 2
11.773279 2.9790995 -0.84921533 4
12.075859 3.0556641 -0.58089536 0
11.624801 2.9048524 -1.6839947 3
11.898563 2.9732614 -1.4342289 2
11.645784 2.9100959 -1.1199052 2
11.770453 2.9412487 -0.84837824 4
12.150775 3.0362847 -0.58406305 0
11.594411 2.862885 -1.6784277 3
11.895248 2.9371674 -1.4328351 2
11.653866 2.8775654 -1.1199052 1
11.77281 2.906935 -0.84795964 4
12.236789 3.0215003 -0.58778977 0
11.634136 2.8339481 -1.6828814 4
11.792475 2.8725173 -1.4193616 2
11.662848 2.8409417 -1.1199052 1
11.791575 2.8722985 -0.84865725 4
12.277276 2.9906099 -0.58928043 0
11.649708 2.803298 -1.6839947 5
11.582211 2.7870562 -1.3931116 3
11.6688 2.8078926 -1.1197195 1
11.789853 2.8370216 -0.84795964 3
12.347737 2.9712667 -0.59226173 0
11.620879 2.7620556 -1.678706 1
11.560958 2.7478135 -1.3896271 5
11.69597 2.7799029 -1.1215773 0
11.826845 2.8110096 -0.85005242 2
12.460945 2.9617226 -0.59729272 0
11.594316 2.719425 -1.6736959 1
11.69835 2.7438262 -1.12102 0
12.584435 2.9516556 -0.60278958 0
11.617301 2.6906085 -1.6759226 0
11.578529 2.6816285 -1.3898593 24
11.731187 2.7169847 -1.1234351 0
11.809127 2.6959772 -1.7023655 2
11.588833 2.6456847 -1.3900917 28
11.762961 2.6854377 -1.1256646 0
12.129543 2.7691269 -0.87000269 1
11.605865 2.6154981 -1.3912531 35
11.789841 2.6569588 -1.1275223 0
12.224813 2.7549844 -0.87628078 1
11.643174 2.5854995 -1.676201 3
11.629537 2.5824714 -1.3931116 25
11.809793 2.6224992 -1.1286371 1
12.2821 2.7273803 -0.87976867 1
11.661064 2.559586 -1.6778711 2
11.649395 2.5570247 -1.3947376 13
11.855067 2.6021695 -1.1323528 0
12.206882 2.6793921 -0.87390912 1
11.686469 2.5267084 -1.6803762 1
11.907949 2.574594 -1.1366259 0
12.228889 2.6439836 -0.87488574 1
11.741904 2.5043883 -1.6873348 0
11.780929 2.5127118 -1.4086757 1
11.959888 2.5508811 -1.1408988 0
12.318176 2.6272993 -0.88074523 1
11.786541 2.4752238 -1.6926234 0
11.854864 2.4895718 -1.416574 1
12.041898 2.5288498 -1.1479586 0
12.400566 2.6041718 -0.88604671 1
11.836502 2.4490664 -1.6987469 0
11.918611 2.4660554 -1.4233108 0
12.10395 2.5044034 -1.1531606 0
12.548908 2.5964689 -0.89609164 1
11.905393 2.4286728 -1.7076541 0
11.974111 2.4426911 -1.4291183 0
12.173333 2.4833322 -1.1591057 0
12.735958 2.5981064 -0.90892684 1
11.974681 2.4058239 -1.7165612 0
12.02415 2.4157627 -1.4342289 0
12.276312 2.4664242 -1.1682091 0
12.061008 2.3881493 -1.7279733 2
12.083463 2.3925953 -1.440501 0
12.361288 2.4476063 -1.1756403 0
12.166136 2.3736744 -1.4495608 0
12.46971 2.4329033 -1.1853012 0
12.265224 2.3530347 -1.4604789 0
12.641569 2.4252353 -1.200907 0
12.365032 2.3386383 -1.4716295 0
12.54223 2.3313606 -1.4918396 0
12.726507 2.3288622 -1.5129791 0
