# .PCD v0.7 - Point Cloud Data file format
VERSION 0.7
FIELDS x y z intensity
SIZE 4 4 4 4
TYPE F F F F
COUNT 1 1 1 1
WIDTH 1429
HEIGHT 1
VIEWPOINT 0 0 0 1 0 0 0
POINTS 1429
DATA ascii
1.6357551 -3.3792048 -1.9961933 4
4.5975733 -9.4978409 -1.2339851 2
1.7325925 -3.5792553 -1.9973879 5
4.4457731 -9.184247 -0.95195663 1
1.8359586 -3.792793 -1.9945492 4
4.4542027 -9.2016611 -0.71486431 1
1.9424061 -4.0126963 -1.9848748 4
4.670013 -9.6474895 -0.49984023 0
2.0809598 -4.2989259 -1.9949492 4
2.2314034 -4.6097178 -1.9998372 6
4.6811881 -9.6705751 0 0
2.3795867 -4.9158401 -1.9878211 5
29.745239 -61.448841 1.5850189 7
2.535264 -5.2374444 -1.9661585 7
14.994529 -30.976267 1.6048925 3
2.718478 -5.6159348 -1.9469094 7
27.895271 -57.62711 4.4769702 10
2.9300938 -6.0530987 -1.928359 3
32.421001 -66.976532 6.9421864 40
3.1789443 -6.5671835 -1.9100224 6
3.4773524 -7.1836467 -1.8910474 6
3.8330755 -7.9185128 -1.8699579 3
4.2688465 -8.8187456 -1.8459665 14
1.4585435 -3.0360518 -1.997523 4
4.4345336 -9.2307653 -1.6824868 3
1.5417962 -3.2093475 -2.0005026 4
4.4408154 -9.2438421 -1.4412768 5
1.6249566 -3.3824513 -1.9952542 4
4.5590496 -9.489954 -1.2311975 2
1.7211909 -3.5827692 -1.9964902 5
4.4116044 -9.1830378 -0.95047033 1
1.8215657 -3.7917058 -1.9911265 4
4.4139218 -9.1878614 -0.71277165 1
1.9304914 -4.0184417 -1.9848748 4
2.0689945 -4.3067451 -1.9957201 4
2.2193296 -4.6196766 -2.0012922 6
4.6230278 -9.6231279 0 0
2.3649902 -4.9228787 -1.9878211 5
16.473217 -34.290058 0.88321722 5
2.5213537 -5.2483592 -1.9674391 7
14.956188 -31.132263 1.6106687 3
2.7009764 -5.6222553 -1.9463137 6
2.9112883 -6.0600328 -1.9278078 3
32.174706 -66.973709 6.9319682 40
3.1577692 -6.5730987 -1.9090095 6
3.4518087 -7.1851611 -1.8887416 7
4.237555 -8.8207417 -1.8437446 14
1.45249 -3.0465772 -2.0016038 4
4.4071255 -9.2438831 -1.6824868 3
1.5292654 -3.2076125 -1.9965839 4
4.4483142 -9.3302755 -1.4526889 3
1.6164333 -3.3904459 -1.9971322 4
4.5291619 -9.4998531 -1.2307329 2
1.7074764 -3.5814075 -1.9928992 5
4.3731976 -9.17272 -0.94805515 1
1.814975 -3.8068845 -1.9962605 3
4.3746204 -9.175704 -0.71081847 1
1.9193461 -4.0258012 -1.9856884 4
2.0562069 -4.3128648 -1.9957201 4
2.2024057 -4.6195149 -1.9983823 6
4.5798221 -9.6061125 0 0
2.351182 -4.931571 -1.988505 5
2.5057702 -5.2558174 -1.9674391 7
14.919635 -31.293724 1.6167245 3
2.6859257 -5.6336913 -1.9475051 6
27.4223 -57.517887 4.4557648 9
2.8941219 -6.0703797 -1.928359 3
31.87558 -66.858574 6.9102321 39
3.1390846 -6.5841856 -1.909516 6
3.2132907 -6.7398319 -1.4067857 10
1.4392352 -3.0433497 -1.9965029 4
4.3535972 -9.2059441 -1.6730839 3
1.5199269 -3.2139771 -1.9975636 5
4.3690262 -9.2385693 -1.4362665 3
1.6035097 -3.3907177 -1.9943153 4
4.4950504 -9.5050554 -1.2295713 3
1.7008016 -3.5964477 -1.9982854 5
4.3307395 -9.1576099 -0.94508266 1
1.8022341 -3.8109326 -1.9954047 4
4.3338332 -9.1641512 -0.70886528 1
1.9074712 -4.033463 -1.9865019 5
2.0434372 -4.3209715 -1.996491 4
2.1878831 -4.626411 -1.9983823 6
4.5376525 -9.5951405 0 0
2.3332677 -4.933835 -1.9864529 4
14.83593 -31.371468 0.80569315 2
2.4868171 -5.2585254 -1.9655182 7
14.879336 -31.463255 1.62306 3
2.6665823 -5.6386495 -1.9463137 5
27.189447 -57.493729 4.4472542 9
2.8717504 -6.0724897 -1.926154 3
31.612608 -66.846771 6.8987131 39
3.120867 -6.5992618 -1.9110354 6
3.1998549 -6.7662864 -1.7734621 31
3.1870608 -6.7392325 -1.4045639 15
1.434188 -3.0533354 -2.0005836 4
4.3152165 -9.1869421 -1.6675717 0
1.5129899 -3.2211018 -1.999523 4
4.3136692 -9.1836481 -1.4259677 2
1.5968794 -3.3996994 -1.9971322 4
4.3012424 -9.1571922 -1.1831111 2
1.6883408 -3.5944176 -1.9946947 5
4.2974367 -9.1490898 -0.943039 1
1.789945 -3.8107295 -1.9928378 4
4.3047361 -9.1646309 -0.7080282 1
1.8976815 -4.0400963 -1.9873153 5
2.0329022 -4.3279767 -1.9972618 4
2.1765554 -4.6338091 -1.9991097 6
4.4963608 -9.5725927 0 0
2.3211417 -4.9416285 -1.9871371 5
2.4738469 -5.2667322 -1.9661585 7
14.846175 -31.606979 1.6284635 2
2.6501873 -5.6421547 -1.9451221 6
26.970974 -57.420246 4.4360933 9
2.8607466 -6.0904279 -1.9294616 3
31.339285 -66.720222 6.877162 39
3.0961759 -6.5916486 -1.9064769 7
3.2028141 -6.8186779 -1.7849901 18
3.18297 -6.7764306 -1.5913562 11
3.1794329 -6.7688999 -1.4090075 11
1.4229418 -3.0528996 -1.997523 4
3.1832297 -6.8295703 -1.2379524 2
1.5019525 -3.2224159 -1.9975636 4
4.2738509 -9.1694803 -1.4217925 2
1.587531 -3.4060233 -1.9980711 4
4.2547512 -9.1285028 -1.1777681 2
1.6776682 -3.5994112 -1.9946947 5
4.2610168 -9.1419449 -0.94099534 1
1.7801578 -3.8193011 -1.9945492 4
4.2648821 -9.150238 -0.70593554 1
1.8825983 -4.0390854 -1.9840615 4
2.0177126 -4.3289714 -1.9949492 4
2.1651578 -4.6453128 -2.0012922 6
4.4594889 -9.5677643 0 0
2.3024993 -4.9399762 -1.9837167 4
2.4566083 -5.2706146 -1.9648781 7
14.808877 -31.772217 1.6347058 2
2.6342416 -5.6517243 -1.9457181 6
26.754126 -57.400562 4.4284201 9
2.8377898 -6.0884342 -1.926154 3
31.081448 -66.684769 6.8639717 39
3.0757868 -6.5990529 -1.9059705 7
3.3708422 -7.23209 -1.8905863 7
3.7182286 -7.9774017 -1.8707895 4
4.1307993 -8.862566 -1.8422636 10
1.4151335 -3.0584226 -1.9985433 4
1.495877 -3.2329273 -2.0014822 5
4.2424068 -9.1687975 -1.4198442 2
1.5794967 -3.4136484 -1.999949 4
4.2167311 -9.113306 -1.1742836 2
1.6661094 -3.6008379 -1.9928992 5
4.222928 -9.1266994 -0.93820864 1
1.7694856 -3.8242571 -1.9945492 3
4.2300978 -9.1421938 -0.7044009 1
1.8728464 -4.0476432 -1.9856884 4
2.0056162 -4.3345885 -1.9949492 4
2.1490483 -4.6445775 -1.9983823 6
4.420156 -9.5529537 0 0
2.2894847 -4.9480925 -1.9844007 4
2.4426763 -5.2791739 -1.9655182 7
14.786372 -31.956682 1.6420659 2
2.6176469 -5.6573253 -1.9451221 6
26.521681 -57.319332 4.4164219 9
2.8199697 -6.0945902 -1.9256028 3
30.843267 -66.659256 6.8524532 39
3.0605969 -6.6146398 -1.9079964 7
3.348999 -7.2379417 -1.8896638 6
3.6926515 -7.9806519 -1.8691263 3
4.108511 -8.8794184 -1.8433744 6
1.4067707 -3.0641711 -1.9995633 4
1.4826409 -3.2294283 -1.9965839 5
4.2168369 -9.1849442 -1.4204007 1
1.5678879 -3.4151099 -1.9980711 4
4.1838717 -9.1131401 -1.1726575 2
1.6584013 -3.6122625 -1.9964902 5
4.1858606 -9.1174717 -0.93597919 1
1.7588853 -3.8311329 -1.9954047 4
4.1904678 -9.1275072 -0.70230818 1
1.8608288 -4.0531821 -1.9856884 4
1.9912068 -4.3371663 -1.9934076 4
2.1368129 -4.6543193 -1.9998372 6
4.3792758 -9.5387611 0 0
2.2724414 -4.9497399 -1.9823488 4
2.4277928 -5.2881198 -1.9661585 7
14.739004 -32.103905 1.6473765 2
2.5992572 -5.6615968 -1.9439307 6
2.8018746 -6.1029301 -1.9256028 3
30.586363 -66.621979 6.8392625 38
3.041765 -6.6254497 -1.9085028 7
3.3031499 -7.1947875 -1.8758304 7
3.6689565 -7.9915729 -1.8691263 3
4.0862474 -8.9004993 -1.8452259 4
1.394286 -3.0623131 -1.9954827 4
3.139487 -6.8953519 -1.2447615 14
1.4739329 -3.2372441 -1.9985434 5
4.1723671 -9.1638985 -1.4151121 2
1.5556877 -3.4168048 -1.9961933 4
4.1478124 -9.1099682 -1.1705668 2
1.6455634 -3.6142015 -1.9946947 5
4.1505947 -9.1160793 -0.93449295 1
1.7445934 -3.8317041 -1.9928378 4
4.1568112 -9.1297321 -0.70147109 2
1.8496001 -4.0623336 -1.9873153 4
1.9813948 -4.3517981 -1.9972618 4
2.1206362 -4.6576185 -1.9983823 6
4.3393416 -9.5306292 0 0
2.2592158 -4.9619856 -1.9844007 4
2.4080269 -5.2888236 -1.9635975 7
14.686089 -32.255508 1.6527802 2
2.5830398 -5.6732097 -1.9451221 6
26.05365 -57.222431 4.3966112 9
2.7826877 -6.1117024 -1.9256028 3
30.292742 -66.532883 6.8203125 38
3.0153232 -6.6226468 -1.9049574 6
3.1490831 -6.9164281 -1.800668 5
3.643832 -8.0030603 -1.8691263 3
4.0541935 -8.9043493 -1.8433744 3
1.3850201 -3.0646272 -1.9944624 4
3.1356616 -6.9382625 -1.2509221 12
1.4641687 -3.2397587 -1.9975636 4
4.1173964 -9.1105423 -1.4050918 3
1.5454125 -3.4195263 -1.9952542 4
4.1141748 -9.1034136 -1.1682438 2
1.6384081 -3.6252973 -1.9982854 4
4.1119995 -9.0986004 -0.93152046 1
1.7338861 -3.836561 -1.9928378 4
4.122261 -9.1213064 -0.69993645 2
1.8344861 -4.0591583 -1.983248 4
1.9677142 -4.3539515 -1.9957201 4
2.1083882 -4.6652203 -1.9991097 6
4.3192992 -9.557291 0 0
2.2445762 -4.9665627 -1.9837167 4
30.856058 -68.27504 1.7395098 6
2.3932478 -5.2955275 -1.9635975 7
14.646965 -32.409267 1.6585565 2
2.5664005 -5.6786613 -1.9445264 6
25.837053 -57.169518 4.3869848 8
2.7640254 -6.1159453 -1.9245001 3
30.034655 -66.457527 6.8039632 38
2.9984107 -6.6345682 -1.9059705 7
3.0960939 -6.8507113 -1.781301 3
3.6182458 -8.006074 -1.867463 4
4.0333581 -8.9245911 -1.8452259 3
1.3778652 -3.0716221 -1.9965029 4
3.1267753 -6.9704008 -1.2551372 6
1.457257 -3.2486074 -2.0005026 5
4.0886974 -9.1147766 -1.4039783 3
1.5365804 -3.4254401 -1.9961933 4
4.0806074 -9.0967417 -1.1659207 2
1.6260837 -3.6249664 -1.9955924 5
4.0767956 -9.0882454 -0.92929101 1
1.7224261 -3.8397386 -1.9919821 4
4.0861588 -9.1091175 -0.6981228 2
1.826883 -4.0726004 -1.9873153 3
1.9540375 -4.3560615 -1.9941784 4
2.0953526 -4.6710896 -1.9991097 6
4.277041 -9.5346441 0 0
2.2299297 -4.971097 -1.9830328 4
2.3831038 -5.3125625 -1.9674391 6
14.612009 -32.573994 1.6648918 2
2.5489702 -5.682322 -1.9433349 6
25.639748 -57.157711 4.3805671 8
2.7485101 -6.1271486 -1.9256028 3
29.789461 -66.408508 6.7904015 38
2.975121 -6.6323233 -1.9029313 8
3.0777481 -6.8611064 -1.7817621 3
3.5974762 -8.0197163 -1.8682946 5
4.0140519 -8.9483728 -1.847818 3
1.3706813 -3.0786009 -1.9985433 4
4.4903698 -10.085537 -1.8138045 2
1.4460517 -3.2478857 -1.9975636 4
4.0527549 -9.1026373 -1.4003599 3
1.5270087 -3.4297178 -1.9961933 4
4.0438766 -9.082696 -1.1626686 2
1.6152273 -3.6278605 -1.9946947 5
4.0457301 -9.0868597 -0.92799056 1
1.7153729 -3.8527911 -1.9962605 4
4.053401 -9.1040888 -0.69686717 2
1.8147596 -4.0760174 -1.9865019 3
1.9426157 -4.3631868 -1.9949492 4
2.0822999 -4.6769228 -1.9991097 6
4.2447038 -9.533761 0 0
2.2152741 -4.9755878 -1.9823488 4
2.362864 -5.3070803 -1.9629574 6
14.572179 -32.729652 1.6707613 2
2.5315387 -5.6859298 -1.9421434 6
25.41511 -57.083279 4.3694062 8
2.7306066 -6.1330438 -1.9250513 3
29.542334 -66.353172 6.7762818 38
2.9495053 -6.6246982 -1.8983728 9
3.0593674 -6.8714523 -1.7822233 3
3.559948 -7.9957752 -1.8603939 8
3.9834511 -8.9469786 -1.8452259 3
1.3606886 -3.0792696 -1.9965029 4
4.4605937 -10.094427 -1.813156 3
1.4397954 -3.2582903 -2.0014822 5
4.0217171 -9.1012383 -1.3984114 3
1.5174253 -3.4339685 -1.9961933 4
4.00806 -9.0703325 -1.1596487 2
1.6065352 -3.6356266 -1.9964902 5
4.0114861 -9.0780859 -0.92594689 1
1.7024156 -3.8526061 -1.9936936 4
4.0174789 -9.0916491 -0.69505352 2
1.801155 -4.0760555 -1.9840615 4
1.9311702 -4.3702831 -1.9957201 4
2.0692317 -4.6827192 -1.9991097 6
4.2188725 -9.5474072 0 0
2.2013714 -4.9817548 -1.9823488 4
26.88554 -60.842602 1.5443536 7
2.3526299 -5.3240561 -1.9667987 6
14.531597 -32.885342 1.6766309 2
2.5171945 -5.6964698 -1.9433349 6
25.203192 -57.035408 4.3603377 8
2.7142467 -6.1424036 -1.9256028 3
29.281273 -66.264198 6.7588177 37
2.9317765 -6.6346784 -1.8988793 9
3.042527 -6.8853092 -1.7836066 3
3.5360248 -8.0021057 -1.8595623 16
3.956068 -8.9526739 -1.8441149 3
1.3523889 -3.0866804 -1.9985433 4
4.4256916 -10.101159 -1.811859 3
1.4274532 -3.2580063 -1.9985434 4
3.9827731 -9.0902462 -1.3947929 3
1.5052124 -3.4354835 -1.9943153 4
3.9763567 -9.0756016 -1.1587194 2
1.5943886 -3.6390183 -1.9955924 5
3.9741566 -9.0705795 -0.92390323 2
1.6924804 -3.8629024 -1.9962605 3
3.9848945 -9.095088 -0.69435596 2
1.7890742 -4.0833669 -1.9848748 4
1.9174314 -4.376328 -1.9957201 4
4.0208306 -9.1771078 -0.2326186 1
2.0537629 -4.6874905 -1.9983823 6
4.1872535 -9.5569496 0 0
2.1834476 -4.9834814 -1.9802966 4
29.048515 -66.300072 1.6805546 6
2.3320909 -5.3227434 -1.9635975 6
14.487546 -33.066246 1.6835253 2
2.4992864 -5.704349 -1.9433349 7
24.955832 -56.958965 4.3484788 8
2.6933937 -6.147378 -1.9245001 3
29.020216 -66.235481 6.7465563 37
2.917907 -6.6598053 -1.9034379 7
3.0240057 -6.9019632 -1.7854512 3
3.5147941 -8.0221348 -1.8616414 30
3.9310787 -8.9722586 -1.8455962 3
1.3437637 -3.0904448 -1.9985433 4
4.398253 -10.115289 -1.8121833 3
1.4225209 -3.2715738 -2.0044212 5
3.9502645 -9.0849857 -1.3922879 3
1.4963168 -3.441293 -1.9952542 4
3.9399076 -9.0611668 -1.1554673 2
1.5842201 -3.6434565 -1.9955924 5
3.9424582 -9.0670328 -0.92241699 2
1.6788028 -3.8609822 -1.9928378 4
3.9523201 -9.0897141 -0.69310033 2
1.7776639 -4.088347 -1.9848748 4
3.966433 -9.1221714 -0.4638778 1
1.9044665 -4.3799729 -1.9949492 4
3.9776466 -9.1479607 -0.23159733 2
2.0414076 -4.6949158 -1.9991097 6
4.1653328 -9.5796099 0 1
2.173269 -4.9981766 -1.9837167 4
15.991113 -36.777039 0.9310779 3
2.3179729 -5.3309727 -1.9642378 6
14.452505 -33.238483 1.6902331 2
2.4841082 -5.7130575 -1.9439307 6
24.756893 -56.936954 4.3415036 8
2.6777494 -6.158402 -1.9256028 3
28.777958 -66.184769 6.7331796 37
2.901612 -6.6732507 -1.9049574 6
3.0016153 -6.9032426 -1.7836066 3
3.4915977 -8.0301247 -1.8612257 32
3.9020886 -8.9741888 -1.8437446 3
1.334729 -3.096231 -1.9995633 4
4.3656712 -10.127244 -1.811859 3
1.4067138 -3.2632172 -1.9965839 4
3.9115109 -9.0737076 -1.3886694 3
1.4882945 -3.4524636 -1.9990101 4
3.9051299 -9.0589056 -1.1536088 2
1.5727658 -3.6484156 -1.9955924 5
3.9037051 -9.0556011 -0.9200018 2
1.6688116 -3.8712173 -1.9954047 4
3.9166355 -9.0855961 -0.6918447 2
1.7633646 -4.0905561 -1.983248 4
3.9266827 -9.1089029 -0.46257347 2
1.8936191 -4.3927131 -1.9980326 4
3.939389 -9.1383781 -0.23104027 2
2.0266478 -4.7013059 -1.9991097 6
4.1296744 -9.579792 0 1
2.1582999 -5.0067053 -1.9844007 5
14.400892 -33.406399 0.84459442 2
2.3012135 -5.3382287 -1.9642378 6
2.4669032 -5.7225866 -1.9445264 7
24.51787 -56.875206 4.3309002 8
2.6545835 -6.1579566 -1.9228463 3
28.495789 -66.102966 6.7157159 37
2.8798668 -6.6805568 -1.9044509 7
2.9783721 -6.9090638 -1.7826844 4
3.4709992 -8.0518332 -1.8637207 30
3.8707638 -8.9791851 -1.8422636 3
1.3266187 -3.0997148 -1.9995633 4
4.3337083 -10.125938 -1.8095894 3
1.39748 -3.265286 -1.9956043 4
3.8815091 -9.0693512 -1.3864425 3
1.4764717 -3.4498541 -1.9952542 4
3.8751481 -9.0544882 -1.1517503 3
1.5618027 -3.6492348 -1.9937971 5
3.8760669 -9.0566359 -0.91907287 2
1.6579602 -3.8739116 -1.9945492 4
3.8834164 -9.0738077 -0.69017053 2
1.7548064 -4.1001978 -1.9856884 5
3.8894594 -9.0879278 -0.46098965 2
1.8799344 -4.3925662 -1.9957201 4
3.9067979 -9.1284399 -0.23052962 2
2.0136001 -4.7048831 -1.9983823 6
4.1014338 -9.5832167 0 1
2.1444457 -5.0106111 -1.9837167 5
2.287976 -5.3459768 -1.9648781 7
2.4481573 -5.7202492 -1.9415476 6
24.307661 -56.796135 4.3200183 8
2.638453 -6.164885 -1.9228463 3
28.277979 -66.07299 6.7051268 37
2.8616061 -6.6862941 -1.9039443 7
2.9564459 -6.9078922 -1.7803788 3
3.4506779 -8.0626907 -1.8641365 28
3.8433771 -8.9802542 -1.8404119 3
1.3160713 -3.1004703 -1.997523 4
4.3051863 -10.142385 -1.8102378 3
1.3884666 -3.271023 -1.9965839 4
3.8476171 -9.0644197 -1.3839374 3
1.466229 -3.4542196 -1.9952542 4
3.842056 -9.0513182 -1.149892 3
1.553063 -3.658788 -1.9964902 5
3.8390627 -9.0442667 -0.91665769 2
1.6457521 -3.8771498 -1.9936936 4
3.8533583 -9.0779448 -0.68961251 3
1.7419188 -4.1037045 -1.9848748 4
3.8585744 -9.0902328 -0.46052381 2
1.869056 -4.4032207 -1.9980326 4
3.8757894 -9.1307898 -0.23029754 3
1.9996312 -4.7108369 -1.9983823 6
4.0643849 -9.5750923 0 1
2.128835 -5.0152216 -1.9830328 5
2.2706232 -5.3492537 -1.9635975 7
2.4334118 -5.73276 -1.9433349 6
24.103952 -56.785362 4.3137403 8
2.6216519 -6.1762261 -1.9239489 3
28.017225 -66.004456 6.6897063 37
2.8425107 -6.696537 -1.9044509 7
2.938978 -6.923799 -1.7822233 4
3.433619 -8.0891008 -1.8678788 20
3.8259301 -9.0133276 -1.8448557 3
1.3061991 -3.1027761 -1.9965029 4
4.2766066 -10.158751 -1.8108863 3
1.379432 -3.2767351 -1.9975636 5
3.8184011 -9.0703201 -1.3831024 4
1.4573443 -3.4618099 -1.9971322 4
3.8113303 -9.053524 -1.1487305 6
1.5435876 -3.6666741 -1.9982854 5
3.8075764 -9.0446062 -0.91554302 2
1.6363456 -3.8870139 -1.9962605 4
3.8233104 -9.0819817 -0.68905443 5
1.7297356 -4.1088548 -1.9848748 4
1.8538355 -4.4036446 -1.9957201 4
3.8541119 -9.1551485 -0.23062249 1
1.9849225 -4.7150316 -1.9976547 6
4.0289741 -9.5705194 0 1
2.1110287 -5.0145874 -1.9802966 4
14.231821 -33.806602 0.85160416 100
2.2503309 -5.345489 -1.9597561 7
2.4149106 -5.7364354 -1.9421434 6
23.88582 -56.738941 4.3048115 7
2.6040614 -6.1857491 -1.9245001 3
27.768728 -65.962494 6.677073 36
2.819627 -6.6978083 -1.9024249 7
2.9176669 -6.9306946 -1.7817621 4
3.4126399 -8.1064653 -1.8695421 9
3.7938325 -9.0119591 -1.8422636 3
1.2987349 -3.1077721 -1.997523 4
4.246953 -10.16263 -1.8095894 3
1.3715212 -3.2819443 -1.9985434 5
3.788533 -9.0656662 -1.3808757 6
1.4448719 -3.4574668 -1.9924376 4
3.7814877 -9.0488071 -1.146872 13
1.533294 -3.6690538 -1.9973879 4
3.7869558 -9.0618925 -0.91628611 3
1.628952 -3.8979561 -1.9996831 3
3.8002903 -9.0938005 -0.68919396 3
1.7196773 -4.1150551 -1.9856884 4
3.8115976 -9.1208582 -0.46098965 2
1.8444352 -4.4135909 -1.9980326 4
3.8393822 -9.1873446 -0.23117952 2
1.9732903 -4.721931 -1.9983823 6
3.9992778 -9.5699625 0 1
2.0964441 -5.0166287 -1.9789286 4
14.195692 -33.969193 0.85476077 100
2.2355986 -5.3496141 -1.959116 7
2.3991485 -5.7409763 -1.9415476 6
2.584152 -6.1836758 -1.9217438 3
27.538357 -65.897156 6.6631389 36
2.7998447 -6.6998115 -1.9009054 7
2.9002631 -6.9401054 -1.7822233 4
3.3710394 -8.066637 -1.8583149 4
3.0752923 -7.3589368 -1.5026945 0
1.2909399 -3.1166048 -2.0005836 4
1.3625383 -3.2894583 -2.0005026 4
3.7539694 -9.0628843 -1.3786488 13
1.4346784 -3.4636202 -1.9933765 4
3.7507603 -9.0551367 -1.1461751 25
1.5203916 -3.6705499 -1.9955924 5
3.7599919 -9.0774231 -0.91665769 5
1.6153145 -3.899714 -1.9979718 3
1.7060417 -4.1187487 -1.9848748 4
3.7806306 -9.1272497 -0.46071014 3
1.829854 -4.4176583 -1.9972618 4
3.8166218 -9.2141399 -0.23155092 2
1.9605849 -4.7332706 -2.0005648 6
3.9592431 -9.5584583 0 1
2.0792351 -5.0197172 -1.9775604 4
2.2166057 -5.3513594 -1.9571953 7
2.3818312 -5.7502489 -1.9421434 6
2.5647125 -6.1917634 -1.9217438 3
27.274042 -65.84536 6.6492052 36
2.7787824 -6.7085743 -1.9009054 9
2.8784456 -6.949182 -1.7822233 6
3.0537097 -7.3723073 -1.6961436 12
1.2828858 -3.1217887 -2.0016038 4
3.0275948 -7.367383 -1.3086369 14
1.3533473 -3.2932506 -2.0005026 5
1.4276857 -3.4741466 -1.9971322 4
3.7307456 -9.0784378 -1.1478013 39
1.5121739 -3.6797409 -1.9982854 5
3.7406847 -9.1026249 -0.91814399 3
1.6030442 -3.9008658 -1.9962605 4
3.7523274 -9.1309557 -0.69031012 9
1.6938392 -4.1218076 -1.9840615 4
3.7786694 -9.1950569 -0.46359831 3
1.8175107 -4.4227509 -1.9972618 4
3.7855568 -9.2118168 -0.23122597 2
1.9445273 -4.7318344 -1.9976547 6
3.9332962 -9.5713272 0 1
2.0673525 -5.0307188 -1.9796125 4
2.2016535 -5.3575287 -1.9571953 7
2.3650389 -5.7551122 -1.9415476 6
2.5466814 -6.1971231 -1.9211924 3
27.031025 -65.777603 6.6347141 36
2.7593026 -6.7145185 -1.9003989 7
2.867166 -6.976994 -1.7872956 6
3.036829 -7.389854 -1.6982228 15
3.0315697 -7.3770561 -1.5026945 14
1.2689675 -3.1126156 -1.9934423 4
3.0174394 -7.4013944 -1.3131763 2
1.3421705 -3.2921731 -1.9975636 4
3.7025468 -9.0818758 -1.3783705 77
1.4166449 -3.4748495 -1.9952542 4
3.707628 -9.0943394 -1.1484982 27
1.4998677 -3.6789844 -1.9955924 5
3.7114911 -9.1038151 -0.91721505 3
1.5935092 -3.908675 -1.9979718 3
3.7298262 -9.1487885 -0.69086808 1
1.6816322 -4.1248293 -1.983248 4
3.7416632 -9.1778231 -0.46220082 5
1.8065462 -4.4312277 -1.9988035 4
1.9320089 -4.7389712 -1.9983823 6
3.9005115 -9.5674582 0 1
2.0547147 -5.0399532 -1.9809806 5
26.886351 -65.948792 1.6534908 6
2.1859682 -5.3619018 -1.956555 7
2.3475165 -5.7581587 -1.9403563 5
2.5279138 -6.2006507 -1.92009 3
26.79987 -65.736664 6.6230097 36
2.7420018 -6.725781 -1.9014119 7
2.8608954 -7.0174117 -1.7955958 6
3.2658057 -8.0106049 -1.8387712 3
1.2643383 -3.1293466 -2.0016038 4
4.1275225 -10.215976 -1.8102378 3
1.3344342 -3.30284 -2.0014822 4
3.6806753 -9.1099901 -1.3808757 50
1.4083678 -3.4858322 -1.9990101 4
3.6835046 -9.116993 -1.149892 10
1.4889723 -3.6853354 -1.9964902 5
3.6866031 -9.1246614 -0.91814399 2
1.5818994 -3.9153378 -1.9988276 3
3.7025616 -9.1641607 -0.69114715 3
1.6700345 -4.1334801 -1.9848748 4
1.7919251 -4.4351697 -1.9980326 4
1.9178096 -4.7467451 -1.9991097 6
3.8666899 -9.5703926 0 1
2.0409837 -5.0516109 -1.9830328 5
26.613876 -65.871651 1.6494521 6
2.1712422 -5.3740125 -1.9584757 6
2.3287001 -5.7637343 -1.9397604 6
2.5069816 -6.2049966 -1.9189874 3
26.531309 -65.667282 6.6075897 36
2.7186847 -6.7289801 -1.8998923 7
2.8497713 -7.0534306 -1.8025125 6
3.2860599 -8.1332827 -1.8645523 3
3.6533189 -9.0422812 -1.8374496 2
1.2531284 -3.1282935 -1.9985433 4
4.0920558 -10.215354 -1.8079681 3
1.3226833 -3.3019292 -1.9985434 4
3.656574 -9.1282234 -1.381989 14
1.3967053 -3.486717 -1.9971322 4
3.663085 -9.1444778 -1.1519827 3
1.47936 -3.6930552 -1.9982854 5
3.666177 -9.1521959 -0.91981602 2
1.5669141 -3.911624 -1.9945492 4
3.6746123 -9.173254 -0.69100761 2
1.6577626 -4.1384168 -1.9848748 4
1.7780713 -4.4387536 -1.9972618 4
1.9030242 -4.7506847 -1.9983823 6
3.8382764 -9.5818224 0 1
2.0224915 -5.0489216 -1.9796125 5
24.100796 -60.164913 1.504756 8
2.1581056 -5.3874669 -1.9610367 6
2.3108783 -5.768846 -1.9391646 6
2.4885595 -6.2124076 -1.9189874 3
26.29488 -65.642197 6.5971861 35
2.700146 -6.7406092 -1.9009054 7
2.8440275 -7.099793 -1.812196 6
3.2619131 -8.1429968 -1.8645523 3
3.6257424 -9.0512562 -1.8370793 2
1.2442989 -3.1299648 -1.997523 4
4.0667562 -10.229699 -1.8086165 3
1.3153228 -3.3086212 -2.0005026 5
3.6370544 -9.1488085 -1.3836591 5
1.3856153 -3.4854383 -1.9943153 4
3.6472054 -9.1743422 -1.154538 3
1.4703469 -3.6985757 -1.9991831 5
3.6532393 -9.1895199 -0.92260277 1
1.5593395 -3.9224319 -1.9979718 3
3.6586919 -9.2032356 -0.69254225 2
1.6496227 -4.1495342 -1.9881287 4
1.7678083 -4.4468236 -1.9988035 4
1.8933337 -4.7625756 -2.0012922 6
3.8131785 -9.5918379 0 0
2.0078783 -5.0507064 -1.9782445 4
26.14954 -65.77771 1.6434172 7
2.1411943 -5.386055 -1.9584757 6
2.2950625 -5.7731023 -1.9385689 6
2.4729977 -6.2206874 -1.9195386 3
26.068504 -65.573868 6.5834374 35
2.680346 -6.7422609 -1.8993859 7
2.8369339 -7.1361489 -1.8195739 7
3.2427521 -8.1569624 -1.8657995 3
3.6027606 -9.0625429 -1.8374496 2
1.236351 -3.1386602 -2.0005836 4
4.0324283 -10.236917 -1.8076439 3
1.3042828 -3.3111148 -1.999523 4
3.6148269 -9.1767731 -1.3861642 3
1.3759531 -3.4930606 -1.9961933 4
3.622005 -9.1949959 -1.1556995 2
1.4567552 -3.6981888 -1.9964902 5
3.6287303 -9.2120695 -0.92371744 1
1.5476716 -3.9289935 -1.9988276 3
3.6421919 -9.2462435 -0.69491404 2
1.6325605 -4.1444964 -1.983248 4
1.7531528 -4.4506383 -1.9980326 4
1.8749481 -4.7598333 -1.9976547 6
3.7852244 -9.6093531 0 1
1.9933785 -5.0604863 -1.9796125 5
2.1242628 -5.3927555 -1.9584757 6
2.2783136 -5.7838364 -1.9397604 5
22.199745 -56.357338 4.2356129 7
2.4499192 -6.2194829 -1.9167824 3
25.812737 -65.529457 6.5708041 35
2.6619875 -6.7578492 -1.9014119 6
2.8273394 -7.1776195 -1.8278741 8
3.2135251 -8.1580095 -1.8637207 3
3.5699492 -9.0628452 -1.8352277 2
1.2257036 -3.1372933 -1.997523 4
4.0016718 -10.242622 -1.8066711 3
1.294397 -3.3131199 -1.9985434 4
3.5949531 -9.2015905 -1.388391 3
1.3681213 -3.5018237 -1.9990101 4
3.6057115 -9.2291269 -1.1587194 2
1.4470727 -3.7039068 -1.9973879 5
3.6138618 -9.2499886 -0.92650431 1
1.5373517 -3.9349835 -1.9996831 3
3.6221657 -9.271244 -0.69603008 1
1.6229753 -4.1541448 -1.9856884 4
1.7393746 -4.4520783 -1.996491 4
1.862327 -4.7667856 -1.9983823 6
3.7707486 -9.6515541 0 0
1.9758199 -5.0572805 -1.9761924 4
2.107127 -5.3933721 -1.956555 7
2.2614589 -5.7883973 -1.9391646 6
2.4346409 -6.2316718 -1.9184362 3
25.588343 -65.49556 6.5602145 35
2.643106 -6.7652559 -1.9014119 6
2.8221569 -7.2235527 -1.8375574 8
3.1921551 -8.1705942 -1.8645523 4
3.5489192 -9.0837622 -1.8374496 2
1.2188022 -3.1455164 -2.0005836 4
3.9709136 -10.248237 -1.8056984 3
1.2832499 -3.3118443 -1.9956043 4
3.5749674 -9.226368 -1.3906177 3
1.3583368 -3.5056307 -1.9990101 4
3.5914073 -9.2687969 -1.1624362 1
1.4354321 -3.7046003 -1.9955924 5
3.597369 -9.2841825 -0.92891937 1
1.5263569 -3.9392614 -1.9996831 3
3.607794 -9.3110886 -0.69826227 1
1.6100481 -4.1552534 -1.9840615 4
1.7282685 -4.4603601 -1.9980326 4
1.8503542 -4.7754421 -1.9998372 6
3.7481167 -9.6732368 0 0
1.9644053 -5.0697885 -1.9789286 4
2.0893185 -5.3921676 -1.953994 7
2.2439058 -5.7911305 -1.9379733 6
21.812557 -56.294415 4.221662 6
2.4165339 -6.2366533 -1.9178848 3
25.346342 -65.414497 6.54498 35
2.6235042 -6.7708073 -1.9009054 6
2.8160362 -7.2676992 -1.8467798 9
3.1657917 -8.1703577 -1.862473 5
3.5214076 -9.0881395 -1.8363385 2
1.2082306 -3.1459069 -1.9985433 4
3.9411974 -10.261816 -1.8060226 3
1.2746682 -3.3188925 -1.9975636 4
3.5603583 -9.2702141 -1.395628 2
1.345397 -3.5030513 -1.9952542 4
3.5724378 -9.3016653 -1.1652238 1
1.4244343 -3.708843 -1.9955924 5
3.5805168 -9.3227005 -0.93170619 1
1.5120699 -3.9370227 -1.9962605 4
3.5894516 -9.3459644 -0.70007598 1
1.6003325 -4.1668344 -1.9873153 4
1.715027 -4.4654684 -1.9980326 4
1.8348415 -4.7774329 -1.9983823 6
3.7229853 -9.6936502 0 0
1.948007 -5.0720854 -1.9775604 4
21.706066 -56.516747 1.4055995 9
2.0733109 -5.3983431 -1.953994 7
2.2267137 -5.7977624 -1.9379733 7
2.3987088 -6.2455912 -1.9184362 3
25.092175 -65.33326 6.5293746 35
2.6027098 -6.7767549 -1.9003989 7
2.8021359 -7.2960067 -1.8518522 9
3.1415365 -8.1797142 -1.862473 5
3.4909046 -9.0893745 -1.8344872 2
1.1982161 -3.1460536 -1.9965029 4
3.9090128 -10.26356 -1.8044014 3
1.2660155 -3.3240688 -1.9985434 4
3.5422106 -9.3004799 -1.3986897 2
1.3362378 -3.5084453 -1.9961933 4
3.5598817 -9.3468761 -1.1696376 1
1.4153438 -3.7161469 -1.9973879 5
3.5643909 -9.358717 -0.93430716 0
1.501713 -3.9429195 -1.9971162 4
3.5739899 -9.3839197 -0.7021687 1
1.5867391 -4.1661649 -1.9848748 4
1.7032071 -4.4719653 -1.9988035 4
1.8208299 -4.7807975 -1.9976547 6
3.7094254 -9.739521 0 0
1.9331663 -5.0757494 -1.9768764 4
13.819597 -36.284935 0.90146089 3
2.0615995 -5.4129658 -1.9571953 6
2.2118733 -5.8075261 -1.9391646 5
2.3805735 -6.2504683 -1.9178848 3
24.857889 -65.267235 6.5158124 34
2.5830863 -6.7821889 -1.8998923 7
2.8274662 -7.4238362 -1.8822861 8
3.1110227 -8.1683464 -1.8578991 7
3.465508 -9.0990877 -1.8344872 2
1.1894839 -3.1512041 -1.997523 4
3.8792405 -10.27696 -1.8047258 3
1.2567631 -3.3294415 -1.999523 4
3.5236928 -9.3350363 -1.4023082 2
1.3258222 -3.5123944 -1.9961933 4
3.5440593 -9.3889914 -1.1735867 1
1.4043115 -3.72033 -1.9973879 5
3.5513756 -9.4083738 -0.93820864 0
1.4893693 -3.9456663 -1.9962605 4
3.5588138 -9.4280796 -0.70467991 1
1.5756615 -4.1742735 -1.9865019 4
1.687976 -4.4718189 -1.996491 4
1.807953 -4.7896647 -1.9991097 6
3.686162 -9.7654533 0 0
1.9167707 -5.0779467 -1.9755085 4
13.706936 -36.312683 0.90113598 3
2.0441916 -5.415513 -1.9559147 7
2.1926098 -5.8087049 -1.9373775 6
2.3633757 -6.2611012 -1.9189874 3
24.636703 -65.268036 6.5085669 34
2.565002 -6.7952533 -1.9014119 6
2.8061142 -7.4340134 -1.8827472 7
3.0867732 -8.1775408 -1.8578991 8
3.4384956 -9.1093302 -1.8344872 2
1.1789237 -3.1514974 -1.9954827 4
3.8487318 -10.288424 -1.8047258 3
1.24749 -3.3347888 -2.0005026 4
3.5105526 -9.3844042 -1.4081535 2
1.3141576 -3.5130045 -1.9943153 4
3.5280187 -9.4310951 -1.1775359 1
1.3932673 -3.7244802 -1.9973879 5
3.5353067 -9.4505768 -0.94136697 0
1.4782894 -3.951761 -1.9971162 4
3.5413108 -9.4666271 -0.70677263 1
1.5632696 -4.1789303 -1.9865019 4
1.6759938 -4.4802647 -1.9980326 4
1.7937342 -4.7950077 -1.9991097 7
3.6662815 -9.8006983 0 0
1.9049883 -5.092412 -1.9789286 4
2.028115 -5.4215541 -1.9559147 7
2.1726902 -5.808032 -1.9349945 6
2.342768 -6.2626843 -1.9173336 3
24.401781 -65.230812 6.4976058 34
2.5434735 -6.7992096 -1.9003989 7
2.7840452 -7.442306 -1.8827472 7
3.0611258 -8.1829967 -1.8570673 8
3.4093871 -9.1139688 -1.8333762 2
1.1696147 -3.1567984 -1.9965029 4
3.8157043 -10.298614 -1.8044014 3
1.2357957 -3.3354216 -1.9985434 4
3.4941266 -9.4306726 -1.4134421 2
1.3025011 -3.5154598 -1.9933765 4
3.5094144 -9.4719353 -1.1812526 0
1.3803174 -3.7254868 -1.9955924 5
3.5408831 -9.5568695 -0.9508419 0
1.465867 -3.9563856 -1.9971162 3
3.5226433 -9.5076399 -0.70900482 1
1.5488635 -4.1803937 -1.9848748 4
1.6612691 -4.483777 -1.9972618 4
1.7793083 -4.8023658 -1.9998372 6
3.640337 -9.8252954 0 0
1.8883275 -5.0966096 -1.9782445 5
2.0084393 -5.4207921 -1.9533538 7
2.1564226 -5.8202 -1.9367818 6
2.3230813 -6.2700133 -1.9173336 3
24.137226 -65.146553 6.4816279 34
2.5227723 -6.8089809 -1.9009054 7
2.7606504 -7.4510155 -1.8827472 7
3.0367622 -8.1962433 -1.8578991 6
3.3814199 -9.1264772 -1.8337464 2
1.1625332 -3.1630788 -1.9985433 4
3.7887301 -10.308568 -1.8044014 3
1.227661 -3.340282 -1.999523 4
3.481724 -9.4732494 -1.4184524 2
1.2939025 -3.520515 -1.9943153 4
3.4989967 -9.5202465 -1.186131 0
1.3717928 -3.7324429 -1.9973879 5
3.5344 -9.6165733 -0.95585811 0
1.4561281 -3.9619064 -1.9979718 4
3.5121942 -9.5561543 -0.71193457 1
1.5385445 -4.1861496 -1.9856884 4
1.651435 -4.4933076 -1.9995743 4
1.7641592 -4.8000131 -1.9969273 6
3.6235719 -9.8591967 0 0
1.8762749 -5.1050634 -1.9796125 5
1.9916266 -5.4189181 -1.9507929 8
2.1398609 -5.8222413 -1.9355901 6
2.3040061 -6.2688556 -1.9151285 3
23.932249 -65.116066 6.4723392 34
2.506273 -6.8191938 -1.9019183 6
2.7404635 -7.4563909 -1.8822861 7
23.899277 -65.026352 9.7365513 7
3.022043 -8.2225266 -1.8620572 3
3.3561602 -9.1316099 -1.8330059 2
1.1537313 -3.1681304 -1.9995633 4
3.7554255 -10.312346 -1.8031045 3
1.2165512 -3.3406329 -1.9975636 4
3.4685097 -9.5244799 -1.4245759 2
1.283451 -3.5243387 -1.9943153 4
3.4829681 -9.5641823 -1.1903124 0
1.3594888 -3.7331378 -1.9955924 5
3.5153902 -9.6532135 -0.95845908 1
1.4456033 -3.9696066 -1.9996831 3
3.4995265 -9.6096516 -0.71514338 0
1.5267421 -4.1924129 -1.9865019 4
3.6286833 -9.9643145 -0.49452969 0
1.636201 -4.4929852 -1.9972618 4
1.7518216 -4.8104782 -1.9991097 6
3.6127801 -9.9206448 0 0
1.858547 -5.1035442 -1.9768764 5
1.9800776 -5.4372659 -1.9552746 7
2.124536 -5.8339467 -1.9373775 6
2.286711 -6.2792768 -1.9162309 3
23.686466 -65.042709 6.4580336 34
2.4820561 -6.8156919 -1.8988793 6
2.7176614 -7.4626608 -1.881825 8
23.652689 -64.949959 9.7145615 7
2.996963 -8.229619 -1.8616414 3
3.3283782 -9.1396799 -1.8326356 3
1.142575 -3.1666853 -1.9965029 4
3.7268219 -10.329013 -1.8040771 3
1.2072262 -3.3458681 -1.9985434 4
3.4503186 -9.5626745 -1.4287512 2
1.2735881 -3.5297923 -1.9952542 4
3.4694088 -9.6155834 -1.1954231 0
1.34962 -3.7405174 -1.9973879 5
3.4968717 -9.6916981 -0.96124583 2
1.4338192 -3.9738781 -1.9996831 4
3.4852195 -9.6594038 -0.71807313 0
1.5136765 -4.1952057 -1.9856884 4
3.5923228 -9.9562445 -0.49359804 0
1.6241159 -4.5012922 -1.9988035 4
1.7362767 -4.8121495 -1.9976547 6
3.5955482 -9.9651833 0 0
1.8414831 -5.1037326 -1.9748243 5
1.9600781 -5.4324231 -1.9514331 7
2.1052735 -5.834837 -1.9355901 6
20.192875 -55.965233 4.1604156 7
2.2661128 -6.2806087 -1.9145771 3
23.437962 -64.959099 6.4427991 34
2.4644501 -6.8303065 -1.9009054 7
2.6968288 -7.4743524 -1.8827472 8
23.399382 -64.85218 9.6895103 7
2.9705408 -8.232954 -1.8603939 3
3.2925746 -9.1254826 -1.8278216 4
1.1331741 -3.1700618 -1.9965029 4
3.6948292 -10.336308 -1.8034288 3
1.1961193 -3.3461516 -1.9965839 4
3.4405956 -9.6250887 -1.4365449 2
1.2654868 -3.5402074 -1.9990101 4
3.453567 -9.661376 -1.1998369 0
1.3373122 -3.7411394 -1.9955924 5
3.4828463 -9.7432842 -0.96533304 3
1.418371 -3.9679019 -1.9945492 4
3.465945 -9.6960039 -0.72002631 1
1.504297 -4.2082806 -1.9897557 3
1.6095104 -4.5026159 -1.9972618 4
1.7201096 -4.8120174 -1.9954722 6
3.5922194 -10.049257 0 0
1.8320249 -5.1251016 -1.9809806 4
14.872466 -41.60582 1.0258244 14
1.9445889 -5.4399996 -1.9520735 9
21.2885 -59.554714 2.9493833 31
2.0873089 -5.8392601 -1.9349945 6
19.993151 -55.930969 4.15344 7
2.2487619 -6.2909255 -1.9156797 3
23.215624 -64.945854 6.4346251 33
2.4415677 -6.8303013 -1.8988793 7
2.6739845 -7.4804888 -1.8822861 9
23.194189 -64.885887 9.6842213 7
2.9480748 -8.2472582 -1.8616414 3
1.1254663 -3.1764565 -1.9985433 4
3.6639738 -10.341005 -1.8024561 3
1.1890999 -3.3560526 -2.0005026 5
3.4275949 -9.6738625 -1.4423901 1
1.2538267 -3.538734 -1.9961933 4
3.4451504 -9.7234097 -1.2063413 0
1.3262631 -3.7431748 -1.9946947 5
1.4103038 -3.9803667 -1.9988276 3
3.4561801 -9.7545395 -0.72365367 0
1.4888785 -4.2021317 -1.9848748 4
1.5969307 -4.5070925 -1.9972618 4
1.708532 -4.8220701 -1.9976547 6
3.5962043 -10.149736 0 0
1.8214722 -5.1408262 -1.9850849 4
21.078604 -59.491135 1.4653441 8
1.9312884 -5.4507656 -1.953994 10
21.10343 -59.561203 2.9467747 31
2.0703573 -5.843267 -1.9343988 6
2.231828 -6.2989926 -1.9162309 3
22.997595 -64.907196 6.424407 33
2.4244232 -6.8425636 -1.9003989 7
2.6537349 -7.4897609 -1.8827472 8
2.9243801 -8.2536154 -1.8612257 3
3.2438993 -9.1554098 -1.8300434 26
1.1148975 -3.1765356 -1.9965029 4
3.6339297 -10.353694 -1.8027804 3
1.1791373 -3.359566 -2.0005026 5
3.4133077 -9.7251034 -1.4485139 1
1.2415673 -3.5374396 -1.9933765 4
3.4294431 -9.7710762 -1.2109872 0
1.3163351 -3.7504661 -1.9964902 5
3.4556899 -9.8458576 -0.97350758 10
1.3972906 -3.9811223 -1.9971162 4
3.4351521 -9.7873421 -0.72532785 1
1.4764043 -4.206531 -1.9848748 4
1.5829401 -4.5100698 -1.996491 4
1.6954514 -4.8306341 -1.9991097 6
3.588594 -10.224524 0 0
1.7981201 -5.1231551 -1.9761924 4
19.660437 -56.01598 1.3783035 10
1.9151075 -5.4564719 -1.953994 11
19.650339 -55.987213 2.7670557 25
2.0561726 -5.8583913 -1.9373775 6
2.2118556 -6.301959 -1.9151285 3
22.752155 -64.824821 6.409544 33
2.4015477 -6.8424244 -1.8983728 7
2.6321456 -7.4994378 -1.8832082 8
22.727613 -64.754898 9.6449747 7
2.8998787 -8.2622557 -1.8612257 6
3.2160702 -9.1631393 -1.8296732 28
1.1071527 -3.1828859 -1.9985433 4
3.6062987 -10.367529 -1.8034288 3
1.169178 -3.3611989 -1.999523 5
3.4011014 -9.7776194 -1.4549158 1
1.2340045 -3.5475645 -1.9971322 4
3.4138904 -9.8143864 -1.2151687 0
1.3070308 -3.7575035 -1.9982854 5
3.4419198 -9.8949661 -0.97740901 9
1.3855736 -3.9833014 -1.9962605 4
3.4274709 -9.8534279 -0.72951317 0
1.4658521 -4.2140889 -1.9865019 4
1.5709455 -4.5162153 -1.9972618 4
1.6801187 -4.830071 -1.9969273 6
3.5915668 -10.325177 0 0
1.7831889 -5.1263814 -1.9755085 4
20.842028 -59.91748 1.4728643 8
1.902975 -5.470747 -1.9571953 7
20.819763 -59.85347 2.9552529 31
2.0398047 -5.86411 -1.9373775 6
19.383005 -55.723026 4.1255374 8
2.1942484 -6.3081112 -1.9151285 3
22.539637 -64.797829 6.4006267 33
2.3773451 -6.8344851 -1.8943208 8
2.6079957 -7.4975681 -1.8809025 7
2.8735807 -8.2610826 -1.8591465 7
3.1943431 -9.1832228 -1.8318949 26
1.0976996 -3.184339 -1.997523 4
3.5747607 -10.370095 -1.8021318 3
1.1580826 -3.3595052 -1.9965839 4
3.3918571 -9.8395061 -1.4627094 1
1.2258196 -3.556005 -1.999949 4
3.4026549 -9.8708305 -1.2209761 0
1.296533 -3.7611387 -1.9982854 5
3.4285526 -9.9459572 -0.98149633 11
1.3756231 -3.9905729 -1.9979718 4
3.4194481 -9.9195461 -0.73369861 0
1.4522923 -4.2129841 -1.9840615 4
1.5589292 -4.5223293 -1.9980326 4
1.6666242 -4.834744 -1.9969273 6
11.150936 -32.347977 0 2
1.767029 -5.1260099 -1.9734563 4
20.677237 -59.983013 1.47305 8
1.8833681 -5.4635005 -1.9527136 9
2.0234213 -5.8697834 -1.9373775 6
2.1753714 -6.3105788 -1.9140259 3
22.317066 -64.740028 6.3887362 33
2.3582506 -6.8410969 -1.8943208 9
2.5876832 -7.5066624 -1.8813639 6
22.28492 -64.646774 9.6101818 7
2.84795 -8.2616758 -1.8574831 8
3.176373 -9.2144041 -1.8363385 16
1.0893581 -3.1908379 -1.9995633 4
3.5439758 -10.380656 -1.8021318 3
1.150363 -3.3695271 -2.0005026 5
3.3792846 -9.8982592 -1.4699464 0
1.2141221 -3.556284 -1.9980711 4
3.3913233 -9.9335222 -1.2274806 0
1.2859449 -3.7666602 -1.9991831 4
3.4093211 -9.9862394 -0.98446882 1
1.3637767 -3.994637 -1.9979718 4
3.4061162 -9.9768524 -0.73718643 0
1.4403757 -4.2190032 -1.9848748 4
1.5466968 -4.5304284 -1.9995743 4
3.4923267 -10.229371 -0.25095513 0
1.6534755 -4.843194 -1.9983823 7
1.7518119 -5.1312308 -1.9734563 4
13.208307 -38.688442 0.9491359 5
1.8659246 -5.4654784 -1.9514331 9
2.005996 -5.8757615 -1.9373775 6
2.1578801 -6.3206449 -1.9151285 3
22.07984 -64.674042 6.3757315 33
2.3404424 -6.8553882 -1.8963468 9
2.5635123 -7.5087819 -1.8799804 7
2.8177361 -8.2534285 -1.8537408 10
3.1502891 -9.2275095 -1.8370793 5
1.0782269 -3.1909852 -1.997523 4
3.5107143 -10.38987 -1.8018075 3
1.1375388 -3.3665171 -1.9965839 4
3.3792374 -10.000767 -1.4835854 0
1.2029436 -3.5600808 -1.9980711 4
3.3766325 -9.9930573 -1.2335205 0
1.273533 -3.7689886 -1.9982854 5
3.4008794 -10.064816 -0.991157 1
1.3512203 -3.9989018 -1.9979718 4
3.392 -10.038538 -0.74095327 0
1.4288687 -4.2287006 -1.9873153 4
1.5324562 -4.535265 -1.9995743 4
3.4729733 -10.278176 -0.25188357 0
1.6358663 -4.8413048 -1.9954722 6
1.736886 -5.1402702 -1.9748243 5
1.8523841 -5.4820838 -1.9552746 7
1.9881378 -5.8838434 -1.9379733 6
2.1355503 -6.320107 -1.9129235 3
21.844677 -64.648766 6.3664422 33
2.3213713 -6.8700395 -1.8983728 7
2.5411556 -7.5204854 -1.8809025 7
21.81732 -64.567802 9.5784502 7
2.793045 -8.2659464 -1.8545724 16
3.118767 -9.2299118 -1.835598 3
1.0714965 -3.2005086 -2.0016038 4
3.4798076 -10.394018 -1.8008349 3
1.1292405 -3.3729873 -1.9985434 4
3.3657589 -10.05336 -1.4899873 0
1.1907549 -3.5567279 -1.9943153 4
3.3638489 -10.047655 -1.2390957 0
1.2624359 -3.7708354 -1.9973879 5
3.3746574 -10.07994 -0.99171442 2
1.3389003 -3.9992311 -1.9962605 4
3.3810558 -10.099051 -0.7447201 0
1.4176346 -4.2344065 -1.9881287 3
3.4141741 -10.197974 -0.50151724 0
1.5197855 -4.5395265 -1.9995743 4
3.4671104 -10.356092 -0.25355476 0
1.624115 -4.8511539 -1.9976547 6
1.7219285 -5.1433177 -1.9741403 5
1.8352637 -5.4818449 -1.9533538 8
1.9704874 -5.8857512 -1.9367818 6
2.1185036 -6.3278689 -1.9134747 3
21.622967 -64.586769 6.3543663 32
2.2997208 -6.8691554 -1.8963468 7
2.5195272 -7.5257068 -1.8804414 7
21.609896 -64.547722 9.5664816 8
2.767468 -8.2662935 -1.8529092 16
3.0898607 -9.2292662 -1.8337464 3
1.0598307 -3.1971421 -1.997523 4
3.4477108 -10.40055 -1.8001863 3
1.1208737 -3.3812878 -2.0014822 5
3.3608427 -10.138499 -1.5011212 0
1.1813083 -3.5635979 -1.9961933 4
3.3483992 -10.100961 -1.2444386 0
1.2506799 -3.7728682 -1.9964902 5
3.3528807 -10.11448 -0.9941296 2
1.3287351 -4.0083337 -1.9988276 4
3.3667715 -10.156384 -0.74820799 0
1.4050649 -4.2385941 -1.9881287 4
1.5063101 -4.5440159 -1.9995743 4
3.45713 -10.428964 -0.25508666 2
1.6085421 -4.8524141 -1.9961998 7
1.7042952 -5.1412683 -1.9714042 5
1.8213757 -5.4944596 -1.9559147 7
1.9536163 -5.893384 -1.9373775 6
2.0997195 -6.3341265 -1.9134747 5
21.394274 -64.539116 6.3434048 32
2.2762859 -6.866766 -1.8938142 9
2.4971871 -7.5331488 -1.8804414 7
21.382763 -64.504387 9.5506153 8
2.741698 -8.2707539 -1.8520774 16
3.0612271 -9.2346621 -1.8330059 3
1.0503616 -3.1984551 -1.9965029 4
3.4192691 -10.412013 -1.8005106 3
1.1103389 -3.3810918 -1.999523 5
3.363414 -10.241929 -1.5150385 0
1.1735559 -3.5735936 -1.999949 4
3.3393917 -10.168778 -1.2516401 0
1.2395813 -3.7746477 -1.9955924 5
3.339534 -10.169211 -0.99858844 0
1.3175364 -4.0120287 -1.9988276 3
3.358938 -10.228299 -0.75281191 0
1.3903725 -4.2338223 -1.9840615 4
3.3821845 -10.299087 -0.50552338 3
1.4918872 -4.5429444 -1.9972618 4
3.4442127 -10.487969 -0.25629362 0
1.5955663 -4.8586574 -1.9969273 6
1.6899312 -5.1460075 -1.9714042 4
1.8018867 -5.4869237 -1.9514331 13
1.9377466 -5.9006305 -1.9379733 5
18.214581 -55.465202 4.0822883 10
2.0826225 -6.3417921 -1.9140259 4
21.166121 -64.452934 6.3290997 32
2.2577047 -6.8749342 -1.8943208 7
2.4767478 -7.5419421 -1.8809025 7
21.133955 -64.35498 9.5197191 8
2.7137079 -8.2635088 -1.8487508 16
3.0348134 -9.2413073 -1.8326356 3
1.0424902 -3.2046475 -1.9985433 4
3.3895698 -10.419643 -1.8001863 3
1.1019717 -3.3874955 -2.0014822 5
3.3537936 -10.309667 -1.5236673 0
1.1608406 -3.5684605 -1.9952542 4
3.3257308 -10.2234 -1.2572153 0
1.2306945 -3.7831936 -1.9982854 4
3.3283722 -10.231521 -1.0037904 0
1.3046501 -4.0105352 -1.9962605 3
3.3538158 -10.309735 -0.75811338 0
1.3796747 -4.2411633 -1.9856884 4
1.4797662 -4.5488477 -1.9980326 4
1.5802635 -4.8577795 -1.9947448 6
4.8190393 -14.813878 0 0
1.6784616 -5.1596432 -1.9748243 4
14.334466 -44.064598 1.0758204 20
1.7871439 -5.4937367 -1.9520735 8
1.9212618 -5.9060187 -1.9379733 5
18.015188 -55.37925 4.0722432 10
2.0637157 -6.3439269 -1.9129235 4
20.952173 -64.407639 6.3188815 32
2.2438846 -6.8977714 -1.8988793 6
2.4514632 -7.5358748 -1.8776747 7
20.924141 -64.321465 9.5060797 8
2.6900165 -8.2691956 -1.848335 18
3.0083878 -9.2478781 -1.8322654 3
1.0324497 -3.206089 -1.997523 4
3.3568239 -10.42402 -1.7992136 3
1.088709 -3.3807921 -1.9956043 4
3.8301058 -11.893712 -1.7560863 2
1.1491649 -3.5685275 -1.9933765 4
3.3173027 -10.301293 -1.2655782 0
1.2178204 -3.7817249 -1.9955924 5
3.3169222 -10.300112 -1.0095497 0
1.2938528 -4.0178299 -1.9979718 4
3.349508 -10.401301 -0.76411241 0
1.3654045 -4.2400208 -1.983248 4
3.3767004 -10.485743 -0.51372212 2
1.4656972 -4.5514617 -1.9972618 4
1.565843 -4.8624468 -1.9947448 6
4.7560592 -14.769095 0 0
1.6608404 -5.1574445 -1.9720881 4
17.911011 -55.619457 1.3566246 12
1.7690932 -5.4936042 -1.9501528 10
17.909861 -55.615891 2.7247581 26
1.9037294 -5.9116936 -1.9379733 6
17.833668 -55.379284 4.068337 10
2.0442941 -6.3481922 -1.912372 4
20.728626 -64.369064 6.3090353 32
2.2234082 -6.9043989 -1.8988793 6
2.4302859 -7.5468206 -1.8785971 7
20.697384 -64.272049 9.4896584 8
2.667268 -8.2827263 -1.8495827 26
2.9797299 -9.2530212 -1.8315246 3
1.0239387 -3.2142341 -2.0005836 4
3.3252566 -10.438274 -1.799862 3
1.0807285 -3.3925025 -2.0005026 5
3.7945242 -11.911347 -1.7569214 3
1.1400923 -3.5788503 -1.9971322 4
3.3072326 -10.381696 -1.2741733 0
1.2070185 -3.788938 -1.9973879 5
3.3105371 -10.392069 -1.0175383 0
1.2806751 -4.0201526 -1.9971162 4
4.5903692 -14.409575 -1.0575081 4
1.3554045 -4.2547345 -1.9881287 4
1.4519509 -4.5578022 -1.9980326 4
1.5499935 -4.8655667 -1.9940174 7
4.7072077 -14.776341 0 1
1.6446292 -5.1626368 -1.9720881 4
17.71191 -55.599251 1.3547678 12
1.75125 -5.4973288 -1.9495124 10
17.704725 -55.576702 2.7200997 26
1.883409 -5.9121871 -1.936186 5
17.646275 -55.393215 4.065268 11
2.0225894 -6.3490872 -1.9107182 4
20.488214 -64.314316 6.2973304 32
2.1987696 -6.902132 -1.8963468 6
2.4059737 -7.5525641 -1.878136 6
20.455683 -64.212196 9.4712868 8
2.6412334 -8.2910652 -1.8495827 25
2.9482591 -9.2548466 -1.8300434 3
1.0128888 -3.2105188 -1.9965029 4
3.296689 -10.449402 -1.8001863 3
1.0712509 -3.3955073 -2.0005026 5
3.760056 -11.91812 -1.7563647 3
1.1300941 -3.5820203 -1.9971322 4
3.2931712 -10.438251 -1.2799808 2
1.1958957 -3.7905896 -1.9964902 5
4.558877 -14.450115 -1.4136295 1
1.2699879 -4.0254369 -1.9979718 3
4.54351 -14.401407 -1.0559735 5
1.3424187 -4.2550182 -1.9865019 4
4.5478568 -14.415186 -0.7049005 4
1.4369968 -4.5547996 -1.9949492 4
1.5380822 -4.8752065 -1.9961998 6
4.6490784 -14.736024 0 1
1.6302065 -5.1672096 -1.9720881 4
17.565607 -55.677097 1.3554641 12
1.7398827 -5.5148468 -1.953994 7
17.581921 -55.728813 2.7251308 26
1.8651689 -5.911962 -1.9343988 6
2.0036952 -6.3510442 -1.9096158 4
20.279184 -64.278229 6.2882271 32
2.1806514 -6.9119363 -1.8973598 6
2.3866305 -7.5648212 -1.8795193 6
20.254843 -64.20108 9.4612665 8
2.6180706 -8.2984085 -1.8495827 23
2.9241779 -9.2686663 -1.8311543 3
1.0075101 -3.2248287 -2.0036442 4
3.265141 -10.451033 -1.7988894 3
1.0602045 -3.3934927 -1.9975636 5
3.7261679 -11.926683 -1.7560863 3
1.1190332 -3.5817909 -1.9952542 4
4.3498392 -13.922924 -1.7057893 3
1.1869042 -3.7990317 -1.9991831 5
4.5107856 -14.438081 -1.4112144 3
1.2608979 -4.0358701 -2.0013945 3
4.49792 -14.3969 -1.0547179 6
1.3294411 -4.2552624 -1.9848748 4
4.5028172 -14.412575 -0.70415515 5
1.4286742 -4.5728869 -2.001116 4
1.5244617 -4.8794827 -1.9961998 6
4.5965762 -14.712679 0 1
1.6135284 -5.1645665 -1.969352 4
20.084257 -64.2855 1.5636649 7
1.718825 -5.5015988 -1.9475917 11
1.8503598 -5.9226141 -1.936186 8
1.9870981 -6.3602848 -1.9107182 5
20.062782 -64.216766 6.2767081 31
2.1613407 -6.9179988 -1.8973598 6
2.3631742 -7.5640259 -1.8776747 6
2.5937195 -8.3019524 -1.8487508 19
2.8971107 -9.2730446 -1.8304138 3
0.9938727 -3.2146559 -1.9954827 4
3.2312038 -10.451246 -1.7972682 3
1.0532216 -3.4066184 -2.0034416 5
3.6890101 -11.932009 -1.7552513 3
1.1099659 -3.5901563 -1.9980711 4
4.3049903 -13.924381 -1.7043954 3
1.1761552 -3.804244 -2.0000811 4
4.4614582 -14.430473 -1.4091709 3
1.2462481 -4.0309577 -1.9971162 3
4.4504704 -14.394933 -1.0536019 8
1.3173497 -4.2609339 -1.9856884 4
4.4588552 -14.422052 -0.70396882 7
1.4123746 -4.5682898 -1.9972618 4
1.5077765 -4.8768644 -1.9932899 6
4.5399075 -14.684215 0 1
1.6015288 -5.1801038 -1.9734563 4
1.703054 -5.5084844 -1.9482321 13
1.8248843 -5.9025416 -1.9278454 9
17.065834 -55.199001 4.0401554 11
1.9648113 -6.3551321 -1.9074106 6
19.843933 -64.184692 6.2677913 31
2.139091 -6.9188352 -1.8958404 6
2.339572 -7.5672855 -1.8767526 6
2.5684984 -8.3077431 -1.848335 15
2.8701653 -9.2834768 -1.8307841 3
0.98545349 -3.2172468 -1.9954827 4
3.2061441 -10.467218 -1.7985651 3
1.042257 -3.4026954 -1.999523 5
3.65486 -11.932158 -1.7538595 3
1.099529 -3.5896735 -1.9961933 4
4.2673588 -13.931806 -1.7039309 4
1.1646217 -3.8021839 -1.9973879 5
4.4195828 -14.428777 -1.4078703 5
1.234632 -4.0307493 -1.9954047 3
4.4063425 -14.38555 -1.0520672 8
1.3072604 -4.2678618 -1.9873153 4
4.4093814 -14.395472 -0.70210546 7
1.3998698 -4.5702071 -1.996491 4
1.4960952 -4.8843579 -1.9947448 6
4.4803624 -14.627207 0 1
1.5874116 -5.1824818 -1.9727721 5
12.598321 -41.130207 0.99871421 100
1.6919569 -5.5237947 -1.9520735 7
1.8127805 -5.918252 -1.93142 12
1.9521087 -6.3731222 -1.9112695 4
19.640257 -64.120277 6.2564583 31
2.1221039 -6.9281116 -1.8968533 7
2.3220332 -7.5808282 -1.8785971 6
2.5473132 -8.316309 -1.8487508 15
2.8429737 -9.2815628 -1.8289325 3
0.97583985 -3.2219732 -1.9965029 4
3.1721001 -10.473461 -1.7979167 3
1.0325726 -3.4092903 -2.0014822 5
3.6144853 -11.934104 -1.7524679 3
1.0877342 -3.5914197 -1.9952542 4
4.2172351 -13.924229 -1.7013755 4
1.1531889 -3.8075342 -1.9982854 4
4.3661494 -14.415906 -1.4052693 6
1.2251068 -4.0449891 -2.0005388 3
4.3541865 -14.376409 -1.050393 8
1.2927867 -4.2684503 -1.9856884 4
4.3560266 -14.382484 -0.70080113 7
1.3876448 -4.5816474 -1.9995743 4
4.3630638 -14.405718 -0.34946176 0
1.4807429 -4.8890338 -1.9947448 6
4.4198937 -14.593357 0 1
1.5694879 -5.1820474 -1.9707199 4
12.532216 -41.378166 1.0037742 100
1.672947 -5.5236425 -1.9501528 7
1.7919649 -5.9166088 -1.929037 12
16.711773 -55.17799 4.0315056 12
1.9331915 -6.3829031 -1.912372 4
19.405237 -64.071121 6.2456822 31
2.099767 -6.9328923 -1.8963468 6
2.2953849 -7.5787725 -1.8762915 6
2.5245764 -8.3355045 -1.8512459 6
2.8143702 -9.2923288 -1.8293028 3
0.96578217 -3.2232065 -1.9954827 4
3.141011 -10.482827 -1.7979167 3
1.0199504 -3.4039879 -1.9965839 4
3.58304 -11.958056 -1.7544163 3
1.0775806 -3.596323 -1.9961933 4
4.178184 -13.944294 -1.7023047 7
1.1418868 -3.8109391 -1.9982854 5
4.3159275 -14.404 -1.4028542 5
1.2115433 -4.0434113 -1.9979718 3
4.3063588 -14.372065 -1.0491374 8
1.2785432 -4.2670169 -1.983248 4
4.3070269 -14.374294 -0.69977629 7
1.3745745 -4.587512 -2.000345 5
1.4646264 -4.888052 -1.9925624 6
4.3662429 -14.571921 0 1
1.5551847 -5.1902819 -1.9720881 4
1.6543754 -5.5213213 -1.9475917 10
1.7771423 -5.9310441 -1.9320158 12
1.913693 -6.3867693 -1.9118208 3
19.184189 -64.025414 6.2356505 31
2.0797431 -6.9409456 -1.8968533 6
2.274564 -7.5911422 -1.8776747 6
2.5037642 -8.3560762 -1.8541566 4
2.785095 -9.2949905 -1.8281919 3
0.95572537 -3.2244084 -1.9944624 4
3.108211 -10.486424 -1.7969439 3
1.0103414 -3.4086707 -1.9975636 4
3.5441661 -11.957241 -1.7527462 3
1.0669051 -3.5995045 -1.9961933 4
4.131146 -13.937583 -1.6999817 7
1.132098 -3.8194509 -2.0009787 4
4.2686429 -14.401468 -1.4013678 6
1.1995407 -4.046988 -1.9979718 3
4.2557588 -14.357999 -1.0471842 8
1.2674345 -4.2760468 -1.9856884 4
4.257545 -14.364026 -0.69865835 7
1.3604324 -4.5898013 -1.9995743 4
1.4501166 -4.8923759 -1.9925624 7
4.3127565 -14.550297 0 1
1.5376415 -5.1876659 -1.969352 4
1.6385243 -5.5280228 -1.9482321 10
1.7584512 -5.9326301 -1.9308243 10
1.8914561 -6.3813596 -1.9085132 3
18.964705 -63.982765 6.2259893 31
2.0580397 -6.9433756 -1.8958404 6
2.2509241 -7.5941257 -1.8767526 6
2.4767361 -8.3559656 -1.8524934 4
2.7586205 -9.306982 -1.8289325 3
0.94720191 -3.2287154 -1.9954827 4
3.0778046 -10.491275 -1.7962955 3
1.0013096 -3.413152 -1.9985434 4
3.510762 -11.967092 -1.7527462 3
1.0583408 -3.6075532 -1.9990101 4
4.0877357 -13.933815 -1.6981233 7
1.1204215 -3.8191671 -1.9991831 5
4.2205625 -14.38658 -1.3987669 6
1.1867082 -4.0451179 -1.9954047 4
4.2094693 -14.348767 -1.0456495 8
