# .PCD v0.7 - Point Cloud Data file format
VERSION 0.7
FIELDS x y z intensity
SIZE 4 4 4 4
TYPE F F F F
COUNT 1 1 1 1
WIDTH 1391
HEIGHT 1
VIEWPOINT 0 0 0 1 0 0 0
POINTS 1391
DATA ascii
-29.0781 25.4688 5.886699999999999 108
-0.5922999999999999 0.5225 -0.1318 10
-42.625 37.5938 1.9824000000000002 206
-8.0938 7.140599999999999 -1.3828 145
-42.5625 37.5625 3.3007999999999997 27
-9.5938 8.4609 -1.3397999999999999 247
-27.375 24.1406 2.9785000000000004 44
-11.4375 10.0859 -1.2422 81
-26.2969 23.1875 3.6797000000000004 93
-13.8672 12.2344 -1.0732 190
-26.5938 23.4531 4.5547 170
-18.1406 15.9922 -0.8428 89
-27.125 23.9219 5.5078 242
-0.5728 0.5093 -0.1277 32
-0.6724 0.5977 -0.1307 114
-42.5938 37.875 1.9883000000000002 171
-8.0547 7.1602 -1.3809 241
-42.5312 37.8125 3.3105 140
-9.5391 8.4766 -1.3369 121
-27.2188 24.2031 2.9707 104
-11.3828 10.1172 -1.2402 31
-26.0312 23.1406 3.6562 190
-13.8047 12.273399999999999 -1.0723 161
-26.0625 23.1719 4.4805 226
-18.0469 16.0469 -0.8418000000000001 101
-26.9531 23.9688 5.4961 182
-0.5972 0.5347 -0.13390000000000002 108
-28.0781 25.1406 1.3144999999999998 199
-8.0312 7.1914 -1.3809 230
-29.1719 26.125 2.2754 209
-9.5 8.5078 -1.3359 243
-27.1094 24.2812 2.9688 21
-11.3203 10.1406 -1.2373 109
-25.9531 23.25 3.6582 236
-13.7422 12.3125 -1.0713 219
-25.9375 23.2344 4.4727 216
-17.9688 16.0938 -0.8408 215
-26.8438 24.0469 5.488300000000001 52
-0.5957 0.5366 -0.13390000000000002 167
-28.0156 25.25 0.44020000000000004 127
-27.9375 25.1719 1.3115 144
-7.9922 7.199199999999999 -1.3779 202
-28.25 25.4531 2.2109 122
-9.4531 8.5234 -1.3330000000000002 28
-28.6406 25.8125 3.1464999999999996 230
-11.289100000000001 10.1719 -1.2373 56
-26.2656 23.6719 3.7129000000000003 6
-13.7422 12.3828 -1.0732 147
-26.7188 24.0781 4.6211 125
-17.9375 16.1562 -0.8412999999999999 40
-26.7344 24.0938 5.480499999999999 236
-27.9531 25.1875 -0.43920000000000003 80
-0.5703 0.5176 -0.1284 53
-27.9219 25.3125 0.4399 125
-27.9531 25.3594 1.3163999999999998 65
-7.953099999999999 7.2148 -1.376 149
-28.2188 25.5938 2.2148 64
-9.4219 8.5469 -1.3319999999999999 35
-28.5469 25.8906 3.1445 237
-11.25 10.2109 -1.2373 14
-26.1719 23.7344 3.7089999999999996 28
-13.656199999999998 12.3906 -1.0703 33
-26.25 23.7969 4.5508 47
-17.8594 16.2031 -0.8398 58
-26.4531 24.0 5.4414 164
-27.8906 25.2969 -0.4395 222
-0.583 0.5327000000000001 -0.1318 122
-42.5625 38.9062 2.0117 53
-7.917999999999999 7.238300000000001 -1.374 12
-30.5 27.8906 2.4023 245
-9.375 8.5703 -1.3311000000000002 170
-28.4844 26.0469 3.1483999999999996 124
-11.1719 10.2109 -1.2324 54
-26.0781 23.8438 3.7089999999999996 1
-13.6406 12.468800000000002 -1.0723 44
-26.0 23.7656 4.5273 229
-17.8125 16.2812 -0.8408 134
-28.6562 26.2031 5.9140999999999995 143
-27.9219 25.5156 -0.4414 124
-0.5898 0.5429999999999999 -0.13390000000000002 130
-42.5625 39.1875 2.0195 189
-7.894500000000001 7.265599999999999 -1.375 183
-27.875 25.6562 2.2012 4
-9.3281 8.5859 -1.3281 42
-28.6875 26.4062 3.1816000000000004 37
-11.148399999999999 10.2578 -1.2334 103
-26.8281 24.6875 3.8281 185
-13.5547 12.476600000000001 -1.0693000000000001 233
-25.8906 23.8438 4.5234 226
-17.7969 16.375 -0.8428 201
-26.2656 24.1719 5.4375 124
-30.4531 28.0312 -0.4832 151
-0.5820000000000001 0.5396 -0.1326 153
-0.6597 0.6113000000000001 -0.1307 136
-42.5 39.4062 2.0215 229
-7.859400000000001 7.2852 -1.3730000000000002 214
-27.4688 25.4531 2.1758 31
-9.3047 8.625 -1.3281 224
-28.4375 26.3594 3.1641000000000004 164
-11.1094 10.2969 -1.2334 224
-26.5938 24.6562 3.8066000000000004 247
-13.5156 12.531199999999998 -1.0693000000000001 4
-25.7344 23.8594 4.5078 160
-17.6875 16.3906 -0.8403 81
-28.5156 26.4375 5.921900000000001 15
-30.3281 28.1094 -0.4827 202
-0.5977 0.5576 -0.1367 146
-7.824199999999999 7.3047 -1.3721 35
-27.0781 25.2812 2.1523 186
-9.25 8.6328 -1.3252000000000002 9
-28.7031 26.7969 3.2051 139
-11.0547 10.3203 -1.2314 34
-26.4375 24.6875 3.7969 69
-13.4297 12.539100000000001 -1.0664 150
-25.7969 24.0781 4.5352 134
-17.625 16.4531 -0.8398 130
-28.2969 26.4219 5.8984000000000005 239
-30.1562 28.1406 -0.4814 158
-0.5698 0.5356000000000001 -0.1305 71
-7.796900000000001 7.324199999999999 -1.3711000000000002 26
-27.0469 25.4219 2.1562 93
-9.2266 8.6719 -1.3262 9
-28.4219 26.7188 3.1836 35
-11.0625 10.3906 -1.2363 228
-26.4062 24.8125 3.8047000000000004 5
-13.398399999999999 12.593800000000002 -1.0674 172
-25.7812 24.2344 4.5469 95
-17.5781 16.5156 -0.8403 135
-27.4375 25.7812 5.734400000000001 251
-0.5596 0.5293 -0.1284 96
-0.6533 0.6182 -0.1307 197
-42.5312 40.25 2.043 235
-7.769500000000001 7.3477 -1.3700999999999999 150
-26.875 25.4219 2.1504 88
-9.1641 8.6719 -1.3213 228
-26.8438 25.3906 3.0137 252
-10.9453 10.351600000000001 -1.2266 164
-26.3281 24.9062 3.8047000000000004 203
-13.3672 12.648399999999999 -1.0684 183
-25.5156 24.1406 4.5156 93
-17.5 16.5625 -0.8398 128
-26.1719 24.7656 5.488300000000001 95
-0.563 0.5366 -0.1298 225
-42.4688 40.5 2.0469 168
-7.738300000000001 7.375 -1.3691 27
-42.4688 40.5 3.4120999999999997 216
-9.1172 8.6953 -1.3193000000000001 224
-28.5 27.1562 3.2129000000000003 214
-10.8594 10.351600000000001 -1.2217 155
-26.4688 25.2344 3.8398000000000003 140
-13.3125 12.6875 -1.0674 252
-25.7031 24.5 4.5625 131
-17.4531 16.6406 -0.8398 53
-25.9844 24.7812 5.4688 255
-23.5625 22.4688 -0.3799 34
-0.5698 0.5468999999999999 -0.1318 226
-42.5 40.7812 2.0547 75
-7.707000000000001 7.3984000000000005 -1.3681999999999999 14
-42.5 40.7812 3.4238 126
-9.0859 8.7188 -1.3193000000000001 118
-26.6719 25.6094 3.0176 187
-10.8125 10.375 -1.2207 144
-28.0938 26.9688 4.0898 65
-13.2656 12.7344 -1.0674 194
-25.5 24.4844 4.543 212
-17.3594 16.6562 -0.8384 96
-25.875 24.8281 5.4609000000000005 56
-23.25 22.3125 -0.376 160
-0.6021 0.5815 -0.14029999999999998 51
-42.4062 40.9688 2.0586 210
-7.6640999999999995 7.4062 -1.3652000000000002 183
-42.4688 41.0312 3.4336 227
-9.0391 8.7344 -1.3163999999999998 49
-25.9844 25.1094 2.9473000000000003 5
-10.7578 10.398399999999999 -1.2187999999999999 17
-27.9531 27.0156 4.082 72
-13.218800000000002 12.773399999999999 -1.0674 30
-17.2812 16.7031 -0.8373999999999999 197
-25.7812 24.9219 5.4609000000000005 33
-0.5576 0.5425 -0.1298 41
-42.5625 41.4062 2.0723 173
-7.625 7.417999999999999 -1.3633000000000002 142
-42.7188 41.5312 3.4648000000000003 23
-9.0156 8.7734 -1.3174000000000001 165
-26.0 25.2969 2.9589999999999996 239
-10.726600000000001 10.4375 -1.2187999999999999 218
-26.3594 25.6406 3.8613 129
-13.1797 12.8203 -1.0674 51
-26.2188 25.5156 4.6992 39
-17.2344 16.7656 -0.8373999999999999 184
-25.7031 25.0 5.4609000000000005 53
-0.5977 0.5859000000000001 -0.14029999999999998 220
-42.5625 41.7188 2.0801 133
-7.6172 7.4648 -1.3662 97
-8.9766 8.7969 -1.3163999999999998 252
-26.7188 26.1875 3.0526999999999997 89
-10.6875 10.476600000000001 -1.2187999999999999 26
-26.1562 25.625 3.8438 35
-13.1328 12.8672 -1.0674 6
-26.0781 25.5469 4.6914 245
-17.1719 16.8281 -0.8379000000000001 108
-0.5791 0.5713 -0.136 211
-42.5625 42.0 2.0859 188
-7.5859000000000005 7.484400000000001 -1.3652000000000002 205
-60.625 59.8125 4.9531 44
-8.9375 8.8203 -1.3154 134
-26.1094 25.7656 2.9922000000000004 46
-10.6406 10.5 -1.2178 188
-26.0938 25.75 3.8476999999999997 63
-13.085899999999999 12.914100000000001 -1.0674 214
-25.7969 25.4688 4.6562 4
-17.125 16.8906 -0.8384 201
-0.5825 0.5786 -0.1375 50
-60.3125 59.9062 2.9668 82
-7.550800000000001 7.5 -1.3633000000000002 134
-60.2188 59.8438 4.9375 106
-8.8906 8.8359 -1.3125 114
-25.9219 25.75 2.9824 67
-10.6094 10.539100000000001 -1.2178 32
-25.9375 25.7656 3.8398000000000003 59
-13.0469 12.960899999999999 -1.0674 107
-25.6875 25.5156 4.6523 122
-17.0625 16.9531 -0.8384 48
-0.5722999999999999 0.5722999999999999 -0.1354 42
-59.9062 59.9062 2.9551 31
-7.515599999999999 7.515599999999999 -1.3613 21
-59.8125 59.8125 4.918 183
-8.8516 8.8516 -1.3115 13
-25.8281 25.8281 2.9805 185
-10.585899999999999 10.585899999999999 -1.2187999999999999 87
-25.8125 25.8125 3.8339999999999996 67
-13.0 13.0 -1.0674 58
-25.7344 25.7344 4.6758 96
-17.0156 17.0156 -0.8384 64
-0.5478999999999999 0.5522 -0.1298 71
-6.5273 6.578099999999999 -1.4062000000000001 223
-59.4062 59.875 2.9433999999999996 121
-7.4688 7.5273 -1.3584 164
-59.375 59.8438 4.9023 86
-8.8281 8.8906 -1.3125 170
-25.8906 26.0781 2.998 181
-10.5078 10.585899999999999 -1.2148 6
-27.375 27.5781 4.0781 116
-12.9453 13.0469 -1.0674 63
-25.0312 25.2344 4.5664 197
-16.9219 17.0625 -0.8373999999999999 195
-0.5405 0.5483 -0.1284 33
-6.4765999999999995 6.574199999999999 -1.4003999999999999 110
-59.0312 59.9062 2.9355 180
-7.4375 7.550800000000001 -1.3574000000000002 223
-58.9375 59.8125 4.8828 158
-8.7812 8.9062 -1.3096 157
-25.5 25.875 2.9648000000000003 89
-10.4844 10.6406 -1.2168 109
-26.6094 27.0 3.9805 210
-12.906199999999998 13.093800000000002 -1.0674 209
-26.0156 26.4062 4.7617 242
-16.9219 17.1719 -0.8403 28
-0.5552 0.5674 -0.1326 239
-6.449199999999999 6.5898 -1.3994 238
-58.5938 59.8438 2.9219 165
-7.417999999999999 7.578099999999999 -1.3584 241
-58.5312 59.7812 4.8633 77
-8.7344 8.9297 -1.3086000000000002 153
-25.625 26.1719 2.9882999999999997 217
-10.460899999999999 10.6797 -1.2178 192
-26.6406 27.2188 3.998 8
-12.835899999999999 13.1172 -1.0654000000000001 211
-26.4062 26.9688 4.8477 141
-16.7812 17.1406 -0.8354 248
-0.5508 0.5664 -0.1318 99
-6.390599999999999 6.5703 -1.3906 42
-58.1875 59.8438 2.9120999999999997 115
-7.3828 7.5938 -1.3563999999999998 239
-58.125 59.7812 4.8477 80
-8.7031 8.9531 -1.3075999999999999 252
-10.406199999999998 10.7031 -1.2158 173
-12.7969 13.164100000000001 -1.0654000000000001 201
-26.375 27.125 4.8594 40
-16.7188 17.1875 -0.8354 172
-0.5566 0.5767 -0.13390000000000002 47
-6.3711 6.5977 -1.3925999999999998 120
-57.8125 59.875 2.9043 155
-7.3359000000000005 7.6015999999999995 -1.3535 100
-57.6875 59.7812 4.832 236
-8.6797 8.9922 -1.3086000000000002 130
-10.3672 10.7344 -1.2148 74
-25.75 26.6875 3.8926 210
-12.75 13.2031 -1.0654000000000001 32
-24.9062 25.7969 4.6055 1
-16.7031 17.3125 -0.8384 61
-0.5464 0.5703 -0.1318 24
-6.3398 6.6172 -1.3906 126
-57.375 59.8438 2.8926 103
-7.3086 7.6211 -1.3525 52
-57.3125 59.7812 4.8164 5
-8.6328 9.0 -1.3066 28
-27.0625 28.2344 3.1914 116
-10.3203 10.7656 -1.2139 53
-25.5781 26.6875 3.8808999999999996 195
-12.6875 13.2422 -1.0645 182
-24.9688 26.0469 4.6367 140
-16.5781 17.2969 -0.835 70
-0.5635 0.5918 -0.1367 39
-6.300800000000001 6.6172 -1.3866999999999998 208
-56.9688 59.8438 2.8827999999999996 222
-7.2734000000000005 7.640599999999999 -1.3516 177
-56.8438 59.7188 4.7969 129
-8.6016 9.0312 -1.3066 115
-26.6875 28.0312 3.1582 16
-10.3047 10.8203 -1.2168 226
-25.6562 26.9375 3.9043 151
-12.625 13.2656 -1.0625 196
-24.8594 26.1094 4.6328 194
-16.5156 17.3438 -0.835 43
-0.5752 0.6084 -0.14029999999999998 231
-6.261699999999999 6.625 -1.3838 45
-56.5625 59.8438 2.873 234
-7.2461 7.6640999999999995 -1.3516 71
-56.4688 59.7188 4.7773 122
-8.5547 9.0469 -1.3037 223
-26.6406 28.1719 3.1641000000000004 209
-10.25 10.843800000000002 -1.2148 229
-25.6875 27.1719 3.9238 182
-12.6094 13.335899999999999 -1.0654000000000001 244
-24.9688 26.4062 4.6719 74
-16.5312 17.4844 -0.8384 70
-0.5327000000000001 0.5674 -0.1298 1
-6.2188 6.625 -1.3799000000000001 236
-56.1562 59.8125 2.8632999999999997 116
-7.207000000000001 7.6797 -1.3496000000000001 93
-56.0625 59.7188 4.7617 98
-8.5156 9.0703 -1.3027000000000002 19
-26.5156 28.2344 3.1601999999999997 17
-10.2109 10.8828 -1.2148 192
-25.4688 27.1406 3.9082 179
-12.531199999999998 13.351600000000001 -1.0625 172
-24.7969 26.4219 4.6562 195
-16.375 17.4531 -0.8340000000000001 85
-0.5708 0.6123 -0.14029999999999998 124
-6.1875 6.640599999999999 -1.3779 75
-55.7812 59.8438 2.8535000000000004 35
-7.171900000000001 7.6914 -1.3466999999999998 7
-55.6875 59.7188 4.75 145
-8.4844 9.1016 -1.3027000000000002 142
-26.3594 28.2812 3.1543 137
-10.1641 10.906199999999998 -1.2139 255
-25.4531 27.3125 3.9199 168
-12.476600000000001 13.3906 -1.0625 207
-16.375 17.5625 -0.8364 175
-20.7031 22.2188 -0.3542 86
-0.5498 0.5942000000000001 -0.1354 151
-6.140599999999999 6.636699999999999 -1.3721 194
-55.3438 59.7812 2.8438 74
-7.144500000000001 7.7148 -1.3466999999999998 108
-55.25 59.6875 4.7305 162
-8.4453 9.1172 -1.3018 170
-10.1328 10.9453 -1.2148 84
-25.1094 27.1406 3.8808999999999996 81
-12.4297 13.4297 -1.0615 251
-16.25 17.5469 -0.8334999999999999 182
-20.5312 22.1875 -0.3525 222
-0.5532 0.6015999999999999 -0.1367 119
-6.109400000000001 6.644500000000001 -1.3700999999999999 100
-54.9688 59.8125 2.8339999999999996 95
-7.1015999999999995 7.7227 -1.3437999999999999 117
-54.875 59.6875 4.7148 244
-8.3906 9.1328 -1.2988 179
-10.0938 10.9844 -1.2148 231
-25.1094 27.3125 3.8945 252
-12.3672 13.460899999999999 -1.0605 169
-16.2344 17.6562 -0.8354 107
-20.3906 22.1875 -0.35159999999999997 116
-5.4062 5.921900000000001 -1.4062000000000001 6
-6.074199999999999 6.6523 -1.3672 219
-54.5625 59.75 2.8242000000000003 102
-7.0625 7.734400000000001 -1.3418 201
-54.5 59.6875 4.6992 202
-8.3594 9.1562 -1.2978999999999998 30
-10.0547 11.0156 -1.2148 121
-24.9531 27.3281 3.8848000000000003 169
-12.3125 13.4844 -1.0595999999999999 254
-16.2188 17.7656 -0.8384 246
-20.3438 22.2656 -0.3518 42
-5.3164 5.863300000000001 -1.3887 56
-6.042999999999999 6.6640999999999995 -1.3652000000000002 201
-54.2188 59.75 2.8164 35
-7.0352 7.7539 -1.3408000000000002 159
-54.125 59.6562 4.6836 30
-8.3125 9.1641 -1.2959 94
-10.0078 11.031199999999998 -1.2129 86
-25.8125 28.4531 4.0312 21
-12.2656 13.523399999999999 -1.0595999999999999 143
-16.1094 17.75 -0.8354 175
-5.269500000000001 5.8515999999999995 -1.3818000000000001 176
-6.019500000000001 6.6836 -1.3652000000000002 28
-53.8438 59.7812 2.8066000000000004 153
-6.988300000000001 7.761699999999999 -1.3378999999999999 81
-53.7188 59.6562 4.668 46
-8.2812 9.1953 -1.2959 19
-53.5938 59.5 6.5390999999999995 33
-9.9609 11.0625 -1.2119 17
-25.6562 28.5 4.0273 154
-12.226600000000001 13.5781 -1.0605 47
-16.0469 17.8125 -0.8354 106
-5.238300000000001 5.859400000000001 -1.3788999999999998 102
-6.0039 6.7148 -1.3672 157
-53.4375 59.75 2.7969 16
-6.9414 7.765599999999999 -1.334 38
-53.3438 59.6562 4.6523 161
-8.25 9.2266 -1.2959 36
-53.2812 59.5938 6.5273 202
-9.9062 11.0781 -1.21 212
-12.1406 13.5781 -1.0576 214
-15.976600000000001 17.875 -0.8354 159
-19.8906 22.25 -0.3481 3
-5.199199999999999 5.859400000000001 -1.374 150
-5.957000000000001 6.7109000000000005 -1.3622999999999998 191
-53.0312 59.75 2.7870999999999997 37
-6.9102 7.7852 -1.3330000000000002 163
-52.9375 59.625 4.6367 203
-8.2031 9.2422 -1.2938999999999998 166
-52.875 59.5625 6.5039 201
-9.8672 11.1094 -1.21 232
-12.1094 13.6406 -1.0586 63
-15.914100000000001 17.9219 -0.8354 145
-5.1797 5.875 -1.3730000000000002 52
-5.9297 6.7265999999999995 -1.3613 46
-52.6875 59.75 2.7793 222
-6.875 7.796900000000001 -1.3319999999999999 106
-52.5625 59.625 4.6211 226
-8.1641 9.2578 -1.2919999999999998 163
-52.4688 59.5312 6.4765999999999995 100
-9.8125 11.1328 -1.209 215
-12.0781 13.7031 -1.0605 198
-15.843800000000002 17.9688 -0.835 28
-5.171900000000001 5.9062 -1.3769999999999998 253
-5.894500000000001 6.730499999999999 -1.3584 34
-52.2812 59.6875 2.7695 221
-6.8359000000000005 7.8047 -1.3291 144
-52.2188 59.625 4.6094 17
-8.1172 9.2734 -1.291 85
-52.1562 59.5312 6.4609000000000005 239
-9.7812 11.164100000000001 -1.209 95
-12.0156 13.718800000000002 -1.0586 34
-15.781199999999998 18.0156 -0.835 46
-5.140599999999999 5.9102 -1.374 253
-5.863300000000001 6.738300000000001 -1.3555000000000001 126
-51.9062 59.6562 2.7598000000000003 145
-6.800800000000001 7.8164 -1.3271000000000002 239
-51.8438 59.625 4.5938 161
-8.0859 9.2969 -1.291 101
-51.75 59.5 6.4375 37
-9.7109 11.164100000000001 -1.2051 19
-11.968800000000002 13.7578 -1.0586 166
-15.7031 18.0625 -0.8340000000000001 204
-5.1133 5.921900000000001 -1.3721 130
-5.8477 6.7734000000000005 -1.3584 246
-51.5312 59.6875 2.752 6
-6.7539 7.824199999999999 -1.3241999999999998 85
-51.4688 59.5938 4.5781 222
-8.0547 9.3281 -1.291 24
-51.375 59.5 6.417999999999999 241
-9.6797 11.210899999999999 -1.2061 153
-11.914100000000001 13.7969 -1.0576 170
-15.718800000000002 18.2031 -0.8384 251
-20.0156 23.1875 -0.3574 250
-5.0781 5.921900000000001 -1.3681999999999999 39
-5.8164 6.7852 -1.3563999999999998 119
-51.1875 59.6875 2.7441000000000004 123
-6.730499999999999 7.8477 -1.3241999999999998 24
-51.0938 59.5938 4.5625 81
-8.0078 9.3438 -1.2891 249
-51.0312 59.5312 6.4023 188
-9.6328 11.2344 -1.2051 209
-11.851600000000001 13.8203 -1.0566 42
-15.601600000000001 18.2031 -0.8354 160
-5.0625 5.9453 -1.3700999999999999 182
-25.4688 29.9219 0.4585 59
-5.769500000000001 6.7773 -1.3516 22
-50.8125 59.6875 2.7344 191
-6.703099999999999 7.8711 -1.3241999999999998 16
-50.7188 59.5625 4.5508 147
-7.980499999999999 9.375 -1.2891 14
-50.6562 59.5 6.3789 40
-9.6172 11.289100000000001 -1.208 19
-11.8047 13.8672 -1.0576 108
-15.585899999999999 18.3125 -0.8379000000000001 118
-18.7188 21.9844 -0.3367 159
-5.043 5.9648 -1.3700999999999999 150
-25.3281 29.9531 0.4578 202
-5.738300000000001 6.7890999999999995 -1.3496000000000001 72
-50.4375 59.6562 2.7266000000000004 245
-6.6602 7.8789 -1.3213 11
-50.375 59.5938 4.5391 91
-7.9375 9.3906 -1.2871000000000001 38
-50.2812 59.4688 6.355499999999999 208
-9.5469 11.289100000000001 -1.2041 118
-11.7656 13.9219 -1.0576 220
-15.460899999999999 18.2812 -0.8345 52
-18.6875 22.1094 -0.33759999999999996 24
-5.0156 5.9765999999999995 -1.3681999999999999 169
-5.7148 6.8086 -1.3496000000000001 221
-50.0625 59.6562 2.7188 251
-6.6211 7.890599999999999 -1.3193000000000001 52
-49.9688 59.5625 4.5195 137
-7.9023 9.4141 -1.2871000000000001 105
-49.9062 59.4375 6.3359000000000005 37
-9.5156 11.3281 -1.2051 210
-11.7422 13.9844 -1.0595999999999999 219
-15.468800000000002 18.4219 -0.8384 9
-18.4531 21.9844 -0.335 60
-4.9844 5.980499999999999 -1.3652000000000002 211
-5.6953 6.832000000000001 -1.3496000000000001 194
-49.7188 59.6562 2.7089999999999996 221
-6.5898 7.9102 -1.3184 224
-49.625 59.5312 4.5078 97
-7.863300000000001 9.4375 -1.2861000000000002 115
-49.5312 59.4062 6.3164 63
-9.4688 11.3594 -1.2041 95
-11.6719 14.0078 -1.0576 29
-15.3828 18.4531 -0.8373999999999999 71
-18.3281 21.9844 -0.3337 28
-4.9609 5.9961 -1.3652000000000002 134
-5.671900000000001 6.855499999999999 -1.3506 29
-49.3438 59.625 2.7012 7
-6.546900000000001 7.9102 -1.3154 28
-49.25 59.5312 4.4922 236
-7.828099999999999 9.4609 -1.2861000000000002 158
-49.2188 59.4688 6.3047 122
-9.4219 11.3906 -1.2041 216
-11.6328 14.0547 -1.0586 183
-15.335899999999999 18.5312 -0.8384 202
-18.1875 21.9688 -0.3325 73
-4.9375 6.0078 -1.3643 81
-5.636699999999999 6.859400000000001 -1.3477000000000001 139
-49.0 59.625 2.6933999999999996 52
-6.5273 7.9453 -1.3174000000000001 130
-48.9062 59.5 4.4766 201
-7.7812 9.4688 -1.2832 132
-48.8438 59.4375 6.2773 65
-9.3906 11.4219 -1.2041 212
-11.5547 14.0625 -1.0566 148
-15.3047 18.625 -0.8403 177
-18.125 22.0625 -0.33299999999999996 14
-4.9141 6.019500000000001 -1.3622999999999998 209
-5.6015999999999995 6.859400000000001 -1.3437999999999999 90
-48.6562 59.5938 2.6836 22
-6.5 7.9609000000000005 -1.3163999999999998 248
-48.5938 59.5312 4.4688 87
-7.7461 9.4844 -1.2832 115
-48.5 59.4062 6.261699999999999 147
-9.3438 11.4453 -1.2031 23
-11.523399999999999 14.1172 -1.0576 86
-15.25 18.6875 -0.8403 137
-17.9062 21.9375 -0.3301 93
-4.8945 6.0352 -1.3622999999999998 185
-5.5859000000000005 6.890599999999999 -1.3466999999999998 44
-48.3125 59.5625 2.6757999999999997 88
-6.4609000000000005 7.9688 -1.3144999999999998 100
-48.25 59.5 4.4531 62
-7.7188 9.5234 -1.2832 206
-48.125 59.3438 6.238300000000001 247
-9.3125 11.476600000000001 -1.2031 122
-20.2812 25.0 3.3789 60
-11.476600000000001 14.148399999999999 -1.0576 118
-15.1797 18.7188 -0.8398 67
-17.7812 21.9219 -0.32909999999999995 45
-4.8594 6.042999999999999 -1.3603999999999998 127
-5.550800000000001 6.8984000000000005 -1.3428 90
-47.9375 59.5938 2.668 197
-6.4297 7.9922 -1.3135 152
-47.8438 59.4688 4.4375 66
-7.671900000000001 9.5312 -1.2812000000000001 40
-47.8125 59.4062 6.2265999999999995 172
-9.25 11.4922 -1.2012 20
-20.25 25.1719 3.3906 40
-11.414100000000001 14.1797 -1.0566 95
-15.1328 18.8125 -0.8412999999999999 62
-17.625 21.9062 -0.32789999999999997 66
-4.8398 6.0586 -1.3603999999999998 191
-5.5234000000000005 6.9140999999999995 -1.3428 24
-47.5938 59.5625 2.6601999999999997 204
-6.394500000000001 8.0078 -1.3125 95
-47.5 59.4688 4.4258 151
-7.6211 9.5391 -1.2783 202
-9.2188 11.5469 -1.2031 156
-20.2656 25.375 3.4082 42
-11.3828 14.2422 -1.0576 1
-15.093800000000002 18.8906 -0.8428 111
-18.9688 23.75 4.6289 85
-17.5 21.9062 -0.3271 185
-4.8125 6.0703 -1.3584 10
-22.9219 28.9062 0.4304 137
-5.4961 6.9297 -1.3418 17
-47.25 59.5625 2.6523000000000003 221
-6.3672 8.0234 -1.3125 159
-47.1562 59.4688 4.4141 175
-7.578099999999999 9.5547 -1.2773 105
-47.0938 59.375 6.1875 21
-9.1797 11.5703 -1.2021 212
-19.7031 24.8438 3.3281 58
-11.3125 14.2656 -1.0566 6
-15.0078 18.9219 -0.8418000000000001 27
-18.875 23.7969 4.625 241
-17.375 21.9219 -0.3262 149
-4.7852 6.074199999999999 -1.3563999999999998 74
-5.4609000000000005 6.9336 -1.3388999999999998 90
-46.9062 59.5312 2.6445 70
-6.332000000000001 8.0391 -1.3115 243
-46.8125 59.4375 4.3984 198
-7.546900000000001 9.5859 -1.2773 115
-9.1172 11.5703 -1.1992 64
-19.8438 25.2031 3.3672000000000004 138
-11.289100000000001 14.335899999999999 -1.0595999999999999 193
-14.9453 18.9844 -0.8418000000000001 85
-18.7656 23.8281 4.6172 231
-17.2344 21.8906 -0.325 47
-4.7695 6.0977 -1.3574000000000002 253
-5.4453 6.9609000000000005 -1.3408000000000002 41
-46.5625 59.5312 2.6367000000000003 219
-6.292999999999999 8.0469 -1.3075999999999999 21
-46.5 59.4375 4.3867 73
-7.511699999999999 9.6016 -1.2773 179
-18.4531 23.5938 2.4434 2
-9.0625 11.585899999999999 -1.1973 44
-19.5938 25.0469 3.3379000000000003 219
-11.2031 14.3203 -1.0556999999999999 111
-18.8906 24.1406 3.9375 255
-14.8828 19.0312 -0.8418000000000001 70
-18.8281 24.0781 4.6523 18
-17.125 21.9062 -0.32420000000000004 0
-4.7422 6.105499999999999 -1.3555000000000001 189
-5.417999999999999 6.9765999999999995 -1.3397999999999999 117
-46.2188 59.5 2.6289 91
-6.265599999999999 8.0625 -1.3075999999999999 242
-46.1562 59.4062 4.375 244
-7.4765999999999995 9.625 -1.2764 189
-18.7812 24.1875 2.498 205
-9.0078 11.601600000000001 -1.1963 199
-19.4375 25.0156 3.3242000000000003 31
-11.1719 14.3828 -1.0576 236
-18.8125 24.2188 3.9395 210
-14.851600000000001 19.1094 -0.8432999999999999 159
-18.6875 24.0469 4.6367 9
-16.9844 21.875 -0.32299999999999995 43
-4.7188 6.1211 -1.3555000000000001 109
-5.390599999999999 6.9922 -1.3397999999999999 103
-6.2188 8.0703 -1.3047 187
-45.8125 59.4062 4.3633 29
-7.425800000000001 9.6328 -1.2744 223
-18.6406 24.1875 2.4902 152
-8.9688 11.6406 -1.1963 214
-19.2812 25.0 3.3145 31
-11.101600000000001 14.398399999999999 -1.0547 249
-18.7188 24.2812 3.9375 144
-14.781199999999998 19.1719 -0.8438 58
-17.9062 23.2344 4.4648 188
-16.875 21.8906 -0.3223 69
-4.6875 6.125 -1.3525 76
-5.359400000000001 7.0 -1.3378999999999999 48
-6.1914 8.0859 -1.3047 153
-45.4688 59.4062 4.3516 140
-7.390599999999999 9.6562 -1.2734 226
-18.5469 24.2344 2.4902 182
-8.9453 11.6875 -1.1982 243
-18.9688 24.7812 3.2754000000000003 35
-11.0625 14.4453 -1.0556999999999999 14
-17.625 23.0156 3.7226999999999997 119
-14.7422 19.2656 -0.8452 215
-17.7188 23.1562 4.4375 71
-16.7344 21.875 -0.32130000000000003 14
-4.6641 6.140599999999999 -1.3525 29
-5.3203 7.0 -1.334 91
-6.167999999999999 8.1172 -1.3056999999999999 140
-45.125 59.4062 4.3398 77
-7.3438 9.6641 -1.2715 186
-18.4688 24.2969 2.4902 5
-8.8906 11.7031 -1.1973 187
-18.9219 24.8906 3.2812 238
-11.0 14.468800000000002 -1.0547 1
-17.5312 23.0781 3.7226999999999997 41
-14.648399999999999 19.2812 -0.8438 220
-17.5938 23.1562 4.4258 194
-16.6094 21.8594 -0.32030000000000003 35
-4.6484 6.1640999999999995 -1.3535 165
-5.296900000000001 7.0234000000000005 -1.335 219
-6.125 8.1172 -1.3027000000000002 14
-44.8125 59.4375 4.3281 72
-7.3164 9.6953 -1.2725 40
-18.2188 24.1562 2.4688 237
-8.8516 11.7344 -1.1963 97
-18.9219 25.0938 3.2988 222
-10.960899999999999 14.523399999999999 -1.0556999999999999 134
-17.8594 23.6719 3.8105 69
-14.5625 19.2969 -0.8423 7
-17.5938 23.3281 4.4492 130
-16.5 21.875 -0.3196 178
-4.6172 6.1640999999999995 -1.3506 225
-5.2773 7.046900000000001 -1.3359 136
-6.078099999999999 8.1172 -1.2988 146
-44.5 59.4062 4.3164 30
-7.269500000000001 9.7031 -1.2695 145
-44.4062 59.3125 6.050800000000001 243
-8.7812 11.726600000000001 -1.1934 45
-18.875 25.2188 3.3066000000000004 80
-10.8906 14.539100000000001 -1.0537 10
-17.8125 23.7812 3.8164 86
-14.539100000000001 19.4219 -0.8452 87
-17.9062 23.9062 4.5469 67
-16.375 21.8594 -0.3186 216
-4.5898 6.175800000000001 -1.3496000000000001 42
-5.25 7.0625 -1.335 101
-6.050800000000001 8.1406 -1.2988 66
-44.1562 59.375 4.3008 107
-7.230499999999999 9.7266 -1.2686 55
-44.125 59.3438 6.0352 35
-8.75 11.773399999999999 -1.1943000000000001 14
-17.8438 24.0 3.1387 240
-10.851600000000001 14.601600000000001 -1.0556999999999999 210
-17.75 23.8906 3.8223000000000003 252
-14.523399999999999 19.5312 -0.8481000000000001 239
-17.9219 24.0938 4.5703 213
-16.2344 21.8438 -0.31739999999999996 225
-4.5703 6.1914 -1.3496000000000001 84
-5.2148 7.0625 -1.3319999999999999 198
-21.3281 28.875 1.252 122
-6.019500000000001 8.1562 -1.2988 94
-43.8438 59.375 4.293 72
-7.1875 9.7344 -1.2666 185
-43.7812 59.2812 6.015599999999999 52
-8.7109 11.7969 -1.1943000000000001 111
-17.4844 23.6719 3.0879000000000003 184
-10.7969 14.625 -1.0547 253
-18.25 24.7188 3.9473000000000003 77
-14.4375 19.5469 -0.8472 136
-16.1406 21.8594 -0.3169 150
-4.5508 6.203099999999999 -1.3496000000000001 204
-5.175800000000001 7.0586 -1.3281 7
-21.1406 28.8281 1.2461 80
-5.988300000000001 8.1641 -1.2969 210
-43.5312 59.375 4.2812 160
-7.1484000000000005 9.75 -1.2656 63
-43.4062 59.2188 5.9961 80
-8.6641 11.8125 -1.1924 0
-17.3125 23.6094 3.0723000000000003 18
-10.7578 14.6719 -1.0556999999999999 131
-18.25 24.8906 3.9648000000000003 228
-14.375 19.6094 -0.8472 184
-17.9062 24.4219 4.6133 38
-16.0 21.8125 -0.3154 159
-4.5234 6.2188 -1.3486000000000002 57
-5.1562 7.0859000000000005 -1.3291 32
-20.9531 28.7969 1.2422 36
-5.9414 8.1641 -1.2938999999999998 104
-43.1875 59.375 4.2695 229
-7.113300000000001 9.7734 -1.2656 73
-17.8594 24.5625 2.4766 77
-8.6172 11.843800000000002 -1.1924 97
-17.2656 23.7344 3.0801 0
-10.718800000000002 14.7344 -1.0576 2
-18.1719 24.9844 3.9688 203
-14.3203 19.6719 -0.8481000000000001 248
-17.8594 24.5469 4.6211 136
-15.8906 21.8438 -0.31489999999999996 54
-4.4922 6.2188 -1.3457 228
-5.125 7.0938 -1.3281 98
-20.7812 28.7812 1.2373 249
-5.9102 8.1875 -1.2930000000000001 95
-42.875 59.3438 4.2578 237
-7.0625 9.7812 -1.2627 230
-17.7812 24.6094 2.4766 81
-8.5547 11.843800000000002 -1.1895 152
-17.2031 23.8281 3.0839999999999996 79
-10.656199999999998 14.75 -1.0556999999999999 192
-18.3594 25.4062 4.0273 24
-14.25 19.7344 -0.8481000000000001 206
-17.7969 24.6406 4.6289 207
-15.843800000000002 21.9375 -0.3157 161
-4.4609 6.2227 -1.3428 224
-5.1055 7.1211 -1.3291 132
-20.6562 28.8125 1.2363 248
-5.8828 8.2031 -1.2930000000000001 59
-42.5312 59.3438 4.2461 40
-7.0078 9.7734 -1.2598 104
-18.7188 26.1094 2.6211 191
-8.5156 11.875 -1.1895 22
-17.1094 23.8594 3.0801 78
-10.601600000000001 14.781199999999998 -1.0556999999999999 55
-17.3906 24.2656 3.8339999999999996 83
-14.1953 19.7969 -0.8486 207
-17.6719 24.6562 4.6172 3
-15.6875 21.875 -0.314 227
-4.4414 6.2422 -1.3437999999999999 105
-5.0664 7.1211 -1.3262 210
-20.6094 28.9531 1.2393 242
-5.8477 8.2188 -1.2919999999999998 190
-42.2188 59.3438 4.2344 46
-6.980499999999999 9.8047 -1.2607 147
-18.5312 26.0469 2.6074 36
-8.4766 11.914100000000001 -1.1904000000000001 200
-17.5 24.5781 3.1660000000000004 210
-10.5469 14.8203 -1.0556999999999999 111
-17.1094 24.0469 3.7910000000000004 207
-14.156199999999998 19.8906 -0.8506 208
-17.4531 24.5312 4.582 157
-15.5469 21.8438 -0.3127 168
-4.4219 6.2578 -1.3437999999999999 30
-5.043 7.136699999999999 -1.3262 11
-20.5156 29.0312 1.2393 42
-5.8164 8.2344 -1.291 207
-41.9062 59.3125 4.2227 75
-6.921900000000001 9.7969 -1.2559 124
-41.8438 59.2188 5.917999999999999 136
-8.4375 11.9375 -1.1904000000000001 154
-17.2031 24.3438 3.1289 69
-10.5156 14.8828 -1.0576 137
-17.0938 24.2031 3.8066000000000004 30
-14.031199999999998 19.8594 -0.8472 160
-17.1562 24.2812 4.5273 179
-15.476600000000001 21.9062 -0.3127 160
-4.3984 6.2734000000000005 -1.3437999999999999 99
-5.0039 7.136699999999999 -1.3222999999999998 133
-20.4219 29.125 1.2402 192
-5.7852 8.25 -1.291 121
-41.5938 59.3438 4.2148 95
-6.890599999999999 9.8281 -1.2568000000000001 5
-41.5312 59.2188 5.9062 136
-8.3672 11.9297 -1.1865 244
-17.1406 24.4375 3.1327999999999996 203
-10.4297 14.875 -1.0547 182
-14.039100000000001 20.0156 -0.8521 104
-17.0312 24.2969 4.5156 209
-4.3672 6.2734000000000005 -1.3397999999999999 149
-4.9922 7.167999999999999 -1.3252000000000002 207
-20.3594 29.2344 1.2422 72
-5.7539 8.2578 -1.2891 230
-41.3125 59.3438 4.2031 35
-6.863300000000001 9.8594 -1.2578 227
-18.5938 26.7031 2.6543 230
-8.3281 11.9531 -1.1865 129
-17.0312 24.4531 3.127 175
-10.406199999999998 14.9453 -1.0576 45
-16.3594 23.5 3.6776999999999997 231
-13.976600000000001 20.0625 -0.8521 243
-16.9219 24.2969 4.5078 235
-15.156199999999998 21.7656 -0.3093 36
-4.3398 6.2773 -1.3378999999999999 254
-4.957 7.171900000000001 -1.3222999999999998 111
-20.3438 29.4219 1.2470999999999999 43
-5.7227 8.2734 -1.2891 82
-6.824199999999999 9.8672 -1.2568000000000001 126
-17.9375 25.9375 2.5723000000000003 66
-8.2891 11.9922 -1.1875 59
-16.9844 24.5625 3.1327999999999996 55
-10.3594 14.9844 -1.0576 156
-16.375 23.6875 3.6992000000000003 178
-13.906199999999998 20.1094 -0.8521 248
-16.8594 24.3906 4.5156 120
-15.0703 21.7969 -0.30879999999999996 147
-16.5156 23.8906 5.1133 169
-4.3164 6.2890999999999995 -1.3378999999999999 76
-4.9336 7.1914 -1.3232 10
-20.2969 29.5781 1.251 246
-5.6875 8.2891 -1.2881 82
-40.6562 59.2812 4.1797 212
-6.761699999999999 9.8594 -1.252 173
-17.7812 25.9219 2.5645 153
-8.25 12.031199999999998 -1.1875 76
-16.9688 24.75 3.1483999999999996 4
-10.289100000000001 15.0 -1.0556999999999999 201
-16.3281 23.7969 3.707 164
-13.8672 20.2188 -0.8540000000000001 156
-14.968800000000002 21.8281 -0.3086 164
-16.4375 23.9688 5.1172 46
-4.2969 6.3086 -1.3378999999999999 16
-4.9023 7.199199999999999 -1.3213 95
-20.25 29.7344 1.2539 51
-5.6602 8.3125 -1.2881 60
-40.375 59.3125 4.1719 81
-6.738300000000001 9.8906 -1.2539 40
-17.7188 26.0312 2.5683999999999996 41
-8.1953 12.039100000000001 -1.1855 245
-16.9062 24.8281 3.1523000000000003 38
-10.25 15.0625 -1.0576 128
-16.3281 23.9688 3.7245999999999997 143
-13.8047 20.2812 -0.855 30
-16.5938 24.375 4.4922 133
-14.8672 21.8438 -0.3081 166
-16.2969 23.9219 5.0977 192
-4.2734 6.324199999999999 -1.3378999999999999 39
-4.875 7.207000000000001 -1.3203 37
-20.1719 29.8438 1.2559 27
-5.6211 8.3125 -1.2852000000000001 160
-16.8438 24.9219 1.7471 238
-6.7188 9.9375 -1.2559 160
-17.6562 26.1094 2.5723000000000003 193
-8.1641 12.0781 -1.1865 3
-16.4219 24.2969 3.0781 161
-10.2031 15.093800000000002 -1.0576 88
-15.9375 23.5781 3.6562 63
-13.7422 20.3281 -0.855 190
-15.8047 23.375 4.2969 161
-14.7656 21.8438 -0.3074 244
-16.3125 24.1406 5.1289 63
-4.2461 6.328099999999999 -1.3359 113
-4.8477 7.2265999999999995 -1.3203 167
-20.1562 30.0312 1.2617 183
-5.578099999999999 8.3125 -1.2822 31
-16.7188 24.9062 1.7422 187
-6.675800000000001 9.9453 -1.2549 26
-17.5156 26.0938 2.5625 121
-8.125 12.101600000000001 -1.1865 196
-15.4844 23.0625 2.9160000000000004 225
-10.1484 15.125 -1.0576 183
-15.8672 23.6406 3.6562 19
-13.6875 20.3906 -0.8554999999999999 181
-15.710899999999999 23.4062 4.293 103
-14.6719 21.8594 -0.3069 38
-16.3125 24.2969 5.1523 222
-4.2148 6.328099999999999 -1.3330000000000002 163
-4.8242 7.2422 -1.3203 117
-20.1562 30.25 1.2676 86
-5.550800000000001 8.3359 -1.2822 144
-16.6094 24.9375 1.7412 94
-6.6289 9.9531 -1.2529000000000001 146
-17.4062 26.125 2.5605 134
-8.0625 12.1094 -1.1845999999999999 123
-15.3906 23.1094 2.9141000000000004 20
-10.0703 15.125 -1.0547 232
-16.125 24.2188 3.7363 6
-13.5156 20.2969 -0.8495999999999999 7
-15.6172 23.4531 4.2891 93
-14.593800000000002 21.9219 -0.3071 61
-16.3125 24.5 5.1836 15
-4.1953 6.3477 -1.334 159
-4.7969 7.2578 -1.3193000000000001 52
-5.5312 8.3672 -1.2841999999999998 16
-16.5312 25.0156 1.7422 16
-6.5898 9.9688 -1.251 141
-17.3438 26.25 2.5664 197
-8.0312 12.156199999999998 -1.1865 18
-15.2969 23.1562 2.9120999999999997 84
-10.0547 15.210899999999999 -1.0586 79
-16.7812 25.375 3.9082 181
-13.4844 20.4062 -0.8521 215
-15.4375 23.3594 4.2617 193
-14.5469 22.0156 -0.30760000000000004 57
-14.898399999999999 22.5469 4.7578 22
-4.1719 6.359400000000001 -1.334 244
-4.7539 7.2461 -1.3144999999999998 234
-5.4922 8.375 -1.2832 194
-6.5547 9.9922 -1.252 196
-16.3594 24.9375 2.4316 36
-7.9727 12.156199999999998 -1.1836 80
-15.226600000000001 23.2188 2.9141000000000004 251
-9.9922 15.2344 -1.0576 125
-16.75 25.5312 3.9238 50
-13.414100000000001 20.4531 -0.8521 179
-15.3672 23.4219 4.2656 228
-14.5 22.1094 -0.30829999999999996 198
-16.2344 24.75 5.2109000000000005 87
-4.1484 6.375 -1.334 130
-19.8438 30.4844 0.4243 254
-4.7266 7.2578 -1.3144999999999998 63
-5.453099999999999 8.3828 -1.2803 130
-16.2188 24.9219 1.7275 160
-6.519500000000001 10.0156 -1.251 40
-16.25 24.9531 2.4297 14
-7.917999999999999 12.164100000000001 -1.1816 39
-15.1328 23.25 2.9101999999999997 77
-9.9688 15.3125 -1.0605 89
-17.2188 26.4531 4.0547 230
-13.398399999999999 20.5781 -0.8554999999999999 16
-14.656199999999998 22.5156 4.0898 44
-14.4922 22.2656 -0.3098 147
-14.875 22.8438 4.8008 46
-4.1211 6.3789 -1.3319999999999999 99
-19.7812 30.6094 0.4253 50
-4.707 7.2852 -1.3163999999999998 176
-5.417999999999999 8.3828 -1.2783 239
-16.125 24.9531 1.7256 164
-6.488300000000001 10.0391 -1.252 230
-15.4453 23.9062 2.3203 153
-7.8672 12.1719 -1.1806999999999999 111
-15.1094 23.375 2.9219 201
-9.9062 15.3281 -1.0595999999999999 3
-17.0625 26.4062 4.0391 25
-13.343800000000002 20.6406 -0.8564 110
-15.1172 23.4062 4.2422 8
-14.460899999999999 22.375 -0.3105 47
-14.6797 22.7188 4.7617 210
-4.0938 6.3828 -1.3300999999999998 232
-19.7344 30.7656 0.4265 99
-4.6797 7.296900000000001 -1.3154 63
-5.386699999999999 8.3984 -1.2773 139
-16.125 25.1406 1.7344 64
-6.4375 10.0312 -1.248 72
-15.3594 23.9375 2.3203 150
-7.828099999999999 12.2031 -1.1806999999999999 75
-15.8203 24.6562 3.0762 161
-9.8516 15.3594 -1.0586 18
-15.1406 23.6094 3.6016000000000004 74
-13.2578 20.6719 -0.8554999999999999 222
-15.0781 23.5156 4.2539 239
-14.460899999999999 22.5469 -0.3123 205
-14.5625 22.7031 4.75 43
-4.0703 6.3984000000000005 -1.3300999999999998 82
-19.6562 30.9062 0.4275 216
-4.6562 7.3164 -1.3154 173
-15.875 24.9375 1.0303 84
-5.3515999999999995 8.4141 -1.2773 163
-15.664100000000001 24.625 1.6953 254
-6.4062 10.0703 -1.25 0
-17.4844 27.4844 2.6582 84
-7.796900000000001 12.25 -1.1826 43
-16.3594 25.7188 3.1992000000000003 166
-9.8125 15.4219 -1.0605 90
-16.75 26.3281 4.0078 67
-13.1953 20.7344 -0.8564 213
-14.6797 23.0625 4.1641 12
-14.4453 22.6875 -0.31370000000000003 78
-14.4922 22.7812 4.7539 40
-4.0547 6.421900000000001 -1.3319999999999999 240
-15.726600000000001 24.9062 0.3435 97
-4.6172 7.3125 -1.3125 169
-15.6797 24.8281 1.0234 92
-5.328099999999999 8.4375 -1.2783 36
-15.539100000000001 24.6094 1.6913999999999998 117
-6.3672 10.0781 -1.248 239
-14.875 23.5625 2.2715 8
-7.7227 12.2344 -1.1777 53
-14.718800000000002 23.3125 2.8926 152
-9.7656 15.468800000000002 -1.0615 68
-14.8828 23.5625 3.5801 145
-13.101600000000001 20.75 -0.8554999999999999 133
-14.1953 22.4844 4.0469 176
-14.4375 22.875 -0.3154 236
-14.5 22.9531 4.7812 160
-4.0312 6.4375 -1.3319999999999999 172
-15.593800000000002 24.9062 0.3428 254
-4.5938 7.3359000000000005 -1.3135 245
-15.5703 24.8594 1.0225 87
-5.2812 8.4297 -1.2744 248
-6.3203 10.0938 -1.2470999999999999 129
-14.718800000000002 23.5 2.2617 210
-7.671900000000001 12.25 -1.1768 113
-14.656199999999998 23.4062 2.8983999999999996 77
-9.7109 15.5 -1.0615 80
-14.8047 23.6406 3.582 209
-13.0469 20.8281 -0.8564 46
-14.1875 22.6562 4.0703 76
-14.460899999999999 23.0781 -0.3176 246
-14.5703 23.2656 4.832 237
-3.9961 6.4297 -1.3271000000000002 15
-15.601600000000001 25.1094 0.3447 242
-4.5664 7.3477 -1.3125 119
-15.539100000000001 25.0156 1.0264 36
-5.2422 8.4375 -1.2725 111
-36.8125 59.25 4.0547 32
-6.2773 10.1016 -1.2451 157
-14.710899999999999 23.6719 2.2734 35
-7.6289 12.281199999999998 -1.1768 170
-14.656199999999998 23.5781 2.9120999999999997 23
-9.6406 15.5078 -1.0595999999999999 52
-15.625 25.1406 3.8026999999999997 155
-14.164100000000001 22.7969 4.0859 63
-15.593800000000002 25.0938 -0.3447 30
-14.343800000000002 23.0781 4.7852 229
-3.9745999999999997 6.4414 -1.3271000000000002 11
-19.5156 31.625 0.4336 199
-4.5312 7.3398 -1.3086000000000002 20
-5.2148 8.4531 -1.2715 97
-6.2422 10.1094 -1.2441 111
-14.6953 23.8125 2.2812 183
-7.6015999999999995 12.3125 -1.1787 249
-14.7969 23.9844 2.957 225
-9.5625 15.5 -1.0576 4
-15.5781 25.25 3.8105 191
-14.0547 22.7656 4.0742 179
-14.414100000000001 23.3594 4.832 239
-3.9512 6.449199999999999 -1.3262 44
-19.4844 31.8125 0.4353 27
-4.5078 7.359400000000001 -1.3096 204
-5.1836 8.4609 -1.2715 179
-36.25 59.1875 4.0352 144
-6.203099999999999 10.125 -1.2431999999999999 181
-14.6406 23.9062 2.2852 12
-7.5390999999999995 12.3047 -1.1748 3
-14.718800000000002 24.0312 2.957 9
-9.5312 15.5547 -1.0586 108
-15.4219 25.1719 3.793 167
-13.9844 22.8281 4.0742 134
-14.164100000000001 23.125 4.7734 189
-3.9276999999999997 6.4688 -1.3271000000000002 97
-4.4766 7.375 -1.3086000000000002 62
-5.1484000000000005 8.4766 -1.2705 160
-15.3281 25.25 1.7158000000000002 108
-6.1523 10.1406 -1.2422 121
-16.5312 27.2344 2.5976999999999997 98
-7.5 12.351600000000001 -1.1768 35
-14.2969 23.5469 2.8906 221
-9.4766 15.6094 -1.0595999999999999 140
-15.4531 25.4531 3.8242000000000003 204
-12.843800000000002 21.1562 -0.8628 197
-13.9453 22.9688 4.0898 243
-14.25 23.4688 4.8359 103
-3.9082 6.4922 -1.3291 147
-19.4062 32.2188 0.439 127
-4.4414 7.3789 -1.3066 13
-5.1055 8.4766 -1.2676 122
-15.1797 25.2188 1.71 19
-6.1289 10.1797 -1.2441 199
-16.5781 27.5312 2.6211 224
-7.4414 12.3594 -1.1748 191
-14.1953 23.5781 2.8887 25
-9.4375 15.6797 -1.0625 7
-14.2422 23.6562 3.5449 37
-13.8203 22.9531 4.0781 218
-14.1172 23.4531 4.8203 184
-3.8789 6.4922 -1.3262 250
-19.3594 32.4062 0.4404 240
-4.4219 7.4023 -1.3086000000000002 155
-5.0781 8.5 -1.2676 220
-14.093800000000002 23.5781 1.5957 15
-6.0703 10.1562 -1.2393 193
-7.3984000000000005 12.3828 -1.1748 225
-14.125 23.6406 2.8887 191
-9.3438 15.6406 -1.0576 7
-14.156199999999998 23.7031 3.5449 170
-12.6953 21.25 -0.8628 72
-13.75 23.0156 4.082 9
-13.9453 23.3438 4.7852 85
-3.8398000000000003 6.480499999999999 -1.3203 182
-19.3125 32.5938 0.4421 105
-4.4062 7.4297 -1.3105000000000002 222
-5.0391 8.5 -1.2656 242
-6.0234000000000005 10.1641 -1.2373 68
-14.101600000000001 23.7969 2.2559 69
-7.3438 12.3906 -1.1729 238
-16.0625 27.0938 3.3066000000000004 3
-9.3125 15.710899999999999 -1.0595999999999999 79
-15.0781 25.4375 3.7988 170
-12.726600000000001 21.4688 -0.8695999999999999 183
-13.6953 23.0938 4.0859 26
-14.0078 23.625 4.8359 132
-3.8281 6.5039 -1.3232 47
-4.3633 7.4140999999999995 -1.3056999999999999 103
-5.0039 8.5 -1.2637 28
-14.0703 23.9062 1.6113 16
-6.0 10.1953 -1.2393 151
-7.300800000000001 12.406199999999998 -1.1719 16
-15.5 26.3438 3.2089999999999996 91
-9.2578 15.7422 -1.0595999999999999 5
-15.1328 25.7188 3.8339999999999996 167
-12.664100000000001 21.5312 -0.8706 217
-13.5 22.9375 4.0508 54
-13.960899999999999 23.7188 4.8477 29
-3.8066000000000004 6.519500000000001 -1.3232 55
-4.3359 7.425800000000001 -1.3047 192
-4.9805 8.5312 -1.2646 109
-14.0781 24.1094 1.6221 106
-5.957000000000001 10.2031 -1.2363 232
-14.085899999999999 24.125 2.2773 56
-7.2578 12.4297 -1.1719 92
-15.3906 26.3594 3.2031 144
-9.1875 15.7422 -1.0576 15
-13.726600000000001 23.5156 3.4961 145
-13.398399999999999 22.9531 4.0469 222
-14.1172 24.1719 -0.3264 133
-13.4375 23.0156 4.6914 75
-3.7851999999999997 6.5352 -1.3241999999999998 145
-4.3125 7.449199999999999 -1.3056999999999999 45
-4.9375 8.5234 -1.2617 159
-14.085899999999999 24.3125 1.6318000000000001 204
-5.917999999999999 10.2188 -1.2363 134
-7.207000000000001 12.4453 -1.1709 31
-15.4531 26.6719 3.2363 236
-9.1328 15.7656 -1.0576 80
-15.1875 26.2188 3.8926 46
-12.4844 21.5469 -0.8682 202
-13.2656 22.9062 4.0273 113
-13.3594 23.0625 4.6914 25
-3.7558999999999996 6.5352 -1.3213 208
-4.293 7.4688 -1.3066 226
-4.9062 8.5391 -1.2607 68
-5.8789 10.2266 -1.2354 203
-7.167999999999999 12.468800000000002 -1.1709 248
-15.4375 26.8594 3.25 71
-9.0625 15.7578 -1.0547 239
-14.593800000000002 25.3906 3.7617000000000003 150
-12.539100000000001 21.8125 -0.8765000000000001 243
-13.601600000000001 23.6719 4.1562 22
-13.0703 22.7344 4.6172 201
-3.7207 6.5312 -1.3184 48
-4.2695 7.4922 -1.3086000000000002 29
-4.8633 8.5312 -1.2578 9
-5.828099999999999 10.2266 -1.2324 112
-14.664100000000001 25.7344 2.416 124
-7.105499999999999 12.476600000000001 -1.1689 32
-14.976600000000001 26.2969 3.1757999999999997 80
-9.0 15.8047 -1.0556999999999999 165
-14.4297 25.3281 3.7441000000000004 186
-12.4531 21.8594 -0.8765000000000001 157
-13.585899999999999 23.8594 4.1797 16
-12.9922 22.8125 4.6211 46
-3.7012 6.550800000000001 -1.3193000000000001 160
-4.2305 7.484400000000001 -1.3047 209
-33.4688 59.25 2.375 8
-4.8359 8.5547 -1.2588 120
-33.4062 59.0938 3.9473000000000003 44
-5.7852 10.2344 -1.2305 212
-14.5703 25.7812 2.416 251
-7.0625 12.4922 -1.1689 63
-14.8828 26.3438 3.1757999999999997 241
-8.9453 15.835899999999999 -1.0556999999999999 43
-14.5 25.6562 3.7851999999999997 248
-13.460899999999999 23.8281 4.168 12
-12.960899999999999 22.9375 4.6367 149
-3.6875 6.578099999999999 -1.3222999999999998 229
-4.1875 7.4648 -1.2988 230
-4.8008 8.5625 -1.2578 245
-33.125 59.0938 3.9395 121
-5.75 10.2578 -1.2314 123
-7.015599999999999 12.5078 -1.168 167
-14.7422 26.2969 3.1641000000000004 119
-8.8906 15.8594 -1.0547 6
-14.343800000000002 25.5781 3.7676 23
-13.3125 23.75 4.1445 227
-12.851600000000001 22.9219 4.625 223
-3.6641000000000004 6.5859000000000005 -1.3213 129
-4.1719 7.5 -1.3027000000000002 250
-4.7695 8.5781 -1.2568000000000001 139
-32.9062 59.1562 3.9355 23
-5.7109000000000005 10.2656 -1.2295 231
-14.5625 26.1719 2.4434 77
-6.9648 12.523399999999999 -1.167 154
-14.718800000000002 26.4531 3.1776999999999997 218
-8.8359 15.875 -1.0547 225
-14.210899999999999 25.5469 3.7558999999999996 35
-12.226600000000001 21.9844 -0.8765000000000001 230
-13.2422 23.7969 4.1445 250
-13.773399999999999 24.75 4.9883 131
-3.6327999999999996 6.5859000000000005 -1.3184 40
-4.1484 7.519500000000001 -1.3027000000000002 118
-4.7344 8.5781 -1.2549 188
-32.625 59.0938 3.9257999999999997 143
-5.671900000000001 10.281199999999998 -1.2295 60
-14.5078 26.2969 2.4492 43
-6.917999999999999 12.539100000000001 -1.166 54
-14.125 25.5938 3.0683999999999996 28
-8.7578 15.875 -1.0527 57
-14.085899999999999 25.5312 3.7441000000000004 173
-13.1953 23.9062 4.1562 71
-12.8203 23.2344 4.6719 91
-3.6074 6.5898 -1.3174000000000001 231
-4.1289 7.542999999999999 -1.3047 50
-4.6992 8.5781 -1.2529000000000001 55
-32.3438 59.0938 3.9160000000000004 155
-5.6328 10.289100000000001 -1.2275 193
-6.8828 12.5703 -1.167 59
-14.1094 25.7656 3.0839999999999996 164
-8.7188 15.9219 -1.0537 206
-13.898399999999999 25.375 3.7168 64
-12.125 22.1562 -0.8798999999999999 182
-13.0547 23.8438 4.1406 79
-13.1172 23.9531 4.8086 38
-3.582 6.6015999999999995 -1.3163999999999998 122
-4.0859 7.5312 -1.2997999999999998 201
-4.6758 8.6172 -1.2559 151
-32.0625 59.0938 3.9101999999999997 109
-5.5898 10.2969 -1.2266 161
-6.824199999999999 12.5781 -1.165 148
-8.6641 15.9531 -1.0537 235
-13.7578 25.3594 3.7051 148
-12.0469 22.2031 -0.8798999999999999 145
-13.0 23.9531 4.1523 33
-12.9922 23.9375 4.793 253
-3.5664 6.6289 -1.3193000000000001 226
-4.0547 7.5352 -1.2978999999999998 230
-4.6445 8.6328 -1.2549 185
-31.7969 59.0625 3.9004000000000003 223
-5.550800000000001 10.3125 -1.2266 48
-14.6875 27.2969 2.5273 127
-6.7812 12.593800000000002 -1.165 173
-13.648399999999999 25.3594 3.0233999999999996 102
-8.6016 15.976600000000001 -1.0527 178
-13.7344 25.5156 3.7207 8
-12.968800000000002 24.0938 4.1641 33
-12.9297 24.0156 4.8008 219
-3.5410000000000004 6.636699999999999 -1.3193000000000001 195
-4.0234 7.5352 -1.2959 223
-4.6094 8.6328 -1.2529000000000001 79
-31.5 59.0312 3.8906 203
-5.519500000000001 10.343800000000002 -1.2275 174
-14.6328 27.4062 2.5352 224
-6.7461 12.6406 -1.166 238
-13.5625 25.4219 3.0233999999999996 74
-8.5469 16.0156 -1.0537 108
-13.656199999999998 25.5938 3.7245999999999997 233
-14.039100000000001 26.3125 4.5391 130
-3.5156 6.644500000000001 -1.3184 68
-3.9961 7.550800000000001 -1.2959 92
-4.5781 8.6484 -1.2529000000000001 221
-31.25 59.0625 3.8848000000000003 89
-5.4765999999999995 10.351600000000001 -1.2266 98
-6.6836 12.625 -1.1631 193
-13.523399999999999 25.5469 3.0351999999999997 104
-8.4844 16.0312 -1.0527 65
-13.7031 25.8906 3.7637 207
-13.593800000000002 25.6875 4.4258 255
-12.875 24.3281 -0.321 236
-3.4824 6.636699999999999 -1.3144999999999998 168
-3.9707 7.5664 -1.2959 11
-4.543 8.6562 -1.252 225
-30.9844 59.0312 3.877 71
-5.425800000000001 10.335899999999999 -1.2227 166
-6.640599999999999 12.648399999999999 -1.1631 255
-13.835899999999999 26.3594 3.125 202
-8.4219 16.0469 -1.0518 144
-13.6172 25.9375 3.7637 112
-13.351600000000001 25.4375 4.375 230
-3.4648000000000003 6.6562 -1.3154 217
-3.9414 7.574199999999999 -1.2959 126
-4.5078 8.6641 -1.251 82
-30.7344 59.0625 3.8711 247
-5.390599999999999 10.3594 -1.2227 111
-6.5938 12.6719 -1.1631 92
-13.7422 26.4062 3.125 44
-8.375 16.0938 -1.0527 103
-13.4922 25.9219 3.7539 56
-13.218800000000002 25.4062 4.3594 101
-12.656199999999998 24.3281 -0.31980000000000003 115
-3.4433999999999996 6.671900000000001 -1.3163999999999998 68
-3.9062 7.5664 -1.2919999999999998 28
-4.4883 8.6953 -1.2539 223
-30.4688 59.0312 3.8613 249
-5.3477 10.3594 -1.2207 14
-6.5312 12.656199999999998 -1.1592 129
-13.6328 26.4219 3.1211 115
-8.3203 16.125 -1.0527 175
-13.4453 26.0469 3.7637 137
-13.0 25.1875 4.3164 206
-12.5781 24.375 -0.31980000000000003 17
-13.3828 25.9375 5.136699999999999 101
-3.4257999999999997 6.6914 -1.3184 178
-3.8867000000000003 7.5898 -1.2938999999999998 8
-4.457 8.7109 -1.2529000000000001 25
-30.2344 59.0625 3.8594 9
-5.324199999999999 10.398399999999999 -1.2236 1
-6.488300000000001 12.6719 -1.1592 94
-12.8906 25.1875 2.9688 186
-8.2734 16.1562 -1.0527 182
-13.5078 26.3906 3.8086 39
-12.8906 25.1875 4.3086 119
-12.5625 24.5312 -0.3215 214
-13.2344 25.8594 5.1133 22
-3.3964999999999996 6.6953 -1.3163999999999998 144
-3.8495999999999997 7.5859000000000005 -1.291 191
-4.4219 8.7109 -1.251 255
-29.9375 59.0 3.8476999999999997 162
-5.269500000000001 10.3906 -1.2197 111
-6.4375 12.6875 -1.1582 122
-12.8281 25.2812 2.9766000000000004 28
-8.2109 16.1875 -1.0527 159
-13.2422 26.0938 3.7577999999999996 206
-12.7969 25.2188 4.3047 202
-13.1875 25.9844 5.1328 155
-3.3632999999999997 6.6875 -1.3125 96
-3.8202999999999996 7.5977 -1.29 55
-4.3867 8.7188 -1.25 93
-29.6719 59.0 3.8398000000000003 232
-5.2265999999999995 10.3906 -1.2178 74
-6.3789 12.6875 -1.1562000000000001 178
-13.4219 26.6875 3.1348000000000003 186
-8.125 16.1562 -1.0498 88
-12.8281 25.5 3.668 1
-12.7578 25.3594 4.3203 166
-13.0469 25.9375 5.1133 158
-3.3457 6.707000000000001 -1.3144999999999998 127
-3.7969 7.613300000000001 -1.291 108
-4.3672 8.7578 -1.2529000000000001 40
-29.4062 59.0 3.832 250
-5.1953 10.414100000000001 -1.2187999999999999 114
-6.3398 12.718800000000002 -1.1572 225
-12.4922 25.0469 2.9375 249
-8.0625 16.1719 -1.0488 64
-12.5703 25.2031 3.6172000000000004 43
-12.8203 25.7188 4.375 116
-12.968800000000002 26.0156 5.1172 243
-3.3202999999999996 6.7188 -1.3135 65
