# .PCD v0.7 - Point Cloud Data file format
VERSION 0.7
FIELDS x y z intensity
SIZE 4 4 4 4
TYPE F F F F
COUNT 1 1 1 1
WIDTH 1274
HEIGHT 1
VIEWPOINT 0 0 0 1 0 0 0
POINTS 1274
DATA ascii
-15.0703 -28.8594 2.6562 230
-4.1797 -8.0 -0.7334 157
-15.1094 -28.9219 3.4257999999999997 249
-15.1172 -28.9375 4.1953 213
-15.156199999999998 -29.0156 4.9844 96
-15.156199999999998 -29.0156 5.765599999999999 84
-13.226600000000001 -25.0938 0.3308 10
-13.1953 -25.0312 0.9863 117
-15.1719 -28.7812 1.8906 79
-15.218800000000002 -28.875 2.6620999999999997 170
-4.2266 -8.0156 -0.7363 156
-15.2422 -28.9219 3.4316000000000004 91
-4.0 -7.5898 -0.4963 105
-15.25 -28.9375 4.2031 199
-15.281199999999998 -28.9844 4.9922 226
-14.039100000000001 -26.6406 -0.3513 196
-15.289100000000001 -29.0 5.7734000000000005 71
-13.2031 -24.8438 0.3281 254
-2.8964999999999996 -5.449199999999999 -0.9346 6
-13.2031 -24.8281 0.9804999999999999 183
-15.2969 -28.7812 1.8936000000000002 254
-15.335899999999999 -28.8594 2.6660000000000004 31
-15.3672 -28.9062 3.4375 171
-4.0 -7.5273 -0.49340000000000006 250
-15.375 -28.9375 4.2109 53
-15.414100000000001 -29.0 5.0 236
-14.1719 -26.6562 -0.35229999999999995 187
-15.414100000000001 -29.0 5.7852 104
-13.1875 -24.6094 0.3257 202
-13.1875 -24.6094 0.9731000000000001 201
-15.4297 -28.7969 1.8975 191
-15.468800000000002 -28.8594 2.6699 39
-3.9473000000000003 -7.363300000000001 -0.6787000000000001 148
-15.5078 -28.9375 3.4452999999999996 139
-4.043 -7.542999999999999 -0.4951 142
-15.5 -28.9219 4.2148 252
-3.6895 -6.8828 -0.271 56
-15.539100000000001 -29.0 5.0117 12
-14.289100000000001 -26.6562 -0.3528 142
-15.5469 -29.0156 5.796900000000001 149
-13.1875 -24.3906 0.3232 188
-2.9297000000000004 -5.417999999999999 -0.9331 66
-13.1797 -24.3906 0.9662999999999999 199
-15.5625 -28.7969 1.9022999999999999 213
-15.593800000000002 -28.8438 2.6757999999999997 203
-3.9276999999999997 -7.265599999999999 -0.6709 94
-15.6328 -28.9219 3.4512 195
-4.0781 -7.546900000000001 -0.4963 190
-15.6328 -28.9219 4.2227 8
-15.664100000000001 -28.9844 5.0156 199
-14.406199999999998 -26.6562 -0.3533 27
-15.6797 -29.0156 5.8086 123
-13.1875 -24.2031 0.32130000000000003 47
-13.156199999999998 -24.1562 0.9590000000000001 20
-15.6875 -28.7969 1.9053 189
-15.718800000000002 -28.8438 2.6797000000000004 233
-3.9492000000000003 -7.25 -0.6709 150
-15.75 -28.9062 3.4551 69
-15.7578 -28.9219 4.2305 212
-3.7695 -6.921900000000001 -0.2734 103
-15.851600000000001 -29.1094 5.0469 210
-14.5078 -26.6406 -0.3538 14
-15.898399999999999 -29.1719 5.8515999999999995 73
-13.1719 -23.9844 0.3191 170
-2.9688 -5.4062 -0.9336 141
-13.156199999999998 -23.9531 0.9526 252
-15.8047 -28.7812 1.9082 105
-15.906199999999998 -28.9688 2.6952999999999996 229
-3.9707 -7.230499999999999 -0.6698999999999999 247
-15.8672 -28.9062 3.4608999999999996 202
-15.8828 -28.9219 4.2383 119
-15.968800000000002 -29.0781 5.0508 52
-14.6328 -26.6562 -0.3547 146
-16.0312 -29.2031 5.8672 41
-2.9433999999999996 -5.3125 -1.0635 146
-13.1797 -23.7812 0.3171 11
-3.0 -5.4140999999999995 -0.9375 63
-13.164100000000001 -23.7656 0.9468000000000001 188
-15.9453 -28.7656 1.9111000000000002 237
-16.0625 -28.9844 2.7031 102
-4.0156 -7.25 -0.6733 34
-16.0 -28.8906 3.4668 153
-4.0352 -7.2812 -0.4817 228
-16.0156 -28.9062 4.2461 207
-16.125 -29.0938 5.0664 218
-14.7578 -26.6406 -0.3552 10
-16.1719 -29.1719 5.875 115
-2.957 -5.292999999999999 -1.0615 35
-13.156199999999998 -23.5469 0.3145 68
-2.998 -5.3672 -0.9307 193
-13.156199999999998 -23.5625 0.9404 143
-16.0781 -28.7812 1.916 74
-16.1875 -28.9688 2.707 202
-4.0586 -7.261699999999999 -0.6758 66
-16.1406 -28.9062 3.4745999999999997 210
-4.0352 -7.2227 -0.4788 58
-16.1562 -28.9062 4.2539 99
-16.25 -29.0938 5.0742 235
-14.906199999999998 -26.6875 -0.3567 12
-16.3125 -29.2031 5.890599999999999 53
-3.0 -5.328099999999999 -1.0703 56
-13.148399999999999 -23.3594 0.3125 46
-2.9901999999999997 -5.3086 -0.9229 98
-13.148399999999999 -23.3594 0.9340999999999999 148
-16.2188 -28.7969 1.9199000000000002 146
-16.3125 -28.9688 2.7108999999999996 232
-16.2656 -28.9062 3.4824 33
-16.2812 -28.9062 4.2617 24
-16.4062 -29.1406 5.0938 239
-15.0156 -26.6719 -0.3569 88
-16.4531 -29.2344 5.9062 7
-3.0195 -5.324199999999999 -1.0713 241
-13.156199999999998 -23.1875 0.31079999999999997 167
-3.0273000000000003 -5.3359000000000005 -0.9287000000000001 236
-13.125 -23.1406 0.9272 184
-16.3438 -28.7969 1.9238 140
-16.4375 -28.9688 2.7168 43
-16.3906 -28.8906 3.4863 207
-16.4062 -28.9219 4.2695 115
-16.5781 -29.2344 5.1172 218
-13.093800000000002 -23.0781 -0.3093 4
-16.5625 -29.2031 5.9102 242
-3.0332 -5.296900000000001 -1.0693000000000001 150
-13.156199999999998 -22.9844 0.30879999999999996 231
-3.0683999999999996 -5.359400000000001 -0.9355 68
-13.148399999999999 -22.9688 0.9224 25
-16.4688 -28.7812 1.9268 103
-16.5312 -28.875 2.7148000000000003 36
-16.5312 -28.875 3.4941000000000004 140
-16.5469 -28.9062 4.2773 49
-16.7031 -29.1875 5.1211 26
-13.101600000000001 -22.8906 -0.30760000000000004 215
-16.7188 -29.2031 5.925800000000001 169
-3.0526999999999997 -5.2890999999999995 -1.0693000000000001 36
-13.1719 -22.8281 0.3074 171
-3.0839999999999996 -5.3438 -0.9340999999999999 17
-13.1406 -22.7656 0.9165000000000001 221
-16.5938 -28.75 1.9287 233
-16.7344 -28.9844 2.7305 55
-16.6562 -28.875 3.498 121
-16.6719 -28.8906 4.2852 36
-16.8438 -29.1719 5.1289 166
-16.8594 -29.2031 5.9375 106
-3.0801 -5.292999999999999 -1.0723 216
-3.1055 -5.3398 -0.9355 202
-13.1406 -22.5938 0.9111 68
-16.7344 -28.75 1.9325999999999999 63
-16.9062 -29.0469 2.7422000000000004 140
-16.7969 -28.875 3.5058999999999996 243
-16.7969 -28.8906 4.293 135
-16.9375 -29.1094 5.1289 185
-13.0781 -22.4688 -0.3032 101
-16.9375 -29.0938 5.9297 87
-3.1055 -5.296900000000001 -1.0752 159
-3.1289 -5.3359000000000005 -0.937 102
-13.1406 -22.4062 0.9053 250
-13.1406 -22.4062 1.5088 14
-16.9688 -28.9375 2.7363 254
-16.9375 -28.875 3.5137 194
-16.9375 -28.875 4.3008 146
-16.9844 -28.9531 5.1133 240
-13.1094 -22.3594 -0.302 30
-17.0 -28.9688 5.9140999999999995 140
-3.1211 -5.2812 -1.0742 45
-3.1660000000000004 -5.355499999999999 -0.9423999999999999 223
-13.125 -22.2031 0.8989 70
-13.125 -22.2188 1.4980000000000002 239
-17.0312 -28.8281 2.7305 33
-17.0625 -28.8594 3.5195 42
-17.0781 -28.9062 4.3125 135
-17.0938 -28.9375 5.1172 255
-13.148399999999999 -22.25 -0.3013 168
-17.125 -28.9688 5.925800000000001 188
-3.1464999999999996 -5.2852 -1.0771 103
-3.1895 -5.355499999999999 -0.9438 76
-13.125 -22.0469 0.894 79
-13.101600000000001 -22.0156 1.4883000000000002 220
-17.1719 -28.8281 2.7363 220
-17.1875 -28.8594 3.5254000000000003 86
-17.2031 -28.8906 4.3203 43
-17.2188 -28.9219 5.1289 196
-13.2578 -22.2656 -0.302 162
-17.25 -28.9688 5.9375 112
-3.2266000000000004 -5.3711 -0.9487000000000001 145
-13.125 -21.8594 0.8887 122
-13.093800000000002 -21.7969 1.4775 7
-17.3125 -28.8125 2.7422000000000004 33
-17.3281 -28.8594 3.5332 18
-17.3438 -28.875 4.3281 141
-17.375 -28.9219 5.140599999999999 105
-17.3906 -28.9531 5.949199999999999 52
-3.2363 -5.3477 -1.0947 220
-3.2363 -5.3477 -0.9462999999999999 44
-13.125 -21.6875 0.8833 13
-13.101600000000001 -21.6406 1.4687999999999999 28
-17.4375 -28.7969 2.7461 20
-17.4531 -28.8438 3.5391000000000004 93
-17.4688 -28.8594 4.3359 105
-17.5156 -28.9375 5.1523 0
-13.5 -22.2969 -0.304 32
-17.5312 -28.9531 5.9609000000000005 48
-3.2324 -5.296900000000001 -0.9399 90
-13.1172 -21.4844 0.8774 53
-13.101600000000001 -21.4844 1.4609 208
-17.5625 -28.7812 2.75 161
-17.6094 -28.8438 3.5469 201
-17.6094 -28.8594 4.3438 82
-17.6562 -28.9375 5.1602 141
-13.0703 -21.4219 -0.2925 249
-17.6719 -28.9531 5.9727 29
-3.2733999999999996 -5.324199999999999 -1.0947 128
-3.2441000000000004 -5.2773 -0.938 44
-13.093800000000002 -21.2969 0.8711 225
-13.101600000000001 -21.2969 1.4521000000000002 145
-17.7031 -28.7812 2.7577999999999996 213
-17.7344 -28.8438 3.5547000000000004 114
-17.75 -28.8594 4.3516 232
-17.7812 -28.9219 5.171900000000001 205
-13.0781 -21.2656 -0.29100000000000004 95
-17.8125 -28.9688 5.988300000000001 224
-3.2637 -5.269500000000001 -1.0859 48
-3.2441000000000004 -5.238300000000001 -0.9331 67
-13.093800000000002 -21.1406 0.8667 170
-13.093800000000002 -21.125 1.4434 135
-17.8438 -28.7969 2.7637 69
-17.875 -28.8438 3.5605 88
-17.8906 -28.875 4.3633 26
-17.9219 -28.9219 5.1836 140
-13.0703 -21.0938 -0.2893 241
-17.9375 -28.9531 6.0 250
-3.2539 -5.2148 -1.0762 232
-13.093800000000002 -20.9844 0.8618000000000001 203
-13.0781 -20.9531 1.4346 113
-17.9844 -28.8125 2.7695 237
-17.9844 -28.8281 3.5664 27
-18.0156 -28.8594 4.3711 14
-13.1094 -21.0 -0.8628 106
-18.0469 -28.9219 5.1914 154
-13.0703 -20.9531 -0.2878 121
-18.0625 -28.9531 6.011699999999999 112
-13.093800000000002 -20.8125 0.8569 70
-13.0781 -20.7812 1.4258000000000002 38
-18.1094 -28.7969 2.7754000000000003 73
-7.0352 -11.1797 1.3838 12
-18.1406 -28.8438 4.3789 8
-18.2031 -28.9219 5.203099999999999 42
-18.2188 -28.9375 6.0234000000000005 174
-3.3476999999999997 -5.2773 -1.0947 38
-3.3906 -5.3477 -0.9590000000000001 73
-13.0781 -20.625 0.8511 142
-13.085899999999999 -20.625 1.4188999999999998 107
-7.5078 -11.835899999999999 1.1416 145
-6.980499999999999 -11.0078 1.3662 108
-18.2969 -28.8438 4.3906 153
-18.3438 -28.9375 5.2188 215
-18.4844 -29.1562 6.078099999999999 240
-3.3887 -5.300800000000001 -1.1025 211
-3.4023000000000003 -5.324199999999999 -0.9565 15
-13.0781 -20.4688 0.8462000000000001 77
-7.8125 -12.226600000000001 0.8412999999999999 207
-7.5547 -11.8203 1.1426 105
-7.042999999999999 -11.023399999999999 1.3700999999999999 200
-18.6875 -29.25 4.4609 94
-18.7188 -29.2969 5.296900000000001 19
-18.7656 -29.3594 6.136699999999999 166
-3.4101999999999997 -5.292999999999999 -1.1025 232
-3.4608999999999996 -5.375 -0.9682999999999999 96
-13.0703 -20.2969 0.8412999999999999 171
-13.0625 -20.2812 1.4003999999999999 77
-7.574199999999999 -11.7578 1.1387 22
-7.0039 -10.875 1.3555000000000001 227
-18.8281 -29.2344 4.4688 97
-18.8594 -29.2969 5.3047 227
-18.8906 -29.3438 6.144500000000001 234
-3.4257999999999997 -5.2812 -1.1025 173
-3.4824 -5.3711 -0.9692000000000001 170
-13.0547 -20.125 0.8359000000000001 28
-6.9922 -10.781199999999998 0.7451000000000001 94
-7.078099999999999 -10.914100000000001 1.0586 5
-7.0586 -10.8828 1.3584 61
-18.9219 -29.1719 4.4648 0
-13.039100000000001 -20.0938 -0.835 48
-18.9844 -29.2812 5.3125 196
-12.9922 -20.0312 -0.2783 238
-19.0156 -29.3281 6.1562 114
-3.457 -5.292999999999999 -1.1074 216
-3.5176 -5.3828 -0.9741 131
-13.0625 -19.9844 0.8320000000000001 156
-7.019500000000001 -10.7422 0.7441 95
-7.050800000000001 -10.7969 1.0498 57
-7.6602 -11.726600000000001 1.4678 2
-7.199199999999999 -11.0156 1.6875 99
-13.0469 -19.9688 -0.8315 106
-19.125 -29.2812 5.328099999999999 138
-13.0078 -19.9062 -0.2771 79
-19.1562 -29.3125 6.167999999999999 45
-3.5469 -5.3828 -1.1289 157
-3.5391000000000004 -5.3711 -0.9741 193
-13.0547 -19.8125 0.8271 86
-7.0078 -10.6406 0.7387999999999999 4
-7.0352 -10.6797 1.041 128
-7.074199999999999 -10.7344 1.3466999999999998 47
-13.023399999999999 -19.7656 -1.375 184
-7.1836 -10.906199999999998 1.6738 35
-13.0156 -19.75 -0.8242 57
-19.2969 -29.2812 5.3398 43
-13.0078 -19.75 -0.2756 113
-19.2812 -29.2656 6.171900000000001 39
-13.0625 -19.6719 0.2754 67
-6.984400000000001 -10.523399999999999 0.43920000000000003 133
-7.050800000000001 -10.625 0.7393000000000001 180
-7.0039 -10.5469 1.0312000000000001 36
-7.1602 -10.789100000000001 1.3563999999999998 33
-13.031199999999998 -19.625 -1.3681999999999999 150
-7.1640999999999995 -10.789100000000001 1.6602000000000001 199
-19.2812 -29.0469 5.3086 232
-13.023399999999999 -19.6094 -0.27440000000000003 210
-19.2812 -29.0469 6.140599999999999 170
-13.0547 -19.5312 0.27390000000000003 48
-7.015599999999999 -10.5 0.43920000000000003 80
-7.0859000000000005 -10.601600000000001 0.7393000000000001 176
-7.015599999999999 -10.5 1.0273 45
-7.2109000000000005 -10.789100000000001 1.3594 200
-13.023399999999999 -19.4844 -1.3613 102
-7.1797 -10.7422 1.6562000000000001 161
-13.023399999999999 -19.4844 -0.8169 74
-19.3125 -28.9062 5.292999999999999 208
-13.0078 -19.4531 -0.2727 43
-19.3438 -28.9375 6.1289 5
-13.031199999999998 -19.3594 0.272 155
-7.0625 -10.4922 0.4399 196
-7.105499999999999 -10.5547 0.7378 7
-7.046900000000001 -10.468800000000002 1.0273 181
-7.4414 -11.0547 1.3955000000000002 231
-12.9922 -19.2969 -1.3506 32
-7.0352 -10.4453 1.6143 34
-13.0078 -19.3125 -0.8115000000000001 125
-6.863300000000001 -10.1953 1.8672 112
-13.0078 -19.3125 -0.27149999999999996 90
-19.4688 -28.9219 6.140599999999999 111
-13.039100000000001 -19.2188 0.2708 147
-13.0469 -19.2188 0.8096 12
-7.082000000000001 -10.4375 0.731 13
-3.9608999999999996 -5.8359000000000005 -0.7368000000000001 189
-7.1484000000000005 -10.531199999999998 1.0361 214
-7.7148 -11.3672 1.4394999999999998 29
-13.023399999999999 -19.1875 -1.3457 194
-7.1602 -10.5469 1.6338 152
-13.031199999999998 -19.2031 -0.8086 66
-6.9062 -10.1719 1.8691 88
-13.031199999999998 -19.2031 -0.2705 137
-19.6406 -28.9219 6.1562 123
-13.093800000000002 -19.1406 0.2705 139
-13.0469 -19.0781 0.8051999999999999 39
-7.078099999999999 -10.351600000000001 0.7271 231
-7.113300000000001 -10.398399999999999 1.0254 20
-7.3984000000000005 -10.8203 1.3730000000000002 230
-13.0156 -19.0312 -1.3388999999999998 211
-7.3984000000000005 -10.8125 1.6797 90
-13.0703 -19.1094 -0.8066 187
-6.925800000000001 -10.125 1.8643 233
-13.0469 -19.0781 -0.2695 150
-7.0859000000000005 -10.3594 2.207 1
-13.085899999999999 -19.0 0.2688 203
-13.023399999999999 -18.9062 0.7998000000000001 166
-7.140599999999999 -10.3672 0.7295 83
-7.074199999999999 -10.273399999999999 1.0156 139
-7.8477 -11.3906 1.4491999999999998 134
-13.0156 -18.8906 -1.3319999999999999 166
-19.8594 -28.8281 4.4961 124
-13.0703 -18.9688 -0.8027 62
-7.0078 -10.1719 1.8769999999999998 172
-13.0469 -18.9375 -0.2681 132
-7.136699999999999 -10.3594 2.2109 191
-13.125 -18.9219 0.2686 205
-13.023399999999999 -18.7656 0.7959 11
-7.2227 -10.406199999999998 0.7343999999999999 115
-7.0898 -10.2188 1.0127 201
-7.921900000000001 -11.4219 1.4561000000000002 174
-13.0 -18.75 -1.3241999999999998 193
-7.0898 -10.2188 1.5937999999999999 121
-13.0547 -18.8125 -0.7979 155
-7.0352 -10.1406 1.875 124
-13.0625 -18.8281 -0.2671 66
-7.109400000000001 -10.25 2.1914 113
-13.1797 -18.8594 0.2681 136
-13.031199999999998 -18.6406 0.792 144
-7.2148 -10.3203 0.73 218
-7.082000000000001 -10.125 1.0059 37
-4.6523 -6.6562 -0.6597 164
-6.886699999999999 -9.8516 1.2588 235
-13.0 -18.5938 -1.3174000000000001 120
-7.171900000000001 -10.2578 1.6044999999999998 248
-13.0625 -18.6875 -0.7944 55
-7.109400000000001 -10.1719 1.8857 16
-13.1094 -18.75 -0.2666 184
-7.0703 -10.1094 2.168 29
-0.5386 -0.7646 -0.1576 118
-13.218800000000002 -18.7656 0.2676 202
-8.0078 -11.3672 0.4836 27
-7.238300000000001 -10.273399999999999 0.7284999999999999 113
-20.25 -28.75 2.8691000000000004 28
-6.984400000000001 -9.9141 1.2705 140
-13.0 -18.4531 -1.3115 28
-7.2188 -10.25 1.6074000000000002 99
-13.0469 -18.5156 -0.7890999999999999 52
-7.0664 -10.0312 1.8643 236
-13.1094 -18.6094 -0.26539999999999997 250
-7.238300000000001 -10.281199999999998 2.209 133
-0.5986 -0.8432999999999999 -0.17489999999999997 32
-13.1797 -18.5781 0.26539999999999997 54
-7.949199999999999 -11.2031 0.4778 16
-7.2461 -10.2109 0.7261 173
-4.1602 -5.863300000000001 -0.7509999999999999 184
-7.167999999999999 -10.1016 1.0078 112
-13.0078 -18.3281 -1.8330000000000002 35
-7.0039 -9.8672 1.2676 27
-13.0 -18.3125 -1.3047 73
-7.234400000000001 -10.1953 1.6025 221
-13.039100000000001 -18.375 -0.7847 137
-7.1289 -10.0469 1.8721 52
-13.101600000000001 -18.4531 -0.2639 252
-7.171900000000001 -10.1094 2.1777 24
-7.9609000000000005 -11.1406 0.4763 120
-7.3359000000000005 -10.2656 0.7314 68
-7.2265999999999995 -10.1094 1.0117 162
-13.0078 -18.2031 -1.8232 151
-6.9688 -9.75 1.2549 136
-12.9922 -18.1719 -1.2969 48
-7.1602 -10.0156 1.5781 89
-13.039100000000001 -18.2344 -0.7807999999999999 205
-7.136699999999999 -9.9844 1.8643 153
-13.0781 -18.2969 -0.262 147
-7.207000000000001 -10.0859 2.1777 23
-7.8984000000000005 -10.968800000000002 0.15710000000000002 214
-7.8515999999999995 -10.906199999999998 0.4673 86
-6.824199999999999 -9.4766 0.6768000000000001 155
-7.3047 -10.1406 1.0176 53
-13.0 -18.0625 -1.8135 138
-7.011699999999999 -9.7344 1.2559 2
-12.9922 -18.0312 -1.291 137
-7.144500000000001 -9.9219 1.5674000000000001 74
-13.039100000000001 -18.1094 -0.7773 17
-7.2265999999999995 -10.0391 1.8799000000000001 114
-13.0703 -18.1406 -0.2607 224
-7.324199999999999 -10.1719 2.2031 216
-7.949199999999999 -10.9531 0.47090000000000004 146
-6.859400000000001 -9.4531 0.6772 115
-7.25 -9.9922 1.0049 115
-12.9922 -17.9062 -1.8037 156
-7.0703 -9.7422 1.2607 244
-12.976600000000001 -17.8906 -1.2832 127
-7.1953 -9.9219 1.5713 32
-13.0469 -17.9844 -0.7739 25
-7.7773 -10.718800000000002 2.0137 149
-13.1875 -18.1875 -0.26170000000000004 166
-7.363300000000001 -10.1484 2.2051 27
-13.351600000000001 -18.2656 0.2637 127
-13.023399999999999 -17.8281 0.769 181
-6.8398 -9.3594 0.6718999999999999 42
-7.2773 -9.9531 1.0039 195
-13.0 -17.7812 -1.7959 163
-7.1836 -9.8281 1.2754 192
-12.976600000000001 -17.7656 -1.2773 61
-7.2265999999999995 -9.8906 1.5703 249
-13.031199999999998 -17.8281 -0.7695000000000001 143
-7.828099999999999 -10.710899999999999 2.0156 164
-13.289100000000001 -18.1875 -0.2625 9
-7.375 -10.0938 2.1953 211
-0.5547 -0.7534000000000001 -0.1576 6
-8.3828 -11.3906 0.1646 78
-7.2890999999999995 -9.8984 0.4275 114
-6.859400000000001 -9.3125 0.6704000000000001 94
-4.375 -5.9414 -0.7709999999999999 17
-8.6562 -11.75 1.1885 97
-12.9922 -17.6406 -1.7861000000000002 227
-7.0859000000000005 -9.625 1.252 247
-12.976600000000001 -17.625 -1.2705 157
-7.261699999999999 -9.8594 1.5703 205
-13.023399999999999 -17.6875 -0.7656000000000001 118
-7.8711 -10.6953 2.0176 55
-13.3047 -18.0781 -0.2615 80
-7.4375 -10.1016 2.2051 13
-8.4375 -11.3828 0.1648 188
-8.4219 -11.3672 0.49219999999999997 100
-6.8672 -9.2656 0.6685 209
-4.4375 -5.984400000000001 -0.7783 49
-7.261699999999999 -9.7969 0.9922 205
-13.023399999999999 -17.5781 -1.7832 204
-7.1562 -9.6484 1.2578 253
-12.976600000000001 -17.5 -1.2646 82
-7.332000000000001 -9.8906 1.5781 215
-13.0156 -17.5469 -0.7612000000000001 63
-7.175800000000001 -9.6797 1.8311000000000002 53
-13.2969 -17.9375 -0.26030000000000003 156
-7.5352 -10.1641 2.2227 230
-13.3672 -17.9062 0.2605 34
-8.4922 -11.375 0.4939 182
-6.921900000000001 -9.2734 0.6704000000000001 84
-6.5039 -8.7109 -1.1377 151
-8.7344 -11.7031 1.1895 108
-7.1836 -9.6172 1.2568000000000001 16
-12.968800000000002 -17.375 -1.2588 97
-7.2461 -9.7031 1.5527000000000002 158
-13.0156 -17.4375 -0.7583 83
-7.199199999999999 -9.6406 1.8291 145
-13.273399999999999 -17.7812 -0.2585 223
-7.6914 -10.3047 2.2598 230
-13.343800000000002 -17.7344 0.2585 105
-7.0234000000000005 -9.3359 0.406 22
-6.9727 -9.2734 0.6724 76
-6.4961 -8.6328 -1.1309 249
-7.292999999999999 -9.6953 0.9873000000000001 13
-6.6172 -8.7969 -0.8955 75
-7.296900000000001 -9.7031 1.2715 230
-12.968800000000002 -17.2344 -1.2529000000000001 66
-7.25 -9.6406 1.5459 247
-13.0156 -17.3125 -0.7544 213
-7.2539 -9.6484 1.834 3
-13.273399999999999 -17.6562 -0.25730000000000003 7
-7.832000000000001 -10.414100000000001 2.291 238
-13.3203 -17.5781 0.2571 144
-7.0547 -9.3125 0.406 10
-7.015599999999999 -9.2578 0.6729 186
-6.5 -8.5781 -1.126 124
-7.296900000000001 -9.6328 0.9834 223
-6.582000000000001 -8.6875 -0.8867 254
-8.4375 -11.1328 1.4638999999999998 228
-12.976600000000001 -17.125 -1.2470999999999999 186
-7.3164 -9.6562 1.5527000000000002 95
-13.0078 -17.1719 -0.7505 174
-7.3398 -9.6875 1.8466999999999998 40
-13.281199999999998 -17.5312 -0.2563 76
-7.859400000000001 -10.375 2.2871 234
-13.023399999999999 -17.0625 0.25 133
-9.375 -12.289100000000001 0.5381 0
-6.9765999999999995 -9.1406 0.6665000000000001 153
-6.4961 -8.5078 -1.1211 75
-7.1602 -9.3828 0.9604 17
-6.5625 -8.6016 -0.8798999999999999 191
-7.4140999999999995 -9.7109 1.2803 162
-6.6797 -8.75 -0.6377 255
-6.7188 -8.8047 1.4188999999999998 20
-13.0 -17.0312 -0.7465999999999999 114
-7.4023 -9.6953 1.8535 19
-13.0 -17.0312 -0.24960000000000002 241
-7.9023 -10.351600000000001 2.2891 215
-13.0547 -16.9844 0.2495 205
-7.4102 -9.6406 0.4229 253
-7.0039 -9.1094 0.6659999999999999 64
-6.5 -8.4531 -1.1162 136
-7.167999999999999 -9.3281 0.9570000000000001 109
-6.5586 -8.5312 -0.8755 154
-7.421900000000001 -9.6562 1.2754 36
-6.667999999999999 -8.6797 -0.6343 47
-6.7539 -8.7812 1.4199000000000002 76
-13.0078 -16.9219 -0.7432 244
-7.390599999999999 -9.6172 1.8428 67
-12.9922 -16.9062 -0.2484 35
-7.9727 -10.375 2.2988 118
-13.0 -16.7812 0.24739999999999998 224
-7.4727 -9.6484 0.42460000000000003 202
-7.078099999999999 -9.1406 0.6698999999999999 90
-6.5078 -8.4062 -1.1133 76
-7.269500000000001 -9.3906 0.9662999999999999 155
-6.5547 -8.4609 -0.8706 114
-7.4453 -9.6172 1.2734 143
-6.6602 -8.6016 -0.6304 125
-6.769500000000001 -8.7422 1.4169999999999998 148
-12.9844 -16.7656 -0.7387999999999999 143
-7.625 -9.8438 1.8925999999999998 230
-12.9453 -16.7188 -0.2465 89
-6.8047 -8.7891 1.9521000000000002 207
-12.968800000000002 -16.625 0.2457 95
-4.1133 -5.2734000000000005 -1.0137 153
-12.968800000000002 -16.625 0.7349 19
-7.171900000000001 -9.1953 0.6758 104
-6.511699999999999 -8.3516 -1.1084 181
-7.175800000000001 -9.2031 0.9492 116
-6.5586 -8.4141 -0.8676999999999999 226
-7.5 -9.6172 1.2773 191
-6.667999999999999 -8.5469 -0.6279 41
-6.800800000000001 -8.7188 1.4169999999999998 0
-12.960899999999999 -16.6094 -0.7339 124
-7.7188 -9.8984 1.9072 0
-12.9375 -16.5938 -0.2451 46
-6.8438 -8.7734 1.9541 11
-12.968800000000002 -16.5156 0.2446 124
-12.976600000000001 -16.5156 0.7314 130
-4.1875 -5.328099999999999 -0.8662000000000001 150
-7.2265999999999995 -9.2031 0.6781999999999999 123
-6.511699999999999 -8.2891 -1.1035 95
-7.171900000000001 -9.1328 0.9448000000000001 138
-6.5625 -8.3594 -0.8643000000000001 113
-8.6797 -11.0547 1.4727000000000001 254
-6.832000000000001 -8.6953 1.4169999999999998 75
-12.9531 -16.4844 -0.7304999999999999 31
-7.6602 -9.75 1.8838 159
-12.9453 -16.4844 -0.2441 242
-9.3594 -11.914100000000001 2.6641000000000004 59
-0.5806 -0.7339 -0.1576 224
-12.9844 -16.4062 0.2438 98
-4.2344 -5.355499999999999 -1.0342 214
-12.960899999999999 -16.3906 0.7275 142
-7.25 -9.1641 0.6772 132
-6.5039 -8.2188 -1.0977 57
-7.175800000000001 -9.0703 0.9409000000000001 31
-6.546900000000001 -8.2734 -0.8584 238
-7.4336 -9.3984 1.2549 2
-6.886699999999999 -8.7031 1.4219 89
-12.9453 -16.3594 -0.7265999999999999 166
-7.6875 -9.7109 1.8818000000000001 206
-12.9453 -16.3594 -0.243 58
-6.8984000000000005 -8.7188 1.9531 74
-0.6025 -0.7563 -0.1631 203
-12.968800000000002 -16.2812 0.24239999999999998 142
-4.2656 -5.355499999999999 -1.0371 68
-12.9453 -16.25 0.7236 91
-7.292999999999999 -9.1562 0.6781999999999999 44
-6.5039 -8.1641 -1.0928 230
-7.203099999999999 -9.0391 0.9404 93
-6.542999999999999 -8.2109 -0.8540000000000001 155
-7.261699999999999 -9.1172 1.2207 19
-6.9102 -8.6719 1.4209 187
-12.9453 -16.25 -0.7236 169
-7.863300000000001 -9.8672 1.9169999999999998 0
-12.9297 -16.2344 -0.2418 89
-6.8984000000000005 -8.6562 1.9443000000000001 140
-0.5659000000000001 -0.7051000000000001 -0.152 138
-12.960899999999999 -16.1406 0.2412 83
-4.2617 -5.3125 -1.0322 60
-12.9531 -16.1406 0.7206999999999999 149
-12.9375 -16.1094 1.1992 124
-6.511699999999999 -8.1094 -1.0889 47
-8.8828 -11.0625 1.1553 208
-6.5547 -8.1641 -0.8515999999999999 173
-8.7734 -10.9297 1.4687999999999999 253
-6.890599999999999 -8.5859 1.4102000000000001 129
-12.9531 -16.1406 -0.7206999999999999 61
-7.984400000000001 -9.9453 1.9385 13
-12.906199999999998 -16.0781 -0.2402 242
-6.9414 -8.6484 1.9482 230
-0.561 -0.6938 -0.1499 33
-12.914100000000001 -15.976600000000001 0.2394 242
-4.3008 -5.3203 -1.0371 1
-12.906199999999998 -15.968800000000002 0.7153 181
-12.9219 -15.9844 1.1934 109
-6.5039 -8.0469 -1.083 50
-7.3477 -9.0938 0.9512 142
-6.5547 -8.1094 -0.8481000000000001 106
-8.6719 -10.726600000000001 1.4443000000000001 146
-6.9140999999999995 -8.5547 1.4091999999999998 96
-12.914100000000001 -15.976600000000001 -0.7153 105
-6.980499999999999 -8.6328 1.6865 93
-12.8828 -15.9375 -0.23879999999999998 238
-6.9336 -8.5781 1.9375 60
-0.603 -0.7406999999999999 -0.161 156
-12.914100000000001 -15.8594 0.23829999999999998 138
-4.3555 -5.3477 -1.0449 29
-9.7891 -12.023399999999999 0.5396 139
-12.9297 -15.875 1.1885 112
-6.4961 -7.980499999999999 -1.0771 168
-7.332000000000001 -9.0078 0.9453 195
-6.550800000000001 -8.0469 -0.8442000000000001 187
-7.125 -8.75 1.1816 156
-6.953099999999999 -8.5391 1.4111000000000002 205
-12.898399999999999 -15.843800000000002 -0.7114 144
-6.8711 -8.4375 1.6533000000000002 84
-12.8828 -15.8203 -0.2377 11
-6.984400000000001 -8.5781 1.9434 65
-0.6054999999999999 -0.7387999999999999 -0.161 185
-12.906199999999998 -15.75 0.2373 38
-4.3633 -5.324199999999999 -1.043 172
-9.8359 -12.0078 0.54 105
-12.9219 -15.773399999999999 1.1836 112
-6.488300000000001 -7.917999999999999 -1.0713 76
-7.3359000000000005 -8.9531 0.9419 164
-6.546900000000001 -7.9922 -0.8403 110
-7.1523 -8.7266 1.1816 241
-7.0039 -8.5469 1.416 179
-12.875 -15.710899999999999 -0.7075 218
-6.8672 -8.3828 1.6455000000000002 189
-12.875 -15.718800000000002 -0.23670000000000002 125
-6.886699999999999 -8.4062 1.9082 103
-0.6152000000000001 -0.7461 -0.1631 2
-12.898399999999999 -15.6406 0.23620000000000002 201
-4.3906 -5.3203 -1.0449 40
-9.8984 -12.0 0.5415 113
-6.488300000000001 -7.8672 -1.3066 185
-12.906199999999998 -15.648399999999999 1.1777 114
-6.5 -7.8789 -1.0693000000000001 2
-7.4062 -8.9766 0.9468000000000001 94
-6.5390999999999995 -7.925800000000001 -0.8359000000000001 152
-23.6875 -28.7188 3.9082 29
-7.1015999999999995 -8.6094 1.4306999999999999 128
-12.875 -15.6094 -0.7045999999999999 72
-6.9062 -8.375 1.6484 249
-12.8594 -15.593800000000002 -0.23550000000000001 0
-6.9414 -8.4141 1.916 59
-0.6182 -0.7437 -0.1631 87
-12.9297 -15.5469 0.23559999999999998 248
-4.3867 -5.2734000000000005 -1.0391 95
-12.9453 -15.5703 0.7056 45
-6.4961 -7.8125 -1.3008000000000002 110
-7.6562 -9.2109 0.6938 121
-6.5039 -7.8203 -1.0645 55
-9.8438 -11.835899999999999 1.2539 74
-6.550800000000001 -7.8789 -0.8334999999999999 221
-23.7812 -28.5938 3.9043 93
-7.125 -8.5703 1.4277000000000002 212
-12.906199999999998 -15.523399999999999 -0.7031000000000001 216
-6.8828 -8.2812 1.6357 246
-12.906199999999998 -15.5156 -0.2351 7
-6.9062 -8.3125 1.8975 15
-0.6006 -0.7173 -0.1576 48
-12.9922 -15.523399999999999 0.23579999999999998 125
-4.4141 -5.269500000000001 -1.042 77
-13.023399999999999 -15.5547 0.7065 61
-6.5039 -7.765599999999999 -1.2978999999999998 97
-9.0859 -10.851600000000001 0.8208 60
-6.4961 -7.7578 -1.0586 98
-7.484400000000001 -8.9375 0.9487000000000001 66
-6.550800000000001 -7.824199999999999 -0.8301000000000001 3
-23.7812 -28.3906 3.8867000000000003 224
-7.0586 -8.4297 1.4091999999999998 150
-12.976600000000001 -15.5 -0.7041 195
-6.9297 -8.2734 1.6396000000000002 96
-12.976600000000001 -15.4922 -0.23550000000000001 214
-6.9375 -8.2812 1.8975 210
-0.603 -0.7153 -0.1576 127
-13.101600000000001 -15.5469 0.2368 176
-6.5312 -7.75 -1.5391 129
-13.1094 -15.5469 0.7084999999999999 152
-6.5 -7.7109000000000005 -1.2919999999999998 217
-9.5547 -11.335899999999999 0.8599 243
-6.484400000000001 -7.6953 -1.0527 208
-7.925800000000001 -9.4062 1.001 42
-6.546900000000001 -7.769500000000001 -0.8262 19
-9.7031 -11.5078 1.5771000000000002 88
-6.9727 -8.2734 1.3857 44
-6.886699999999999 -8.1719 -0.3713 79
-6.9609000000000005 -8.2578 1.6406 138
-13.0 -15.4219 -0.235 61
-7.011699999999999 -8.3203 1.9111000000000002 93
-0.5977 -0.7041 -0.1555 255
-13.1875 -15.539100000000001 0.23739999999999997 21
-6.5273 -7.6914 -1.5312000000000001 248
-13.1953 -15.5469 0.7104 242
-6.5078 -7.667999999999999 -1.2881 205
-10.0391 -11.8281 0.9004000000000001 101
-6.484400000000001 -7.640599999999999 -1.0488 189
-7.9922 -9.4219 1.0059 100
-6.542999999999999 -7.707000000000001 -0.8223 9
-9.1797 -10.8203 1.4863 120
-8.7578 -10.3125 1.7353999999999998 107
-6.859400000000001 -8.0859 -0.36840000000000006 194
-7.0273 -8.2812 1.6494 199
-13.1328 -15.476600000000001 -0.2365 241
-7.4140999999999995 -8.7344 2.0137 242
-0.6054999999999999 -0.708 -0.15689999999999998 62
-13.289100000000001 -15.5469 0.23829999999999998 201
-6.5273 -7.6328 -1.5253999999999999 55
-13.281199999999998 -15.539100000000001 0.7119 201
-6.4961 -7.5977 -1.2803 136
-9.9609 -11.648399999999999 0.8892 195
-6.4961 -7.5977 -1.0459 3
-8.0078 -9.3672 1.0029000000000001 76
-6.542999999999999 -7.6523 -0.8188 196
-7.800800000000001 -9.125 1.2568000000000001 98
-7.3984000000000005 -8.6562 1.459 152
-6.855499999999999 -8.0234 -0.3667 108
-6.9023 -8.0781 1.6133000000000002 82
-13.218800000000002 -15.460899999999999 -0.2369 182
-18.5625 -21.7188 5.0312 68
-0.6309 -0.7329000000000001 -0.1631 111
-13.3281 -15.4844 0.23800000000000002 231
-6.5234000000000005 -7.578099999999999 -1.5186000000000002 244
-13.3828 -15.539100000000001 0.7143999999999999 105
-6.488300000000001 -7.5352 -1.2734 180
-9.4766 -11.0 0.8423 63
-6.5 -7.546900000000001 -1.042 3
-8.0859 -9.3828 1.0078 17
-6.5977 -7.6640999999999995 -0.8228 118
-7.8398 -9.1094 1.2588 15
-7.332000000000001 -8.5156 1.4404 41
-6.8398 -7.9453 -0.3643 133
-6.9453 -8.0625 1.6162 96
-13.335899999999999 -15.4844 -0.2382 170
-7.5586 -8.7812 2.0352 10
-0.6465000000000001 -0.7456 -0.1666 111
-13.476600000000001 -15.531199999999998 0.2395 63
-6.5352 -7.5312 -1.5137 248
-13.476600000000001 -15.531199999999998 0.7162999999999999 209
-6.488300000000001 -7.480499999999999 -1.2686 144
-9.4922 -10.9375 0.8398 1
-6.5039 -7.5 -1.0391 151
-8.1484 -9.3984 1.0127 192
-6.574199999999999 -7.582000000000001 -0.8159000000000001 222
-7.824199999999999 -9.0234 1.25 252
-7.296900000000001 -8.4141 1.4268 8
-6.8164 -7.859400000000001 -0.3616 151
-6.988300000000001 -8.0547 1.6191 20
-12.968800000000002 -14.9531 -0.2306 225
-7.5547 -8.7109 2.0254 114
-0.6801999999999999 -0.7787999999999999 -0.17489999999999997 130
-13.5547 -15.5156 0.2401 188
-6.5273 -7.4727 -1.5068000000000001 76
-8.8281 -10.1094 0.4668 131
-6.4961 -7.4336 -1.2646 127
-13.625 -15.601600000000001 1.2021 200
-6.4922 -7.4297 -1.0322 141
-8.1797 -9.3594 1.0117 225
-6.6289 -7.5859000000000005 -0.8193 58
-8.3594 -9.5703 1.3311000000000002 103
-8.4219 -9.6406 1.6416 137
-6.796900000000001 -7.7812 -0.3589 149
-7.082000000000001 -8.1094 1.6347999999999998 28
-13.0 -14.875 -0.23010000000000003 194
-7.4453 -8.5234 1.9883000000000002 207
-0.6646 -0.7559 -0.17 71
-13.6406 -15.5156 0.2407 22
-6.5234000000000005 -7.417999999999999 -1.5 212
-8.8516 -10.0625 0.4661 214
-6.5 -7.390599999999999 -1.2607 246
-13.781199999999998 -15.6719 1.2119 239
-6.4961 -7.3828 -1.0293 229
-8.2031 -9.3281 1.0107 5
-8.2656 -9.3984 1.3115 137
-7.421900000000001 -8.4375 1.4404 121
-6.800800000000001 -7.734400000000001 -0.3579 240
-7.2227 -8.2109 1.6611000000000002 107
-12.976600000000001 -14.75 -0.2289 212
-7.425800000000001 -8.4453 1.9756 142
-0.6543000000000001 -0.7387999999999999 -0.1666 137
-13.7422 -15.523399999999999 0.2416 160
-6.5234000000000005 -7.3672 -1.4941 252
-13.7578 -15.539100000000001 0.7227 195
-6.4922 -7.332000000000001 -1.2539 182
-9.3906 -10.6094 0.8218000000000001 18
-6.5039 -7.3477 -1.0264 52
-8.2266 -9.2969 1.0107 19
-8.2031 -9.2656 1.2959 149
-8.5234 -9.625 1.6484 18
-6.8086 -7.6914 -0.3569 226
-7.199199999999999 -8.1328 1.6494 148
-7.2812 -8.2266 1.9297 233
-7.207000000000001 -8.0781 -1.9013999999999998 73
-13.875 -15.5625 0.2429 33
-6.5312 -7.324199999999999 -1.4902000000000002 124
-13.843800000000002 -15.523399999999999 0.7245999999999999 225
-6.488300000000001 -7.2773 -1.249 119
-9.4766 -10.625 0.8251999999999999 41
-6.511699999999999 -7.300800000000001 -1.0234 175
-8.2891 -9.2969 1.0137 124
-8.1875 -9.1875 1.2891 197
-7.417999999999999 -8.3203 1.4287 146
-6.8125 -7.640599999999999 -0.3557 33
-7.3086 -8.1953 1.6680000000000001 245
-13.7969 -15.468800000000002 -0.2416 205
-7.4102 -8.3047 1.9550999999999998 126
-7.2188 -8.0391 -1.8975 24
-13.9375 -15.5156 0.2429 188
-6.5312 -7.2734000000000005 -1.4844 131
-8.7422 -9.7344 0.45530000000000004 85
-6.488300000000001 -7.2265999999999995 -1.2441 73
-14.0 -15.585899999999999 1.2158 101
-6.4961 -7.234400000000001 -1.0176 182
-8.3594 -9.3047 1.0176 248
-8.1172 -9.0391 1.2725 245
-10.601600000000001 -11.8047 2.0352 193
-6.855499999999999 -7.6328 -0.3564 146
-7.2461 -8.0703 1.6475 134
-13.906199999999998 -15.4844 -0.2426 88
-7.2812 -8.1016 1.9131 147
-7.25 -8.0156 -1.8984 106
-14.0547 -15.539100000000001 0.2441 123
-6.5352 -7.2227 -1.4785 28
-14.0469 -15.523399999999999 0.7295 253
-6.4961 -7.1797 -1.2393 7
-14.093800000000002 -15.5781 1.2197 50
-6.5 -7.1836 -1.0137 255
-8.4141 -9.3047 1.0215 107
-8.0234 -8.8672 1.252 133
-7.2578 -8.0156 1.3857 209
-6.8359000000000005 -7.5547 -0.354 166
-7.2265999999999995 -7.988300000000001 1.6357 121
-14.031199999999998 -15.5078 -0.2437 197
-7.2422 -8.0078 1.8965 245
-7.3086 -8.0156 -1.9053 241
-14.1406 -15.5156 0.2446 246
-6.5273 -7.1640999999999995 -1.4716999999999998 209
-8.8438 -9.7109 0.4568 27
-6.5 -7.1328 -1.2363 35
-14.1875 -15.5703 1.2227 247
-6.5 -7.1328 -1.0098 134
-9.8672 -10.835899999999999 1.1934 213
-7.671900000000001 -8.4219 1.1934 56
-7.296900000000001 -8.0078 1.3887 161
-6.8438 -7.5078 -0.353 137
-7.203099999999999 -7.9023 1.624 107
-14.125 -15.5 -0.2444 231
-7.2578 -7.9648 1.8925999999999998 117
-7.3438 -8.0 -1.9072 192
-14.2422 -15.523399999999999 0.2455 73
-6.5390999999999995 -7.125 -1.4687999999999999 209
-8.8984 -9.7031 0.45799999999999996 131
-6.488300000000001 -7.0703 -1.2285 220
-14.281199999999998 -15.5625 1.2266 126
-6.5078 -7.0898 -1.0068000000000001 154
-14.273399999999999 -15.5547 1.7207 145
-6.394500000000001 -6.9688 -0.7686 62
-7.6914 -8.3828 1.1904000000000001 230
-7.359400000000001 -8.0234 1.3944999999999999 193
-6.863300000000001 -7.480499999999999 -0.3528 182
-7.328099999999999 -7.984400000000001 1.6455000000000002 130
-14.210899999999999 -15.4922 -0.245 86
-7.3164 -7.9727 1.9003999999999999 60
-7.363300000000001 -7.9648 -1.9053 2
-14.351600000000001 -15.531199999999998 0.2465 135
-6.5312 -7.0664 -1.4609 30
-9.0234 -9.7656 0.46240000000000003 210
-6.484400000000001 -7.019500000000001 -1.2236 127
-14.3672 -15.5469 1.2295 132
-6.511699999999999 -7.046900000000001 -1.0039 100
-14.3672 -15.5469 1.7256 25
-6.390599999999999 -6.917999999999999 -0.7656000000000001 28
-7.613300000000001 -8.2344 1.1738 40
-8.4609 -9.1562 1.5977000000000001 146
-6.8828 -7.4453 -0.35229999999999995 205
-7.332000000000001 -7.9375 1.6416 78
-14.289100000000001 -15.460899999999999 -0.24539999999999998 116
-7.332000000000001 -7.9336 1.8975 96
-7.386699999999999 -7.9414 -1.9053 86
-14.4375 -15.523399999999999 0.2469 88
-6.5390999999999995 -7.0312 -1.4569999999999999 198
-6.4922 -6.980499999999999 -1.2207 128
-10.6719 -11.468800000000002 0.9087000000000001 21
-6.519500000000001 -7.0078 -1.001 48
-8.7109 -9.3672 1.041 157
-6.4023 -6.8828 -0.7642 184
-7.636699999999999 -8.2109 1.1738 54
-7.582000000000001 -8.1562 1.4268 97
-6.921900000000001 -7.4414 -0.353 235
-7.3789 -7.9336 1.6455000000000002 158
-14.398399999999999 -15.476600000000001 -0.2463 65
-7.3711 -7.925800000000001 1.9013999999999998 204
-7.4375 -7.9414 -1.9111000000000002 185
-14.5156 -15.5078 0.24739999999999998 210
-6.5352 -6.980499999999999 -1.4512 16
-6.4922 -6.9297 -1.2158 252
-9.5703 -10.2188 0.8115000000000001 71
-6.511699999999999 -6.953099999999999 -0.9965999999999999 198
-8.7422 -9.3359 1.041 157
-6.421900000000001 -6.855499999999999 -0.7637 231
-7.7265999999999995 -8.25 1.1836 135
-7.609400000000001 -8.125 1.4268 177
-6.9336 -7.4023 -0.3525 254
-10.773399999999999 -11.5 2.3965 85
-14.5 -15.4844 -0.24719999999999998 100
-7.6914 -8.2109 1.9775 254
-7.4765999999999995 -7.9297 -1.9141 208
-14.6328 -15.5156 0.24850000000000003 103
-6.5234000000000005 -6.917999999999999 -1.4434 123
-6.4922 -6.8828 -1.2119 52
-14.6719 -15.5547 1.2412 86
-6.5039 -6.8984000000000005 -0.9922 56
-8.7891 -9.3203 1.043 88
-6.449199999999999 -6.8359000000000005 -0.7642 244
-7.7227 -8.1875 1.1787 186
-7.6289 -8.0938 1.4247999999999998 156
-6.949199999999999 -7.3711 -0.3521 100
-9.1406 -9.6953 2.0254 141
-14.6172 -15.5 -0.2483 141
-7.9023 -8.3828 2.0234 56
-7.5078 -7.9102 -1.916 130
-14.710899999999999 -15.5 0.249 193
-6.515599999999999 -6.863300000000001 -1.4365 31
-6.4961 -6.8438 -1.208 253
-14.7656 -15.5547 1.2451 139
-6.5039 -6.8515999999999995 -0.9883 247
-7.957000000000001 -8.3828 0.9404 190
-6.4648 -6.8125 -0.7637 110
-7.6875 -8.1016 1.1689 196
-6.6953 -7.050800000000001 -0.563 37
-7.6172 -8.0234 1.4180000000000001 189
-6.980499999999999 -7.355499999999999 -0.35229999999999995 6
-7.730499999999999 -8.1484 1.7061000000000002 69
-14.7031 -15.4922 -0.2489 103
-7.8672 -8.2891 2.0078 106
-7.5352 -7.8789 -1.915 227
-14.835899999999999 -15.5156 0.25 203
-6.511699999999999 -6.8086 -1.4297 218
-6.488300000000001 -6.7852 -1.2021 253
-11.0 -11.5 0.9233 240
-6.515599999999999 -6.8164 -0.9863 174
-7.9609000000000005 -8.3203 0.937 22
-7.6836 -8.0312 1.1641 31
-6.6289 -6.9336 -0.5552 178
-7.640599999999999 -7.9922 1.4169999999999998 97
-7.011699999999999 -7.3359000000000005 -0.3525 145
-7.738300000000001 -8.0938 1.7012 224
-12.843800000000002 -13.4297 -0.2164 132
-7.9062 -8.2656 2.0098 82
-7.5664 -7.855499999999999 -1.916 104
-14.9297 -15.5 0.2507 16
-6.515599999999999 -6.765599999999999 -1.4258000000000002 129
-6.4922 -6.7422 -1.1982 193
-7.863300000000001 -8.1641 0.6572 119
-6.5234000000000005 -6.7734000000000005 -0.9834 120
-9.125 -9.4766 1.0713 155
-7.7109000000000005 -8.0078 1.1641 56
-6.6328 -6.886699999999999 -0.5537 137
-7.671900000000001 -7.9688 1.4169999999999998 139
-7.0390999999999995 -7.3086 -0.3525 209
-7.765599999999999 -8.0625 1.7012 46
-12.843800000000002 -13.335899999999999 -0.21559999999999999 190
-7.9023 -8.2031 2.002 83
-7.6015999999999995 -7.8359000000000005 -1.9180000000000001 75
-15.0469 -15.5078 0.25170000000000003 90
-6.5078 -6.707000000000001 -1.4188999999999998 164
-9.6016 -9.8984 0.4797 54
-6.4922 -6.6875 -1.1934 94
-7.890599999999999 -8.1328 0.6567000000000001 130
-6.5273 -6.7227 -0.9804999999999999 5
-8.9922 -9.2734 1.0518 153
-7.707000000000001 -7.9453 1.1592 51
-6.6328 -6.832000000000001 -0.5513 140
-7.6914 -7.9297 1.416 119
-7.078099999999999 -7.292999999999999 -0.353 137
-7.7773 -8.0156 1.6963 204
-9.4766 -9.7656 -0.1582 88
-7.761699999999999 -7.9961 1.9580000000000002 56
-7.644500000000001 -7.8203 -1.9209 175
-9.5312 -9.75 0.1586 58
-6.4961 -6.644500000000001 -1.4111000000000002 221
-9.625 -9.8438 0.479 51
-6.5039 -6.6523 -1.1914 71
-9.4609 -9.6797 0.7847 84
-6.5312 -6.6797 -0.9775 189
-8.9453 -9.1484 1.041 147
-7.703099999999999 -7.8789 1.1533 194
-6.6562 -6.8086 -0.5513 62
-7.7422 -7.917999999999999 1.4188999999999998 178
-7.113300000000001 -7.2773 -0.35350000000000004 144
-7.796900000000001 -7.9765999999999995 1.6943000000000001 221
-9.5 -9.7109 -0.158 219
-7.8047 -7.984400000000001 1.9609 51
-6.6015999999999995 -6.7109000000000005 -1.6522999999999999 37
-9.5469 -9.7109 0.1583 159
-6.4922 -6.6015999999999995 -1.4053 152
-9.5781 -9.7422 0.4753 18
-6.488300000000001 -6.5977 -1.1845999999999999 211
-7.859400000000001 -7.9922 0.6494 82
-6.5273 -6.636699999999999 -0.9736 133
-7.925800000000001 -8.0625 0.9198999999999999 49
-6.671900000000001 -6.7852 -0.7734000000000001 94
-7.7539 -7.8828 1.1572 32
-7.8477 -7.980499999999999 1.4346 206
-7.144500000000001 -7.265599999999999 -0.354 130
-7.824199999999999 -7.957000000000001 1.6953 68
-9.5234 -9.6797 -0.158 41
-7.8398 -7.9727 1.9638999999999998 193
-6.5390999999999995 -6.605499999999999 -1.6309 77
-9.6016 -9.6953 0.15869999999999998 17
-6.484400000000001 -6.550800000000001 -1.3994 89
-9.5703 -9.6719 0.47340000000000004 57
-6.480499999999999 -6.546900000000001 -1.1797 255
-7.859400000000001 -7.9375 0.647 164
-6.5234000000000005 -6.5898 -0.9702 89
-7.9414 -8.0234 0.9185 124
-7.796900000000001 -7.8789 1.1602 66
-7.863300000000001 -7.9453 1.4325999999999999 83
-7.171900000000001 -7.2422 -0.354 135
-7.800800000000001 -7.8789 1.6836000000000002 87
-7.832000000000001 -7.9102 1.9550999999999998 187
-6.5390999999999995 -6.5547 -1.625 195
-15.414100000000001 -15.4453 0.2544 233
-6.515599999999999 -6.5312 -1.4003999999999999 127
-9.625 -9.6484 0.47409999999999997 0
-6.480499999999999 -6.4961 -1.1748 104
-7.9102 -7.9297 0.6489 127
-6.5234000000000005 -6.5390999999999995 -0.9662999999999999 145
-7.859400000000001 -7.8789 0.9057999999999999 152
-6.578099999999999 -6.5938 -0.7573000000000001 241
-7.8203 -7.8398 1.1592 13
-7.8828 -7.9023 1.4306999999999999 248
-7.2227 -7.2422 -0.3555 126
-7.9023 -7.921900000000001 1.7002000000000002 121
-15.1875 -15.226600000000001 -0.2507 121
-8.1328 -8.1562 2.0234 91
-6.4922 -6.4648 -1.6084 83
-15.523399999999999 -15.4531 0.2554 242
-6.5586 -6.5312 -1.4043 207
-9.6875 -9.6406 0.4756 171
-6.480499999999999 -6.449199999999999 -1.1709 203
-7.9609000000000005 -7.921900000000001 0.6509 56
-6.5273 -6.4961 -0.9634 152
-7.863300000000001 -7.828099999999999 0.9028 154
-6.5977 -6.5664 -0.7563 5
-7.8984000000000005 -7.863300000000001 1.167 113
-11.289100000000001 -11.2344 2.043 115
-7.2773 -7.2422 -0.3567 112
-7.9102 -7.875 1.6953 242
-15.3047 -15.2344 -0.25170000000000003 49
-8.0547 -8.0156 1.9961000000000002 133
-6.4765999999999995 -6.4023 -1.5986000000000002 37
-15.6172 -15.4453 0.2561 187
-6.4961 -6.425800000000001 -1.3866999999999998 90
-10.7031 -10.585899999999999 0.5239 156
-6.484400000000001 -6.4102 -1.167 35
-8.0 -7.9102 0.6518999999999999 13
-6.5312 -6.4609000000000005 -0.9609000000000001 148
-7.9765999999999995 -7.886699999999999 0.9126000000000001 223
-6.5898 -6.515599999999999 -0.7529 72
-7.9453 -7.859400000000001 1.1699 236
-7.9688 -7.8789 1.4355000000000002 153
-7.300800000000001 -7.2188 -0.3567 94
-7.921900000000001 -7.832000000000001 1.6924000000000001 148
-15.398399999999999 -15.226600000000001 -0.25239999999999996 110
-7.7890999999999995 -7.703099999999999 1.9238 6
-15.726600000000001 -15.4531 0.2568 75
-6.488300000000001 -6.375 -1.3809 192
-10.6875 -10.5 0.5215 194
-6.4727 -6.359400000000001 -1.1621 237
-8.0156 -7.8789 0.6514 97
-6.5352 -6.417999999999999 -0.958 102
-8.0234 -7.8789 0.9146 209
-6.5898 -6.4765999999999995 -0.7509999999999999 127
-7.957000000000001 -7.8164 1.168 244
-7.863300000000001 -7.7227 1.4121000000000001 250
-7.3711 -7.2422 -0.3589 172
-7.917999999999999 -7.7773 1.6855000000000002 180
-15.4844 -15.210899999999999 -0.2529 216
-7.792999999999999 -7.6562 1.9188999999999998 213
-6.515599999999999 -6.355499999999999 -1.5977000000000001 181
-15.8594 -15.468800000000002 0.2581 24
-6.4922 -6.332000000000001 -1.376 164
-10.789100000000001 -10.523399999999999 0.5244 157
-6.4765999999999995 -6.3164 -1.1582 254
-8.0 -7.800800000000001 0.6475 116
-6.542999999999999 -6.3828 -0.9561 97
-8.0781 -7.875 0.9175 162
-6.5977 -6.4336 -0.7490000000000001 65
-7.949199999999999 -7.75 1.1621 133
-7.949199999999999 -7.75 1.4228999999999998 245
-7.4297 -7.2461 -0.36060000000000003 56
-7.917999999999999 -7.7227 1.6806999999999999 192
-15.5625 -15.1797 -0.2534 174
-8.0 -7.8047 1.9638999999999998 110
-6.5 -6.292999999999999 -1.5878999999999999 50
-6.5078 -6.300800000000001 -1.375 249
-10.8594 -10.5156 0.5264 27
-6.4727 -6.265599999999999 -1.1533 139
-8.0078 -7.7578 0.6459999999999999 204
-6.5352 -6.332000000000001 -0.9517 102
-8.3047 -8.0469 0.9409000000000001 63
-8.0 -7.7461 1.166 172
-7.957000000000001 -7.707000000000001 1.4188999999999998 108
-7.457000000000001 -7.2227 -0.36060000000000003 208
-7.9648 -7.7109000000000005 1.6836000000000002 218
-15.6094 -15.1172 -0.2532 56
-8.0312 -7.7734000000000005 1.9628999999999999 98
-6.480499999999999 -6.230499999999999 -1.5781 211
-16.0781 -15.460899999999999 0.26 155
-6.5 -6.25 -1.3681999999999999 22
-10.906199999999998 -10.4844 0.5264 253
-6.4765999999999995 -6.2265999999999995 -1.1504 120
-8.1094 -7.796900000000001 0.6518999999999999 81
-6.5273 -6.2734000000000005 -0.9473 193
-8.1719 -7.855499999999999 0.9224 161
-8.0781 -7.765599999999999 1.1729 6
-7.9688 -7.6602 1.416 92
-7.4961 -7.207000000000001 -0.3613 65
-7.9765999999999995 -7.667999999999999 1.6806999999999999 65
-15.7344 -15.125 -0.2544 82
-8.1172 -7.800800000000001 1.9775 57
-6.480499999999999 -6.1875 -1.5732 251
-6.4922 -6.199199999999999 -1.3622999999999998 231
-16.3125 -15.5703 0.7856000000000001 34
-6.480499999999999 -6.1875 -1.1475 81
-8.1328 -7.765599999999999 0.6518999999999999 253
-6.542999999999999 -6.2461 -0.9462999999999999 145
-17.7812 -16.9688 2.0039 188
-11.8281 -11.2969 1.7147999999999999 58
-8.0078 -7.644500000000001 1.4180000000000001 228
-7.5703 -7.2265999999999995 -0.3635 57
-8.0547 -7.6914 1.6913999999999998 72
-16.0156 -15.2969 -0.2581 211
-8.1016 -7.730499999999999 1.9668 15
-6.488300000000001 -6.1523 -1.5693000000000001 153
-6.5078 -6.171900000000001 -1.3613 106
-16.375 -15.531199999999998 0.7861 6
-6.4688 -6.136699999999999 -1.1416 15
-16.3438 -15.4922 1.3075999999999999 102
-6.5547 -6.2148 -0.9448000000000001 2
-9.7812 -9.2734 1.0967 51
-8.1172 -7.6953 1.1709 0
-8.0391 -7.6211 1.4188999999999998 196
-7.675800000000001 -7.2812 -0.3677 232
-8.1484 -7.7265999999999995 1.7050999999999998 99
-16.125 -15.2969 -0.259 184
-8.1016 -7.6836 1.9619 130
-6.4961 -6.1211 -1.5663999999999998 52
-6.5078 -6.1328 -1.3574000000000002 94
-16.4062 -15.460899999999999 0.7856000000000001 17
-6.4727 -6.0977 -1.1387 83
-8.3828 -7.8984000000000005 0.6675 96
-6.5625 -6.1836 -0.9429000000000001 26
-9.7969 -9.2344 1.0957 97
-6.925800000000001 -6.5234000000000005 -0.7734000000000001 90
-8.1094 -7.640599999999999 1.167 105
-8.0781 -7.609400000000001 1.4219 54
-16.375 -15.4219 -0.7837000000000001 244
-8.0938 -7.625 1.6885 237
-16.3125 -15.3672 -0.2612 91
-8.2031 -7.7265999999999995 1.9794999999999998 212
-6.511699999999999 -6.0898 -1.5644999999999998 114
-6.5078 -6.0859000000000005 -1.3525 19
-16.5156 -15.4375 0.7876000000000001 93
-6.480499999999999 -6.0586 -1.1357 171
-8.3906 -7.8398 0.6655 9
-6.574199999999999 -6.144500000000001 -0.9414 194
-9.8516 -9.2109 1.0977 235
-6.8047 -6.363300000000001 -0.7573000000000001 190
-8.1016 -7.5703 1.1602 172
-7.9688 -7.449199999999999 1.3975 21
-16.4688 -15.398399999999999 -0.7856000000000001 176
-8.1641 -7.636699999999999 1.6982 200
-16.4688 -15.3906 -0.2627 41
-8.1641 -7.6328 1.9628999999999999 40
-6.5273 -6.0586 -1.5635 197
-6.5 -6.0312 -1.3457 107
-16.6094 -15.414100000000001 0.7896 231
-6.4961 -6.0312 -1.1348 65
-16.6719 -15.468800000000002 1.3203 233
-9.7031 -9.0078 1.0781 135
-8.1016 -7.5234000000000005 1.1572 31
-7.9609000000000005 -7.390599999999999 1.3916 32
-16.5625 -15.375 -0.7876000000000001 179
-8.1953 -7.605499999999999 1.6982 242
-16.5938 -15.398399999999999 -0.2639 246
-8.2734 -7.6836 1.9834 237
-6.5078 -6.0 -1.5537 209
-6.519500000000001 -6.011699999999999 -1.3457 79
-16.7344 -15.4297 0.7929999999999999 181
-6.5 -5.9961 -1.1318000000000001 68
-16.7812 -15.4844 1.3262 105
-6.578099999999999 -6.0703 -0.9359999999999999 239
-9.7422 -8.9844 1.0791 12
-6.9023 -6.3672 -0.7631999999999999 196
-8.1484 -7.511699999999999 1.1602 209
-7.988300000000001 -7.3711 1.3925999999999998 207
-16.6875 -15.398399999999999 -0.7915000000000001 198
-8.1016 -7.4727 1.6738 78
-16.7188 -15.4297 -0.2651 181
-8.2891 -7.6484000000000005 1.9813999999999998 134
-6.4765999999999995 -5.9375 -1.5419999999999998 211
-16.8906 -15.476600000000001 0.2668 148
-6.4688 -5.9297 -1.3311000000000002 255
-16.8438 -15.4375 0.7959 126
-6.5 -5.957000000000001 -1.1289 89
-16.8906 -15.476600000000001 1.3300999999999998 96
-6.5977 -6.042999999999999 -0.9355 249
-9.7656 -8.9531 1.0791 135
-8.2031 -7.515599999999999 1.165 72
-8.0078 -7.3359000000000005 1.3916 104
-16.7969 -15.3906 -0.7939 3
-8.1484 -7.4688 1.6797 110
-16.8125 -15.398399999999999 -0.2656 184
-8.3047 -7.605499999999999 1.9785 211
-6.4922 -5.9062 -1.54 120
-12.835899999999999 -11.6797 0.20199999999999999 181
-6.4961 -5.9102 -1.3330000000000002 67
-12.8203 -11.664100000000001 0.6035 39
