# .PCD v0.7 - Point Cloud Data file format
VERSION 0.7
FIELDS x y z intensity
SIZE 4 4 4 4
TYPE F F F F
COUNT 1 1 1 1
WIDTH 1226
HEIGHT 1
VIEWPOINT 0 0 0 1 0 0 0
POINTS 1226
DATA ascii
-12.148399999999999 -3.7031 1.6288999999999998 240
-8.9219 -2.7207 1.416 19
-12.093800000000002 -3.6855 2.2207 23
-2.9901999999999997 -0.8998999999999999 -0.5429999999999999 112
-3.0098000000000003 -0.9057999999999999 -0.4729 148
-3.3164 -0.998 0.1191 11
-9.125 -2.7461 0.5518 97
-9.0938 -2.7382999999999997 0.772 86
-12.3594 -3.7188 1.3516 201
-12.164100000000001 -3.6601999999999997 1.6288999999999998 238
-8.9844 -2.7051 1.4247999999999998 104
-12.093800000000002 -3.6406 2.2207 112
-2.9824 -0.8876999999999999 -0.5415 3
-3.0117000000000003 -0.8959999999999999 -0.4727 182
-3.3047000000000004 -0.9834 0.1186 31
-9.1641 -2.7266000000000004 0.5537 134
-9.1094 -2.7108999999999996 0.7729 250
-9.0781 -2.7012 0.9912000000000001 231
-12.1875 -3.625 1.6299000000000001 233
-11.843800000000002 -3.5233999999999996 1.8779 200
-12.093800000000002 -3.5976999999999997 2.2168 106
-2.9805 -0.8759999999999999 -0.5405 120
-3.0195 -0.8876999999999999 -0.47340000000000004 203
-3.293 -0.9678 0.11800000000000001 87
-15.4453 -4.5391 0.9340999999999999 15
-9.1484 -2.6895 0.7748999999999999 123
-9.0625 -2.6641000000000004 0.9883 99
-12.1797 -3.5801 1.6279 207
-11.7969 -3.4668 1.8681999999999999 246
-8.8047 -2.5879000000000003 1.6103999999999998 130
-2.9726999999999997 -0.8618000000000001 -0.5381 162
-3.0214999999999996 -0.8759999999999999 -0.4731 38
-3.2891000000000004 -0.9536 0.1177 150
-9.1797 -2.6620999999999997 0.7773 230
-9.0859 -2.6348000000000003 0.9897 71
-12.164100000000001 -3.5273000000000003 1.624 137
-11.7969 -3.4199 1.8662 82
-12.085899999999999 -3.5039 2.2109 126
-2.9745999999999997 -0.8515999999999999 -0.5381 59
-3.0058999999999996 -0.8599 -0.4702 232
-3.2910000000000004 -0.9419 0.1177 213
-15.4531 -4.4219 1.3096 153
-12.3594 -3.5370999999999997 1.3466999999999998 95
-8.9531 -2.5625 1.1924 168
-8.9062 -2.5488 1.4062000000000001 45
-12.085899999999999 -3.4589999999999996 2.209 99
-2.9824 -0.8412999999999999 -0.5390999999999999 140
-2.9922000000000004 -0.8447 -0.4678 43
-3.2793 -0.9258 0.11720000000000001 69
-15.4922 -4.3711 0.9340999999999999 15
-15.4375 -4.3555 1.3066 57
-9.2891 -2.623 1.0098 176
-8.9688 -2.5312 1.1934 172
-8.9453 -2.5234 1.4102000000000001 97
-12.0781 -3.4101999999999997 2.2051 37
-2.9766000000000004 -0.8291 -0.5376 33
-3.0077999999999996 -0.8373999999999999 -0.46950000000000003 10
-3.2637 -0.9087000000000001 0.1165 189
-16.3594 -4.5547 0.9849 43
-15.4453 -4.3008 1.3056999999999999 174
-9.2891 -2.5858999999999996 1.0088 214
-11.8047 -3.2870999999999997 1.8622999999999998 71
-12.0781 -3.3632999999999997 2.2031 96
-2.9766000000000004 -0.8179000000000001 -0.5366 183
-3.0098000000000003 -0.8276 -0.46950000000000003 90
-3.2812 -0.9023 0.11710000000000001 119
-21.9375 -6.0273 1.3203 153
-15.460899999999999 -4.25 1.3056999999999999 235
-9.2891 -2.5527 1.0078 81
-12.2031 -3.3535000000000004 1.6221 53
-11.8047 -3.2441000000000004 1.8594 43
-12.0781 -3.3183999999999996 2.2012 233
-2.9707 -0.8062 -0.5356000000000001 245
-3.0098000000000003 -0.8164 -0.469 21
-3.2656 -0.8862000000000001 0.1164 47
-20.7344 -5.625 1.2470999999999999 62
-15.460899999999999 -4.1953 1.3047 111
-9.2969 -2.5215 1.0078 93
-12.1953 -3.3086 1.6200999999999999 79
-8.8203 -2.3945 1.3877000000000002 97
-12.0703 -3.2754000000000003 2.1973 220
-2.9707 -0.7944 -0.5347 178
-3.0039 -0.8031999999999999 -0.4678 210
-3.2656 -0.873 0.1162 173
-19.5312 -5.2227 1.1738 8
-15.4531 -4.1328 1.3027000000000002 137
-9.3281 -2.4941 1.0107 127
-12.2031 -3.2637 1.6191 174
-8.9141 -2.3828 1.4003999999999999 212
-12.0625 -3.2266000000000004 2.1953 74
-2.9668 -0.7822 -0.5337 156
-3.0117000000000003 -0.7939 -0.4683 85
-3.2382999999999997 -0.8534999999999999 0.1151 19
-3.2245999999999997 -0.8501000000000001 -0.4233 12
-19.6719 -5.1875 1.1806999999999999 120
-15.4453 -4.0703 1.3008000000000002 165
-9.3594 -2.4688 1.0127 133
-12.1953 -3.2148000000000003 1.6172 116
-9.0625 -2.3887 1.4219 228
-12.093800000000002 -3.1875 2.1973 148
-2.9863 -0.7759 -0.5366 215
-3.0098000000000003 -0.7817000000000001 -0.4678 239
-3.2598000000000003 -0.8467 0.1158 104
-3.1094 -0.8070999999999999 -0.4077 111
-19.8906 -5.167999999999999 1.1934 81
-15.5547 -4.0391 1.3086000000000002 57
-9.375 -2.4355 1.0137 136
-12.218800000000002 -3.1738 1.6191 159
-9.1094 -2.3652 1.4287 69
-8.6797 -2.2559 1.5741999999999998 215
-2.9766000000000004 -0.7622 -0.5342 3
-3.0098000000000003 -0.7705 -0.467 61
-3.2656 -0.8364 0.11599999999999999 74
-3.1074 -0.7954000000000001 -0.4072 184
-12.3828 -3.1699 0.7406999999999999 176
-3.1016000000000004 -0.7944 -0.332 210
-12.398399999999999 -3.1757999999999997 1.042 55
-3.1016000000000004 -0.7939 -0.25780000000000003 174
-9.3984 -2.4062 1.0146 1
-12.2031 -3.125 1.6152000000000002 248
-11.781199999999998 -3.0176 1.8486000000000002 108
-12.0078 -3.0742000000000003 2.1797 34
-2.9629000000000003 -0.7484999999999999 -0.5317000000000001 85
-3.0156 -0.7612000000000001 -0.4678 114
-3.2695 -0.8256999999999999 0.11599999999999999 177
-12.343800000000002 -3.1172000000000004 0.7383 14
-3.1776999999999997 -0.8022 -0.3398 37
-12.3594 -3.1211 1.0381 218
-3.0879000000000003 -0.7798 -0.2566 68
-9.4219 -2.3789 1.0166 123
-3.123 -0.7886 -0.18469999999999998 177
-12.218800000000002 -3.0839999999999996 1.6152000000000002 47
-11.8125 -2.9824 1.8506 241
-11.9297 -3.0117000000000003 2.1621 63
-2.9668 -0.7383 -0.5317000000000001 72
-3.002 -0.7476 -0.4653 149
-3.2598000000000003 -0.8115000000000001 0.1155 54
-12.343800000000002 -3.0723000000000003 0.7373000000000001 250
-3.1191000000000004 -0.7764 -0.3333 203
-12.351600000000001 -3.0762 1.0361 178
-3.0995999999999997 -0.7715000000000001 -0.2571 248
-9.4688 -2.3574 1.0215 219
-12.218800000000002 -3.0410000000000004 1.6143 14
-3.1445 -0.7827 -0.11130000000000001 158
-11.789100000000001 -2.9336 1.8457 34
-11.843800000000002 -2.9492000000000003 2.1445 122
-2.9766000000000004 -0.7290000000000001 -0.5332 163
-2.9901999999999997 -0.7323999999999999 -0.4629 214
-3.2422000000000004 -0.7939 0.11470000000000001 173
-12.351600000000001 -3.0254000000000003 0.7373000000000001 144
-3.1035000000000004 -0.7598 -0.3311 248
-12.343800000000002 -3.0214999999999996 1.0342 221
-3.082 -0.7548999999999999 -0.2556 99
-9.5391 -2.3359 1.0273 93
-12.218800000000002 -2.9922000000000004 1.6122999999999998 30
-11.7969 -2.8887 1.8457 184
-3.1836 -0.7798 -0.0374 92
-11.8125 -2.8926 2.1367 122
-2.9745999999999997 -0.7178 -0.5322 116
-2.998 -0.7231000000000001 -0.4639 61
-3.2441000000000004 -0.7827 0.11470000000000001 213
-12.3906 -2.9882999999999997 0.7387999999999999 60
-3.1327999999999996 -0.7554000000000001 -0.33399999999999996 91
-12.3828 -2.9882999999999997 1.0371 77
-3.1543 -0.7606999999999999 -0.2615 177
-9.6328 -2.3242 1.0371 210
-9.6719 -2.332 1.2744 213
-11.843800000000002 -2.8574 1.8516 8
-9.2031 -2.2188 1.6621000000000001 67
-2.9668 -0.7045999999999999 -0.5303 85
-3.0058999999999996 -0.7139 -0.4648 136
-3.2382999999999997 -0.769 0.1144 8
-12.414100000000001 -2.9492000000000003 0.7397 72
-3.1191000000000004 -0.7406999999999999 -0.3325 203
-12.4844 -2.9648000000000003 1.0439 76
-3.123 -0.7417 -0.2585 19
-12.3828 -2.9414 1.3330000000000002 195
-9.6562 -2.293 1.2705 210
-9.6641 -2.2949 1.5078 20
-9.2109 -2.1875 1.6621000000000001 155
-2.9648000000000003 -0.6934 -0.5293 123
-3.0137 -0.7045999999999999 -0.4653 224
-3.2637 -0.7631999999999999 0.1152 155
-3.0566000000000004 -0.7143999999999999 -0.3982 42
-12.4922 -2.9199 0.7437 212
-3.1074 -0.7265999999999999 -0.3308 100
-13.5 -3.1562 1.1289 237
-3.0938 -0.7236 -0.2559 238
-12.5 -2.9219 1.3447 234
-3.2558999999999996 -0.7612000000000001 -0.19190000000000002 214
-9.6484 -2.2559 1.2695 123
-9.6641 -2.2598 1.5068000000000001 223
-11.7422 -2.7461 2.1191 177
-2.9668 -0.6840999999999999 -0.5293 66
-3.0039 -0.6923999999999999 -0.4636 47
-3.2461 -0.7484999999999999 0.11460000000000001 208
-13.468800000000002 -3.1035000000000004 0.8012999999999999 235
-3.082 -0.7104 -0.32789999999999997 245
-13.476600000000001 -3.1055 1.126 60
-3.1035000000000004 -0.7153 -0.2566 181
-13.468800000000002 -3.1035000000000004 1.4482 60
-9.6719 -2.2305 1.2715 60
-9.6875 -2.2324 1.5088 39
-9.5938 -2.2129 1.7294999999999998 219
-2.9648000000000003 -0.6733 -0.5288 135
-2.9961 -0.6801999999999999 -0.4619 217
-3.2382999999999997 -0.7349 0.11410000000000001 143
-3.0605 -0.6948000000000001 -0.3982 40
-13.4922 -3.0625 0.8022 94
-3.0839999999999996 -0.7001999999999999 -0.32789999999999997 2
-13.460899999999999 -3.0566000000000004 1.124 49
-3.1211 -0.7084999999999999 -0.25780000000000003 100
-13.4922 -3.0625 1.4491999999999998 91
-3.2617000000000003 -0.7402 -0.19190000000000002 31
-9.7188 -2.207 1.5137 116
-9.5859 -2.1758 1.7256 46
-2.9805 -0.6640999999999999 -0.5307999999999999 108
-2.9961 -0.6675 -0.4617 205
-3.2245999999999997 -0.7182999999999999 0.11359999999999999 89
-3.1094 -0.6929000000000001 -0.4043 170
-13.4844 -3.0039 0.8012999999999999 7
-3.0683999999999996 -0.6836 -0.3257 117
-13.4531 -2.998 1.1220999999999999 146
-3.125 -0.6962999999999999 -0.25780000000000003 114
-13.4844 -3.0039 1.4472999999999998 149
-3.1660000000000004 -0.7056 -0.18600000000000003 97
-12.226600000000001 -2.7245999999999997 1.6063999999999998 69
-9.8125 -2.1855 1.5263999999999998 75
-9.5938 -2.1367 1.7256 10
-2.9726999999999997 -0.6509 -0.5293 74
-3.0077999999999996 -0.6581999999999999 -0.4629 254
-3.2422000000000004 -0.71 0.11410000000000001 31
-3.0507999999999997 -0.6679999999999999 -0.3962 73
-13.476600000000001 -2.9512 0.8003 210
-3.1055 -0.6797 -0.3296 200
-13.468800000000002 -2.9492000000000003 1.1220999999999999 217
-3.1151999999999997 -0.6820999999999999 -0.2568 122
-13.460899999999999 -2.9473000000000003 1.4434 55
-12.2656 -2.6855 1.6094 142
-9.8828 -2.1641 1.5361000000000002 97
-9.5781 -2.0977 1.7216999999999998 82
-2.9589999999999996 -0.6386999999999999 -0.5264 40
-3.0039 -0.6484000000000001 -0.4619 110
-3.2539 -0.7021 0.1144 49
-3.0683999999999996 -0.6620999999999999 -0.3982 55
-13.468800000000002 -2.9062 0.7988 70
-3.1191000000000004 -0.6733 -0.3308 189
-13.468800000000002 -2.9082 1.1220999999999999 36
-3.0858999999999996 -0.6659999999999999 -0.25420000000000004 248
-13.476600000000001 -2.9082 1.4443000000000001 55
-3.125 -0.6743000000000001 -0.1833 236
-12.25 -2.6426 1.6063999999999998 100
-12.039100000000001 -2.5995999999999997 1.8721 243
-9.8438 -2.125 1.7675999999999998 236
-2.957 -0.6279 -0.5259 195
-3.002 -0.6377 -0.46140000000000003 20
-3.2324 -0.6865000000000001 0.11359999999999999 53
-3.0702999999999996 -0.6518999999999999 -0.3982 255
-13.460899999999999 -2.8594 0.7983 22
-3.0664 -0.6514 -0.325 36
-13.468800000000002 -2.8594 1.1211 72
-3.1426 -0.6675 -0.2588 251
-13.4844 -2.8632999999999997 1.4443000000000001 30
-3.1543 -0.6698999999999999 -0.18489999999999998 184
-12.2422 -2.5995999999999997 1.6044999999999998 27
-12.085899999999999 -2.5664 1.8769999999999998 55
-9.8828 -2.0996 1.7744 194
-2.9629000000000003 -0.6182 -0.5264 152
-2.9863 -0.623 -0.4587 216
-3.2188 -0.6714 0.113 240
-3.0488 -0.6357 -0.395 20
-13.476600000000001 -2.8105 0.7983 186
-3.0801 -0.6426000000000001 -0.3262 177
-13.4531 -2.8047000000000004 1.1191 242
-3.1191000000000004 -0.6504000000000001 -0.2566 42
-13.476600000000001 -2.8105 1.4424000000000001 161
-3.1406 -0.6553 -0.184 76
-12.2422 -2.5527 1.6035 30
-12.0781 -2.5195 1.875 46
-11.773399999999999 -2.4551 2.1133 21
-2.9648000000000003 -0.6079 -0.5264 188
-3.0 -0.6147 -0.4604 173
-3.2305 -0.6620999999999999 0.1133 206
-3.0077999999999996 -0.6162 -0.38939999999999997 106
-13.531199999999998 -2.7733999999999996 0.8012999999999999 182
-3.0858999999999996 -0.6323 -0.3267 100
-13.531199999999998 -2.7733999999999996 1.125 180
-3.1132999999999997 -0.6377 -0.2559 189
-13.476600000000001 -2.7617000000000003 1.4413999999999998 18
-3.1776999999999997 -0.6514 -0.18600000000000003 70
-12.2656 -2.5117 1.6044999999999998 192
-12.085899999999999 -2.4766 1.874 225
-11.7656 -2.4102 2.1113 108
-2.9629000000000003 -0.5962 -0.5254 203
-3.0039 -0.6045 -0.4607 76
-3.2226999999999997 -0.6489 0.113 172
-3.0839999999999996 -0.6206 -0.3992 34
-13.5625 -2.7285000000000004 0.8022 173
-3.1151999999999997 -0.627 -0.3296 123
-13.5781 -2.7344 1.1279000000000001 203
-3.0995999999999997 -0.624 -0.2546 210
-13.468800000000002 -2.7108999999999996 1.4394999999999998 169
-3.125 -0.6294 -0.18289999999999998 140
-12.25 -2.4648 1.6016 19
-3.1367000000000003 -0.6313 -0.1099 34
-12.093800000000002 -2.4336 1.875 21
-3.2108999999999996 -0.6465000000000001 -0.0374 229
-11.7578 -2.3652 2.1074 67
-2.9531 -0.5835 -0.5234000000000001 73
-3.0077999999999996 -0.5947 -0.4612 50
-3.2129000000000003 -0.6353 0.11259999999999999 46
-13.5703 -2.6816000000000004 0.8022 25
-13.585899999999999 -2.6855 1.1279000000000001 236
-13.4531 -2.6601999999999997 1.4375 177
-3.2812 -0.6484000000000001 -0.19190000000000002 81
-12.2422 -2.4199 1.5996000000000001 94
-3.2305 -0.6382 -0.11320000000000001 29
-12.101600000000001 -2.3926 1.875 250
-3.1973000000000003 -0.6318 -0.037200000000000004 180
-11.7578 -2.3242 2.1055 45
-2.9589999999999996 -0.5737 -0.5239 191
-3.2129000000000003 -0.6235 0.0374 89
-3.0 -0.5820000000000001 -0.4597 235
-3.2363 -0.6279 0.1133 62
-13.5781 -2.6348000000000003 0.8022 40
-13.601600000000001 -2.6387 1.1279000000000001 71
-13.468800000000002 -2.6132999999999997 1.4375 88
-12.2422 -2.375 1.5986000000000002 23
-12.1094 -2.3496 1.874 16
-11.7656 -2.2832 2.1055 83
-2.9688 -0.5649000000000001 -0.5254 192
-2.998 -0.5708 -0.45899999999999996 251
-3.2226999999999997 -0.6133 0.1127 165
-13.593800000000002 -2.5879000000000003 0.8027 141
-13.5781 -2.5858999999999996 1.125 61
-13.468800000000002 -2.5645 1.4365 113
-12.2344 -2.3301 1.5966999999999998 29
-11.851600000000001 -2.2578 1.8330000000000002 167
-11.781199999999998 -2.2441 2.1074 171
-2.9707 -0.5542 -0.5254 81
-3.002 -0.5605 -0.4592 112
-3.2226999999999997 -0.6011 0.1127 74
-13.593800000000002 -2.5371 0.8022 136
-13.593800000000002 -2.5371 1.126 5
-13.468800000000002 -2.5137 1.4355000000000002 114
-12.25 -2.2852 1.5977000000000001 93
-11.851600000000001 -2.2109 1.8311000000000002 41
-11.773399999999999 -2.1973 2.1055 132
-2.957 -0.541 -0.5225 120
-3.0058999999999996 -0.5503 -0.4597 254
-3.2129000000000003 -0.5879 0.11220000000000001 158
-13.585899999999999 -2.4863 0.8012999999999999 221
-13.585899999999999 -2.4863 1.124 193
-13.468800000000002 -2.4648 1.4346 153
-12.2578 -2.2422 1.5977000000000001 223
-11.843800000000002 -2.168 1.8300999999999998 169
-11.773399999999999 -2.1543 2.1016 206
-2.9473000000000003 -0.5293 -0.5205 82
-3.0039 -0.5396 -0.45899999999999996 151
-3.2305 -0.5801 0.1128 195
-13.5781 -2.4375 0.7998000000000001 39
-13.585899999999999 -2.4395 1.124 86
-13.460899999999999 -2.418 1.4325999999999999 27
-12.2422 -2.1973 1.5947 208
-11.8828 -2.1348 1.835 14
-11.773399999999999 -2.1133 2.1016 207
-2.9531 -0.52 -0.521 73
-3.0039 -0.5293 -0.4587 106
-3.2168 -0.5664 0.11220000000000001 161
-13.5703 -2.3906 0.7988 157
-13.5781 -2.3926 1.123 42
-13.4844 -2.375 1.4346 95
-12.25 -2.1582 1.5947 189
-12.093800000000002 -2.1309 1.8662 132
-11.7578 -2.0703 2.0977 45
-2.9589999999999996 -0.5093 -0.522 72
-2.9882999999999997 -0.5146000000000001 -0.4561 67
-3.2305 -0.5562 0.1127 157
-13.5781 -2.3379 0.7988 238
-13.5781 -2.3379 1.1211 219
-13.5 -2.3262 1.4355000000000002 168
-12.2578 -2.1113 1.5947 50
-12.125 -2.0879 1.8691 218
-11.781199999999998 -2.0293 2.1016 115
-2.9608999999999996 -0.4993 -0.5225 49
-3.0 -0.5059 -0.4575 58
-3.2051 -0.5405 0.1117 105
-13.5781 -2.2891 0.7983 132
-13.5703 -2.2871 1.1201 84
-13.5 -2.2773 1.4346 158
-12.25 -2.0664 1.5928 146
-12.093800000000002 -2.0391 1.8633000000000002 218
-11.7656 -1.9834 2.0957 65
-2.957 -0.488 -0.521 219
-3.0039 -0.49560000000000004 -0.4578 80
-3.2266000000000004 -0.5322 0.1124 46
-13.5703 -2.2402 0.7979 219
-13.5703 -2.2402 1.1201 207
-13.5 -2.2266 1.4325999999999999 181
-12.2656 -2.0234 1.5937999999999999 90
-12.101600000000001 -1.9971 1.8633000000000002 137
-11.7656 -1.9413999999999998 2.0957 186
-2.9473000000000003 -0.4758 -0.519 227
-3.0039 -0.4849 -0.4575 77
-3.2129000000000003 -0.5186 0.1118 33
-13.539100000000001 -2.1855 0.7954000000000001 209
-13.5781 -2.1914 1.1191 39
-13.5156 -2.1816 1.4346 42
-12.2578 -1.9794999999999998 1.5918 114
-12.1172 -1.9550999999999998 1.8643 148
-11.7656 -1.8994 2.0938 122
-2.9492000000000003 -0.46659999999999996 -0.519 203
-2.9922000000000004 -0.47340000000000004 -0.45530000000000004 60
-3.2188 -0.5093 0.11199999999999999 216
-13.523399999999999 -2.1406 0.7939 119
-13.4844 -2.1328 1.1113 146
-13.460899999999999 -2.1289 1.4277000000000002 245
-12.25 -1.9385 1.5897999999999999 204
-12.125 -1.9180000000000001 1.8652000000000002 129
-11.75 -1.8594 2.0898 46
-2.9629000000000003 -0.4585 -0.521 134
-2.9882999999999997 -0.46240000000000003 -0.4546 110
-3.1992000000000003 -0.4954 0.11130000000000001 8
-13.4453 -2.082 0.7890999999999999 129
-13.4375 -2.0801 1.1064 86
-13.468800000000002 -2.0859 1.4277000000000002 51
-12.273399999999999 -1.8994 1.5918 209
-12.1094 -1.874 1.8613 53
-11.7578 -1.8203 2.0898 145
-2.9608999999999996 -0.4473 -0.5205 179
-2.9882999999999997 -0.4514 -0.4546 114
-3.2012 -0.4836 0.11130000000000001 185
-13.4531 -2.0332 0.7890999999999999 11
-13.4375 -2.0293 1.1064 128
-13.4453 -2.0312 1.4247999999999998 164
-12.2656 -1.8535 1.5908000000000002 143
-12.101600000000001 -1.8281 1.8603999999999998 120
-11.7578 -1.7763999999999998 2.0898 91
-2.9473000000000003 -0.43479999999999996 -0.5181 49
-2.9901999999999997 -0.4412 -0.4546 55
-3.2266000000000004 -0.47609999999999997 0.1121 27
-13.4453 -1.9824000000000002 0.7881 16
-13.4453 -1.9834 1.1064 232
-13.4375 -1.9813999999999998 1.4228999999999998 209
-12.289100000000001 -1.8125 1.5918 145
-12.101600000000001 -1.7841999999999998 1.8584 59
-11.7656 -1.7353999999999998 2.0898 97
-2.9433999999999996 -0.42310000000000003 -0.5171 188
-3.0039 -0.43189999999999995 -0.45630000000000004 107
-3.2051 -0.4607 0.11130000000000001 161
-13.4219 -1.9297 0.7866 57
-13.4531 -1.9336000000000002 1.1064 48
-13.4453 -1.9325999999999999 1.4228999999999998 233
-12.281199999999998 -1.7656 1.5908000000000002 25
-12.125 -1.7431999999999999 1.8613 61
-11.7422 -1.6885 2.084 220
-2.9512 -0.4138 -0.5181 0
-3.0 -0.4204 -0.45530000000000004 64
-3.1992000000000003 -0.4485 0.111 11
-13.4375 -1.8838 0.7866 222
-13.4375 -1.8838 1.1045 113
-13.4453 -1.8847999999999998 1.4228999999999998 235
-12.2656 -1.7187999999999999 1.5878999999999999 37
-12.1172 -1.6991999999999998 1.8594 27
-11.7422 -1.6465 2.084 198
-2.957 -0.4045 -0.5186 110
-2.9961 -0.4097 -0.4546 248
-3.2207 -0.4404 0.1117 15
-13.4375 -1.8378999999999999 0.7866 212
-13.4375 -1.8378999999999999 1.1035 92
-13.4531 -1.8408000000000002 1.4228999999999998 125
-12.281199999999998 -1.6797 1.5888999999999998 12
-12.1172 -1.6582 1.8584 163
-11.75 -1.6074000000000002 2.084 235
-2.9531 -0.39399999999999996 -0.5181 154
-2.998 -0.40009999999999996 -0.4548 141
-3.1973000000000003 -0.4268 0.1108 3
-13.4453 -1.7938999999999998 0.7866 208
-12.531199999999998 -1.6719 1.0293 152
-12.5 -1.6680000000000001 1.3213 8
-12.281199999999998 -1.6396000000000002 1.5888999999999998 89
-12.1094 -1.6152000000000002 1.8563999999999998 88
-11.7656 -1.5693000000000001 2.0859 63
-2.9433999999999996 -0.38130000000000003 -0.5161 199
-3.0 -0.3887 -0.4548 221
-3.2148000000000003 -0.4165 0.1114 178
-12.5078 -1.6200999999999999 0.731 183
-12.5156 -1.6211000000000002 1.0273 38
-12.5 -1.6191 1.3203 1
-12.273399999999999 -1.5897999999999999 1.5869 149
-12.1172 -1.5693000000000001 1.8563999999999998 186
-11.7578 -1.5234 2.084 254
-2.9414 -0.37060000000000004 -0.5151 56
-2.9941000000000004 -0.3772 -0.4536 90
-3.2226999999999997 -0.406 0.1116 227
-12.5 -1.5752000000000002 0.7304999999999999 74
-12.5 -1.5752000000000002 1.0254 131
-12.3906 -1.5615 1.3086000000000002 67
-12.2656 -1.5449000000000002 1.585 19
-11.9531 -1.5059 1.8311000000000002 122
-11.7344 -1.4775 2.0781 94
-2.9375 -0.3604 -0.5146000000000001 138
-2.9941000000000004 -0.36719999999999997 -0.4536 163
-3.2148000000000003 -0.39399999999999996 0.11130000000000001 57
-12.3906 -1.5194999999999999 0.7236 238
-12.375 -1.5175999999999998 1.0146 207
-12.343800000000002 -1.5137 1.3027000000000002 202
-12.2578 -1.5029 1.5830000000000002 98
-11.8828 -1.4569999999999999 1.8193000000000001 37
-11.7422 -1.4394999999999998 2.0781 104
-2.9473000000000003 -0.35159999999999997 -0.5161 95
-2.9844 -0.3557 -0.4517 35
-3.2148000000000003 -0.3833 0.11130000000000001 69
-12.3125 -1.4687999999999999 0.7188 28
-12.3203 -1.4697 1.0098 19
-12.3125 -1.4678 1.2988 94
-12.2578 -1.4619 1.5830000000000002 99
-11.8906 -1.4180000000000001 1.8193000000000001 173
-11.75 -1.4003999999999999 2.0781 183
-2.9551 -0.3408 -0.5171 26
-2.9961 -0.3455 -0.4534 241
-3.1855 -0.3674 0.11019999999999999 95
-12.2969 -1.4188999999999998 0.7178 41
-12.3047 -1.4188999999999998 1.0078 150
-12.3047 -1.4188999999999998 1.2969 178
-12.2656 -1.415 1.5830000000000002 2
-11.8906 -1.3711000000000002 1.8184 130
-11.7578 -1.3563999999999998 2.0801 135
-2.9414 -0.3289 -0.5146000000000001 178
-2.9922000000000004 -0.3347 -0.4526 62
-3.2012 -0.3582 0.1107 142
-12.289100000000001 -1.374 0.7168000000000001 148
-12.3047 -1.376 1.0078 4
-12.289100000000001 -1.374 1.2949000000000002 53
-12.281199999999998 -1.3730000000000002 1.584 187
-12.093800000000002 -1.3525 1.8486000000000002 60
-11.75 -1.3135 2.0762 69
-2.9375 -0.3186 -0.5136999999999999 116
-3.0077999999999996 -0.3262 -0.4548 67
-3.2031 -0.34740000000000004 0.1107 206
-12.289100000000001 -1.3330000000000002 0.7162999999999999 147
-12.343800000000002 -1.3388999999999998 1.0107 136
-12.3203 -1.3359 1.2978999999999998 114
-12.2578 -1.3291 1.5800999999999998 95
-12.1172 -1.3135 1.8516 190
-11.7344 -1.2734 2.0742 53
-2.9414 -0.3093 -0.5142 236
-2.9941000000000004 -0.3147 -0.4526 111
-3.2051 -0.3369 0.1107 4
-12.3125 -1.2938999999999998 0.7178 177
-12.3594 -1.2997999999999998 1.0117 201
-12.3828 -1.3018 1.3037 153
-12.25 -1.2871000000000001 1.5781 206
-12.1094 -1.2734 1.8506 178
-11.7422 -1.2334 2.0742 188
-2.9551 -0.29960000000000003 -0.5161 136
-2.9863 -0.30269999999999997 -0.4512 96
-3.2089999999999996 -0.32539999999999997 0.1108 242
-12.3594 -1.2539 0.7202 34
-12.4297 -1.2607 1.0166 48
-12.4297 -1.2598 1.3086000000000002 165
-12.2969 -1.2470999999999999 1.584 241
-12.101600000000001 -1.2275 1.8486000000000002 108
-11.7422 -1.1904000000000001 2.0742 172
-2.9629000000000003 -0.2898 -0.5176 167
-2.9766000000000004 -0.2915 -0.4497 253
-3.1875 -0.312 0.11 123
-12.476600000000001 -1.2207 0.7265999999999999 231
-12.4844 -1.2217 1.0215 84
-12.4922 -1.2227 1.3154 251
-12.4297 -1.2168 1.6006 191
-12.101600000000001 -1.1836 1.8466999999999998 219
-11.7578 -1.1504 2.0762 215
-2.9452999999999996 -0.2783 -0.5142 39
-2.9922000000000004 -0.2827 -0.4517 57
-3.1914 -0.3018 0.11019999999999999 63
-12.5 -1.1816 0.728 97
-12.5 -1.1816 1.0215 12
-12.4922 -1.1806999999999999 1.3144999999999998 59
-12.4219 -1.1738 1.5996000000000001 111
-12.101600000000001 -1.1445 1.8477000000000001 107
-11.726600000000001 -1.1084 2.0703 203
-2.9336 -0.2676 -0.5122 141
-3.0 -0.2737 -0.45289999999999997 106
-3.1973000000000003 -0.2915 0.1103 130
-12.476600000000001 -1.1377 0.7265999999999999 178
-12.5 -1.1396 1.0215 242
-12.4922 -1.1387 1.3135 184
-12.476600000000001 -1.1377 1.6063999999999998 107
-12.335899999999999 -1.125 1.8828 46
-11.726600000000001 -1.0693000000000001 2.0684 82
-2.9473000000000003 -0.25730000000000003 -0.5142 255
-2.9824 -0.26030000000000003 -0.45 47
-3.1952999999999996 -0.2791 0.11019999999999999 200
-12.4844 -1.0898 0.7261 202
-12.5 -1.0908 1.0215 222
-12.4922 -1.0908 1.3135 25
-12.468800000000002 -1.0889 1.6044999999999998 133
-12.3672 -1.0801 1.8866999999999998 223
-11.7344 -1.0244 2.0684 80
-2.9433999999999996 -0.24670000000000003 -0.5136999999999999 237
-2.9745999999999997 -0.2493 -0.4487 137
-3.1992000000000003 -0.2681 0.1103 171
-12.4922 -1.0469 0.7265999999999999 118
-12.468800000000002 -1.0449 1.0186 161
-12.4531 -1.0439 1.3096 64
-12.4453 -1.043 1.6006 26
-12.335899999999999 -1.0342 1.8818000000000001 11
-11.75 -0.9843999999999999 2.0703 218
-2.9492000000000003 -0.2373 -0.5142 27
-2.9726999999999997 -0.2391 -0.4482 159
-3.1875 -0.2566 0.1099 91
-12.4453 -1.001 0.7236 94
-12.4453 -1.001 1.0156 28
-12.476600000000001 -1.0039 1.3115 82
-12.4375 -1.001 1.5996000000000001 54
-12.3281 -0.9922 1.8799000000000001 243
-11.7422 -0.9448000000000001 2.0703 9
-2.9375 -0.2266 -0.5122 206
-2.9844 -0.2302 -0.45 121
-3.1914 -0.24609999999999999 0.1099 209
-12.4844 -0.9623999999999999 0.7256 24
-12.4922 -0.9634 1.0195 159
-12.476600000000001 -0.9623999999999999 1.3105000000000002 137
-12.468800000000002 -0.9619 1.6035 193
-12.335899999999999 -0.9512 1.8799000000000001 133
-11.7422 -0.9053 2.0684 226
-2.9395 -0.2158 -0.5122 243
-2.9961 -0.22 -0.4514 237
-3.1855 -0.2339 0.1097 187
-12.4844 -0.9165000000000001 0.7256 214
-12.4922 -0.9175 1.0195 142
-12.4844 -0.9165000000000001 1.3105000000000002 93
-12.468800000000002 -0.9155 1.6025 55
-12.335899999999999 -0.9062 1.8799000000000001 69
-11.718800000000002 -0.8608 2.0645 176
-2.9355 -0.2053 -0.5112 202
-2.9901999999999997 -0.2091 -0.45039999999999997 70
-3.207 -0.2242 0.1104 240
-12.4922 -0.8734999999999999 0.7256 116
-12.4844 -0.873 1.0186 187
-12.4922 -0.873 1.3115 196
-12.468800000000002 -0.8721 1.6025 77
-12.3672 -0.8652 1.8847999999999998 250
-11.726600000000001 -0.8198000000000001 2.0645 144
-2.9433999999999996 -0.1956 -0.5127 112
-2.9707 -0.1974 -0.4475 152
-3.1914 -0.2119 0.1099 176
-12.4922 -0.8295999999999999 0.7256 13
-12.4844 -0.8291 1.0186 9
-12.4922 -0.8295999999999999 1.3115 176
-12.468800000000002 -0.8281000000000001 1.6025 145
-12.4531 -0.8271 1.8965 15
-11.851600000000001 -0.7870999999999999 2.0859 169
-2.9473000000000003 -0.18539999999999998 -0.5132 86
-2.9844 -0.1877 -0.4495 184
-3.1719 -0.1996 0.1092 104
-12.4922 -0.7861 0.7256 172
-12.4844 -0.7852 1.0176 68
-12.4844 -0.7856000000000001 1.3105000000000002 108
-12.4922 -0.7856000000000001 1.6044999999999998 245
-12.398399999999999 -0.7798 1.8877000000000002 33
-12.351600000000001 -0.7768999999999999 2.1738 100
-2.9452999999999996 -0.17550000000000002 -0.5127 214
-2.9844 -0.1779 -0.4495 20
-3.1973000000000003 -0.19039999999999999 0.11 64
-12.4844 -0.7441 0.7251000000000001 193
-12.4922 -0.7441 1.0186 52
-12.476600000000001 -0.7437 1.3096 240
-12.4844 -0.7437 1.6035 113
-12.460899999999999 -0.7426999999999999 1.8975 214
-10.1875 -0.6069 1.7919999999999998 146
-2.9257999999999997 -0.16469999999999999 -0.5093 172
-2.9961 -0.1686 -0.4512 183
-3.1816000000000004 -0.179 0.1094 184
-12.468800000000002 -0.7017 0.7241 117
-12.5 -0.7031000000000001 1.0195 62
-12.476600000000001 -0.7021 1.3096 109
-12.468800000000002 -0.7017 1.6016 218
-12.476600000000001 -0.7021 1.8994 88
-10.2031 -0.5737 1.7938999999999998 158
-2.9355 -0.1543 -0.5107 187
-2.9805 -0.1567 -0.4487 21
-3.1914 -0.1678 0.10980000000000001 24
-12.476600000000001 -0.6557999999999999 0.7241 209
-12.4922 -0.6567000000000001 1.0176 135
-12.4922 -0.6567000000000001 1.3105000000000002 147
-12.460899999999999 -0.6553 1.5996000000000001 34
-12.468800000000002 -0.6557999999999999 1.8975 209
-12.3828 -0.6509 2.1797 177
-2.9452999999999996 -0.1445 -0.5127 90
-2.9707 -0.1458 -0.447 46
-3.1933999999999996 -0.1567 0.1099 57
-12.4844 -0.6128 0.7245999999999999 245
-12.476600000000001 -0.6123 1.0166 154
-12.4922 -0.6133 1.3105000000000002 128
-12.468800000000002 -0.6123 1.6006 161
-12.4844 -0.6128 1.8994 233
-10.2656 -0.5039 1.8047 38
-2.9395 -0.134 -0.5112 42
-2.9766000000000004 -0.13570000000000002 -0.44780000000000003 97
-3.1875 -0.14529999999999998 0.1096 17
-12.476600000000001 -0.5688 0.7241 153
-12.476600000000001 -0.5688 1.0166 145
-12.476600000000001 -0.5688 1.3075999999999999 220
-12.476600000000001 -0.5688 1.6016 212
-12.460899999999999 -0.5679 1.8955000000000002 244
-10.2422 -0.467 1.8008000000000002 24
-2.9375 -0.12369999999999999 -0.5112 248
-2.9922000000000004 -0.126 -0.45020000000000004 33
-3.1836 -0.134 0.1094 191
-12.476600000000001 -0.5249 0.7236 37
-12.4844 -0.5254 1.0166 188
-12.4844 -0.5254 1.3086000000000002 104
-12.476600000000001 -0.5249 1.6006 76
-12.460899999999999 -0.5244 1.8955000000000002 194
-12.375 -0.521 2.1758 144
-2.9276999999999997 -0.113 -0.5093 125
-2.9882999999999997 -0.11539999999999999 -0.4497 36
-3.1855 -0.1229 0.1096 86
-12.476600000000001 -0.4814 0.7236 52
-12.4844 -0.4817 1.0166 143
-12.476600000000001 -0.4814 1.3075999999999999 132
-12.476600000000001 -0.4814 1.6006 55
-12.4844 -0.4817 1.8984 106
-12.375 -0.4775 2.1758 116
-2.9336 -0.10289999999999999 -0.5103 77
-2.9863 -0.1048 -0.449 48
-3.1973000000000003 -0.11220000000000001 0.1099 168
-12.476600000000001 -0.43770000000000003 0.7236 123
-12.4844 -0.43799999999999994 1.0166 239
-12.4922 -0.4385 1.3096 145
-12.460899999999999 -0.43729999999999997 1.5977000000000001 163
-12.4844 -0.43799999999999994 1.8984 246
-12.375 -0.4343 2.1758 124
-2.9414 -0.0934 -0.5112 157
-2.9805 -0.0947 -0.4482 200
-3.1816000000000004 -0.1011 0.1094 217
-12.4844 -0.39649999999999996 0.7236 2
-12.460899999999999 -0.396 1.0146 128
-12.476600000000001 -0.39649999999999996 1.3075999999999999 40
-12.468800000000002 -0.3962 1.5986000000000002 68
-12.468800000000002 -0.3962 1.8955000000000002 140
-12.375 -0.3931 2.1758 108
-2.9355 -0.0836 -0.5103 67
-2.9648000000000003 -0.08439999999999999 -0.4458 119
-3.1738 -0.09029999999999999 0.1091 131
-12.4844 -0.3552 0.7236 246
-12.460899999999999 -0.35450000000000004 1.0146 237
-12.476600000000001 -0.355 1.3075999999999999 242
-12.468800000000002 -0.355 1.5996000000000001 19
-12.460899999999999 -0.35450000000000004 1.8944999999999999 50
-10.0391 -0.28559999999999997 1.7637 109
-2.9276999999999997 -0.0731 -0.5088 206
-2.9668 -0.07400000000000001 -0.446 252
-3.1719 -0.07919999999999999 0.10890000000000001 43
-12.468800000000002 -0.31129999999999997 0.7231000000000001 126
-12.468800000000002 -0.31129999999999997 1.0146 213
-12.476600000000001 -0.3115 1.3075999999999999 211
-12.468800000000002 -0.31129999999999997 1.5986000000000002 96
-12.460899999999999 -0.311 1.8944999999999999 66
-10.0156 -0.25 1.7588 188
-2.9276999999999997 -0.0634 -0.5088 35
-2.9863 -0.0646 -0.449 218
-3.1836 -0.0689 0.1094 5
-12.468800000000002 -0.2698 0.7231000000000001 58
-12.476600000000001 -0.27 1.0156 38
-12.476600000000001 -0.2703 1.3075999999999999 117
-12.468800000000002 -0.2698 1.5986000000000002 42
-12.468800000000002 -0.2698 1.8955000000000002 41
-12.3672 -0.26780000000000004 2.1738 152
-2.9297000000000004 -0.051699999999999996 -0.5093 178
-2.9824 -0.0526 -0.4485 155
-3.1797000000000004 -0.056100000000000004 0.1093 131
-12.4844 -0.22010000000000002 0.7236 230
-12.4844 -0.22 1.0156 154
-12.476600000000001 -0.22 1.3066 112
-12.460899999999999 -0.21960000000000002 1.5977000000000001 42
-12.460899999999999 -0.21960000000000002 1.8936000000000002 156
-12.3672 -0.218 2.1738 144
-2.9414 -0.041100000000000005 -0.5112 129
-2.9707 -0.0415 -0.4465 177
-3.168 -0.044199999999999996 0.10880000000000001 60
-12.476600000000001 -0.17420000000000002 0.7231000000000001 198
-12.468800000000002 -0.1741 1.0146 183
-12.476600000000001 -0.17420000000000002 1.3066 243
-12.4531 -0.174 1.5966999999999998 128
-12.460899999999999 -0.1741 1.8944999999999999 183
-12.375 -0.1729 2.1758 2
-2.9395 -0.0318 -0.5107 162
-2.9766000000000004 -0.0322 -0.4475 26
-3.1797000000000004 -0.0344 0.1093 16
-12.468800000000002 -0.135 0.7231000000000001 72
-12.468800000000002 -0.135 1.0156 148
-12.4844 -0.1351 1.3075999999999999 74
-12.468800000000002 -0.1349 1.5986000000000002 122
-12.460899999999999 -0.1348 1.8936000000000002 235
-12.3906 -0.13419999999999999 2.1777 157
-2.9316000000000004 -0.022000000000000002 -0.5093 84
-2.9901999999999997 -0.022400000000000003 -0.4495 36
-3.1797000000000004 -0.0239 0.1093 17
-12.468800000000002 -0.09359999999999999 0.7227 88
-12.4844 -0.09369999999999999 1.0156 253
-12.460899999999999 -0.0935 1.3056999999999999 123
-12.468800000000002 -0.09359999999999999 1.5986000000000002 136
-12.460899999999999 -0.0935 1.8936000000000002 152
-12.3672 -0.0928 2.1738 78
-2.9199 -0.011200000000000002 -0.5073 222
-2.9805 -0.011399999999999999 -0.44780000000000003 172
-3.1914 -0.0123 0.1097 47
-12.460899999999999 -0.0479 0.7222 118
-12.476600000000001 -0.0479 1.0156 135
-12.468800000000002 -0.0479 1.3056999999999999 30
-12.4531 -0.0478 1.5957 84
-12.468800000000002 -0.0479 1.8944999999999999 202
-12.3672 -0.0475 2.1738 221
-2.9238 -0.001 -0.5078 80
-2.9707 -0.001 -0.4465 18
-3.168 -0.0011 0.10880000000000001 44
-12.4297 -0.0043 0.7206999999999999 87
-12.5 -0.0044 1.0176 23
-12.5547 -0.0044 1.3154 222
-12.4453 -0.0043 1.5957 37
-12.460899999999999 -0.0043 1.8936000000000002 72
-12.3672 -0.0043 2.1738 56
-2.9355 0.0087 -0.5103 117
-2.9608999999999996 0.0088 -0.4451 46
-3.1757999999999997 0.009399999999999999 0.1091 89
-12.5469 0.037200000000000004 1.0215 4
-12.5781 0.0373 1.3174000000000001 157
-12.4531 0.037000000000000005 1.5966999999999998 205
-12.460899999999999 0.037000000000000005 1.8944999999999999 132
-12.3672 0.036699999999999997 2.1738 158
-2.9433999999999996 0.018500000000000003 -0.5112 169
-2.9707 0.0187 -0.4465 250
-3.1836 0.02 0.1094 69
-12.5625 0.0789 0.7284999999999999 45
-12.5781 0.079 1.0244 216
-12.718800000000002 0.0799 1.3319999999999999 154
-12.468800000000002 0.0783 1.5986000000000002 215
-12.460899999999999 0.0783 1.8936000000000002 98
-12.3828 0.07780000000000001 2.1758 149
-2.9219 0.0296 -0.5078 164
-2.9922000000000004 0.030299999999999997 -0.4497 54
-3.168 0.0321 0.10880000000000001 139
-12.710899999999999 0.12869999999999998 0.7368000000000001 162
-12.7578 0.1292 1.0391 191
-12.7578 0.1292 1.3369 148
-12.460899999999999 0.1261 1.5977000000000001 121
-12.460899999999999 0.1261 1.8936000000000002 59
-12.351600000000001 0.1251 2.1719 37
-2.9101999999999997 0.039599999999999996 -0.5059 47
-2.9824 0.0406 -0.4485 245
-3.1757999999999997 0.0432 0.1091 117
-12.726600000000001 0.1732 0.7378 161
-12.7656 0.17379999999999998 1.0391 91
-12.7656 0.17379999999999998 1.3378999999999999 21
-12.4531 0.1696 1.5966999999999998 203
-12.460899999999999 0.1697 1.8936000000000002 245
-12.343800000000002 0.1681 2.1699 191
-2.9257999999999997 0.0496 -0.5088 114
-2.9668 0.050199999999999995 -0.446 194
-3.1719 0.0537 0.10890000000000001 0
-12.75 0.2159 0.7393000000000001 6
-12.7578 0.2161 1.0391 175
-12.773399999999999 0.2163 1.3388999999999998 194
-12.4453 0.2107 1.5957 90
-12.468800000000002 0.2112 1.8955000000000002 112
-12.3594 0.20920000000000002 2.1719 233
-2.9257999999999997 0.0593 -0.5088 185
-2.9726999999999997 0.0602 -0.447 196
-3.168 0.0641 0.10880000000000001 49
-12.7656 0.2585 0.7402 148
-12.7578 0.2583 1.0381 117
-12.7656 0.2585 1.3369 176
-12.4531 0.2522 1.5977000000000001 224
-12.460899999999999 0.2522 1.8936000000000002 2
-12.3594 0.2502 2.1719 33
-2.9355 0.0702 -0.5103 49
-2.9844 0.07139999999999999 -0.4487 218
-3.1757999999999997 0.0759 0.1091 218
-12.718800000000002 0.3042 0.7378 95
-12.75 0.3049 1.0381 41
-12.7578 0.30519999999999997 1.3369 242
-12.460899999999999 0.2981 1.5977000000000001 1
-12.4453 0.29760000000000003 1.8916 24
-12.3594 0.2954 2.1719 8
-2.9257999999999997 0.0802 -0.5088 246
-2.9882999999999997 0.0819 -0.4495 153
-3.1875 0.0873 0.1096 63
-12.726600000000001 0.3489 0.7383 121
-12.7656 0.34990000000000004 1.0391 224
-12.75 0.3494 1.3359 229
-12.4531 0.34130000000000005 1.5966999999999998 133
-12.4375 0.3408 1.8906 253
-12.3594 0.3386 2.1719 216
-2.9219 0.0898 -0.5078 111
-2.9901999999999997 0.0919 -0.4497 188
-3.1660000000000004 0.0973 0.10880000000000001 218
-12.7344 0.3914 0.7387999999999999 223
-12.7656 0.3921 1.0391 184
-12.7578 0.3921 1.3369 54
-12.4531 0.3826 1.5966999999999998 179
-12.4531 0.3826 1.8936000000000002 132
-12.335899999999999 0.37920000000000004 2.1699 86
-2.9199 0.09939999999999999 -0.5078 58
-2.9745999999999997 0.1013 -0.4473 60
-3.1895 0.10859999999999999 0.1097 227
-12.7422 0.4338 0.7393000000000001 245
-12.7578 0.4343 1.0391 41
-12.75 0.4341 1.3359 48
-12.4453 0.4236 1.5957 66
-12.4453 0.4238 1.8925999999999998 207
-12.343800000000002 0.4202 2.1699 64
-2.9316000000000004 0.1105 -0.5097999999999999 80
-2.9805 0.1124 -0.4485 91
-3.1776999999999997 0.1199 0.1093 131
-12.7344 0.4802 0.7387999999999999 156
-12.75 0.48100000000000004 1.0391 74
-12.7656 0.4814 1.3378999999999999 86
-12.4453 0.46950000000000003 1.5966999999999998 32
-12.4453 0.46950000000000003 1.8925999999999998 102
-12.343800000000002 0.4656 2.1719 236
-2.9276999999999997 0.1207 -0.5093 29
-2.9805 0.1229 -0.4485 41
-3.1699 0.1306 0.10890000000000001 27
-12.710899999999999 0.5239 0.7378 165
-12.7422 0.5254 1.0381 52
-12.7578 0.5259 1.3378999999999999 13
-12.4453 0.5127 1.5966999999999998 161
-12.4375 0.5127 1.8916 203
-12.3594 0.5093 2.1738 123
-2.9257999999999997 0.1309 -0.5088 156
-2.9805 0.1333 -0.4485 218
-3.168 0.1417 0.10890000000000001 42
-12.7422 0.5698 0.7397 1
-12.7656 0.5708 1.04 224
-12.7422 0.5698 1.3359 36
-12.4453 0.5566 1.5977000000000001 84
-12.4297 0.5557 1.8906 173
-12.351600000000001 0.5522 2.1738 226
-2.918 0.1406 -0.5078 242
-2.9844 0.1438 -0.449 22
-3.1797000000000004 0.1533 0.1094 16
-12.7031 0.6123 0.7373000000000001 236
-12.7578 0.6147 1.0391 121
-12.75 0.6147 1.3369 109
-12.4453 0.5996 1.5966999999999998 90
-12.4453 0.6001 1.8936000000000002 137
-12.343800000000002 0.5952000000000001 2.1719 198
-2.9257999999999997 0.1508 -0.5088 232
-2.9707 0.1532 -0.4473 225
-3.1797000000000004 0.1638 0.1094 255
-12.718800000000002 0.6553 0.7383 229
-12.75 0.6572 1.0391 211
-12.7344 0.6562 1.3359 111
-12.4297 0.6406000000000001 1.5957 97
-12.4531 0.6416 1.8944999999999999 202
-12.351600000000001 0.6362 2.1738 81
-2.9395 0.1613 -0.5117 46
-2.9629000000000003 0.16260000000000002 -0.446 24
-3.168 0.17370000000000002 0.10890000000000001 3
-3.2051 0.17579999999999998 -0.4075 158
-12.7422 0.6987000000000001 0.7397 144
-12.7422 0.6992 1.0391 18
-12.7578 0.6997 1.3388999999999998 4
-12.4375 0.6826000000000001 1.5977000000000001 206
-12.4375 0.6826000000000001 1.8936000000000002 157
-12.343800000000002 0.6772 2.1738 11
-2.9355 0.1724 -0.5112 78
-2.9745999999999997 0.1747 -0.44780000000000003 56
-3.1699 0.1862 0.1091 7
-12.7422 0.748 0.7402 161
-12.7422 0.748 1.0391 201
-12.7422 0.748 1.3369 98
-12.4453 0.731 1.5986000000000002 58
-12.4297 0.7295 1.8916 204
-12.343800000000002 0.7245999999999999 2.1738 148
-2.9316000000000004 0.18239999999999998 -0.5103 198
-2.9863 0.1858 -0.4497 101
-3.1543 0.1962 0.10859999999999999 196
-12.710899999999999 0.7909999999999999 0.7383 50
-12.7578 0.7939 1.041 117
-12.7422 0.7929999999999999 1.3369 60
-12.460899999999999 0.7754000000000001 1.6006 194
-12.4219 0.7729 1.8916 27
-12.3281 0.7670999999999999 2.1719 156
-2.918 0.1913 -0.5083 17
-2.9766000000000004 0.19519999999999998 -0.4485 207
-3.1660000000000004 0.2075 0.10890000000000001 207
-12.710899999999999 0.833 0.7383 133
-12.7344 0.835 1.0391 9
-12.585899999999999 0.8247 1.3213 248
-12.4531 0.8164 1.5996000000000001 89
-12.4375 0.8154 1.8944999999999999 229
-12.3281 0.8081 2.1719 143
-2.9297000000000004 0.2018 -0.5103 234
-2.9766000000000004 0.205 -0.4485 100
-3.1836 0.2194 0.1097 99
-12.5625 0.8652 0.73 110
-12.5469 0.8637999999999999 1.0234 4
-12.539100000000001 0.8637999999999999 1.3163999999999998 229
-12.4531 0.8579000000000001 1.6006 254
-12.4453 0.8569 1.8955000000000002 9
-12.335899999999999 0.8495999999999999 2.1738 94
-2.9238 0.212 -0.5093 8
-2.9589999999999996 0.2147 -0.446 241
-3.1641000000000004 0.2296 0.10890000000000001 162
-3.3281 0.2415 -0.4236 195
-12.5156 0.9077 0.7271 217
-12.5078 0.9077 1.0205 73
-12.531199999999998 0.9092 1.3163999999999998 241
-12.460899999999999 0.9043000000000001 1.6016 127
-12.4297 0.9018999999999999 1.8936000000000002 39
-12.343800000000002 0.8959999999999999 2.1758 126
-2.9219 0.2223 -0.5093 65
-2.9629000000000003 0.2253 -0.4465 111
-3.1719 0.2412 0.1093 9
-3.1289 0.23800000000000002 -0.3982 42
-12.5156 0.9521 0.7275 111
-12.5078 0.9517 1.0215 52
-12.5156 0.9521 1.3154 234
-12.476600000000001 0.9487000000000001 1.6035 220
-12.4219 0.9448000000000001 1.8936000000000002 115
-12.343800000000002 0.9390000000000001 2.1758 153
-2.9219 0.2325 -0.5093 92
-2.9785000000000004 0.2369 -0.449 218
-3.1855 0.2534 0.10980000000000001 56
-3.1289 0.2489 -0.3982 205
-12.5156 0.9956 0.7275 110
-12.5078 0.9951000000000001 1.0215 218
-12.5078 0.9951000000000001 1.3135 131
-12.468800000000002 0.9922 1.6035 172
-12.4297 0.9893000000000001 1.8955000000000002 0
-12.335899999999999 0.9814 2.1738 29
-2.9082 0.24170000000000003 -0.5073 6
-2.9824 0.24789999999999998 -0.45 255
-3.1875 0.26489999999999997 0.1099 116
-3.1797000000000004 0.2642 -0.4048 38
-12.5 1.0381 0.7271 145
-12.5156 1.04 1.0225 88
-12.5078 1.0391 1.3144999999999998 211
-12.460899999999999 1.0361 1.6035 107
-12.4297 1.0332 1.8955000000000002 137
-12.335899999999999 1.0254 2.1758 227
-2.9199 0.2529 -0.5093 134
-2.9824 0.2583 -0.45 211
-3.1797000000000004 0.2754 0.1097 141
-3.127 0.2708 -0.3982 196
-12.5 1.083 0.7275 69
-12.5156 1.084 1.0225 43
-12.5547 1.0879 1.3203 245
-12.468800000000002 1.0801 1.6044999999999998 51
-12.4375 1.0771 1.8975 30
-3.1797000000000004 0.2754 -0.0364 170
-12.3203 1.0674 2.1738 223
-2.9316000000000004 0.2642 -0.5112 17
-3.168 0.28559999999999997 0.0363 184
-2.9688 0.2676 -0.4482 72
-3.1836 0.2869 0.10980000000000001 221
-3.0702999999999996 0.2766 -0.3911 213
-12.523399999999999 1.1279000000000001 0.7284999999999999 8
-12.6797 1.1426 1.0361 56
-12.7344 1.1475 1.3397999999999999 192
-12.460899999999999 1.123 1.6044999999999998 91
-3.1406 0.2832 -0.10830000000000001 42
-12.4219 1.1201 1.8955000000000002 124
-3.1426 0.2832 -0.036000000000000004 194
-12.343800000000002 1.1123 2.1777 225
-2.9297000000000004 0.27390000000000003 -0.5112 237
-2.9668 0.2773 -0.44780000000000003 206
-3.1699 0.2964 0.1094 9
-3.0098000000000003 0.2812 -0.3833 117
-12.539100000000001 1.1719 0.7304999999999999 150
-3.0507999999999997 0.2852 -0.31739999999999996 135
-12.726600000000001 1.1895 1.041 60
-3.0332 0.2834 -0.2451 48
-12.726600000000001 1.1895 1.3388999999999998 251
-3.0918 0.2891 -0.17800000000000002 147
-12.468800000000002 1.166 1.6055000000000001 219
-3.1406 0.29350000000000004 -0.10830000000000001 253
-12.4219 1.1611 1.8955000000000002 52
-3.1776999999999997 0.29710000000000003 -0.0364 210
-12.335899999999999 1.1533 2.1777 218
-2.9199 0.2827 -0.5097999999999999 233
-2.9805 0.28859999999999997 -0.45020000000000004 60
-3.1776999999999997 0.30760000000000004 0.1097 248
-2.998 0.2903 -0.3818 137
-12.4453 1.2051 0.7251000000000001 213
-3.0332 0.2937 -0.3157 37
-12.7344 1.2324 1.041 194
-3.0351999999999997 0.2939 -0.2455 94
-12.7344 1.2324 1.3397999999999999 254
-3.0976999999999997 0.3 -0.17850000000000002 255
-12.476600000000001 1.208 1.6074000000000002 158
-3.1757999999999997 0.3074 -0.1096 59
-12.4219 1.2021 1.8965 46
-3.1776999999999997 0.30760000000000004 -0.0364 114
-12.3281 1.1934 2.1758 195
-2.9120999999999997 0.2922 -0.5088 151
-2.9745999999999997 0.2986 -0.4495 19
-3.1601999999999997 0.3171 0.1091 29
-2.9922000000000004 0.3003 -0.38130000000000003 228
-12.5 1.2539 0.728 28
-3.0293 0.304 -0.3154 211
-12.7422 1.2783 1.042 228
-3.0156 0.3025 -0.2438 196
-12.718800000000002 1.2764 1.3388999999999998 66
-3.0781 0.30879999999999996 -0.1772 51
-12.468800000000002 1.251 1.6063999999999998 255
-3.1308999999999996 0.31420000000000003 -0.1081 56
-12.4219 1.2461 1.8975 52
-3.1757999999999997 0.3186 -0.0364 146
-12.3281 1.2373 2.1777 169
-2.9160000000000004 0.30219999999999997 -0.5093 165
-2.9688 0.3079 -0.4487 130
-3.1719 0.3289 0.1096 39
-2.9961 0.3105 -0.3818 174
-12.5 1.2959 0.7284999999999999 1
-3.0293 0.314 -0.3154 102
-12.726600000000001 1.3203 1.042 32
-3.0254000000000003 0.31370000000000003 -0.24480000000000002 173
-12.726600000000001 1.3203 1.3408000000000002 223
-3.0370999999999997 0.31489999999999996 -0.17489999999999997 62
-12.460899999999999 1.2919999999999998 1.6063999999999998 106
-3.1855 0.33030000000000004 -0.11 118
-12.4219 1.2881 1.8984 159
-3.1738 0.32909999999999995 -0.0364 32
-12.3281 1.2783 2.1777 138
-2.9257999999999997 0.3147 -0.5112 167
-2.9745999999999997 0.3201 -0.4497 118
-3.1660000000000004 0.3406 0.1094 187
-2.9882999999999997 0.3215 -0.3811 255
-12.5 1.3447 0.7284999999999999 129
-3.0254000000000003 0.32539999999999997 -0.3152 211
-12.7031 1.3672 1.04 19
-3.0195 0.325 -0.2445 112
-12.726600000000001 1.3691 1.3408000000000002 34
-3.0918 0.3325 -0.1782 198
-12.460899999999999 1.3408000000000002 1.6063999999999998 218
-3.1327999999999996 0.3369 -0.1082 177
-12.414100000000001 1.335 1.8975 180
-3.1738 0.34130000000000005 -0.0364 247
-12.3203 1.3252000000000002 2.1777 179
-2.9316000000000004 0.3259 -0.5127 4
-2.9707 0.3301 -0.4495 132
-3.1719 0.3525 0.1097 247
-2.9844 0.33149999999999996 -0.3809 175
-12.4844 1.3866999999999998 0.728 37
-3.0254000000000003 0.33590000000000003 -0.3152 214
-12.726600000000001 1.4141 1.042 60
-3.0117000000000003 0.3345 -0.2438 27
-12.718800000000002 1.4131 1.3408000000000002 64
-3.0469 0.33840000000000003 -0.1757 89
-12.468800000000002 1.3857 1.6084 8
-3.1504000000000003 0.35009999999999997 -0.10890000000000001 146
-12.414100000000001 1.3788999999999998 1.8984 198
-3.1719 0.3525 -0.0364 52
-12.335899999999999 1.3700999999999999 2.1816 144
-2.9199 0.3342 -0.5107 76
-2.9805 0.3411 -0.4509 92
-3.1836 0.3643 0.1101 64
-2.9901999999999997 0.3423 -0.38159999999999994 151
-12.5 1.4316 0.7295 90
-3.0332 0.3472 -0.3164 56
-12.7344 1.4569999999999999 1.043 129
-3.0176 0.3455 -0.2445 139
-12.718800000000002 1.4561000000000002 1.3408000000000002 56
-3.0605 0.3503 -0.1765 148
-12.4844 1.4297 1.6113 214
-3.1367000000000003 0.3591 -0.1085 19
-12.4219 1.4219 1.8994 59
-3.1074 0.3557 -0.035699999999999996 255
-12.3203 1.4102000000000001 2.1797 164
-2.9160000000000004 0.34380000000000005 -0.5103 196
-2.9844 0.35159999999999997 -0.4517 68
-3.1816000000000004 0.375 0.1101 168
-2.9882999999999997 0.3521 -0.38159999999999994 81
-12.5 1.4727000000000001 0.7295 67
-3.0176 0.3557 -0.31489999999999996 184
-12.7344 1.501 1.0439 125
-3.0526999999999997 0.35960000000000003 -0.24739999999999998 255
-12.718800000000002 1.4980000000000002 1.3408000000000002 119
-3.0233999999999996 0.35619999999999996 -0.1744 198
-12.476600000000001 1.4697 1.6103999999999998 39
-3.1483999999999996 0.37079999999999996 -0.10890000000000001 229
-12.4219 1.4638999999999998 1.9003999999999999 201
-3.1699 0.3735 -0.0364 2
-12.3203 1.4512 2.1797 86
-2.9101999999999997 0.353 -0.5093 8
-2.9785000000000004 0.3616 -0.4512 195
-3.168 0.3845 0.1097 237
-2.9941000000000004 0.36329999999999996 -0.3823 53
-12.375 1.5019999999999998 0.7227 238
-12.7031 1.5419999999999998 1.042 155
-3.0233999999999996 0.3669 -0.2451 249
-12.718800000000002 1.5438999999999998 1.3428 247
-3.0469 0.3696 -0.1759 17
-12.468800000000002 1.5137 1.6103999999999998 156
-3.1387 0.3809 -0.10859999999999999 136
-12.4219 1.5078 1.9022999999999999 32
-3.168 0.3845 -0.0364 132
-12.3203 1.4961000000000002 2.1816 32
-2.9316000000000004 0.3657 -0.5136999999999999 99
-2.9824 0.3721 -0.4517 172
-3.1601999999999997 0.39399999999999996 0.1094 55
-3.0098000000000003 0.37549999999999994 -0.3848 83
-12.5156 1.5605000000000002 0.731 161
-3.0077999999999996 0.37520000000000003 -0.314 182
-12.7031 1.585 1.042 1
-3.0214999999999996 0.377 -0.2451 168
-12.726600000000001 1.5878999999999999 1.3437999999999999 70
-3.0449 0.3799 -0.1759 235
-12.468800000000002 1.5547 1.6103999999999998 28
-3.1660000000000004 0.3948 -0.1096 169
-12.406199999999998 1.5478999999999998 1.9003999999999999 73
-3.168 0.395 -0.0364 190
-12.3203 1.5361000000000002 2.1816 198
-2.9141000000000004 0.37450000000000006 -0.5107 235
-2.957 0.3799 -0.4482 153
-3.1699 0.4072 0.10980000000000001 59
-2.9844 0.3833 -0.38159999999999994 84
-12.5469 1.6113 0.7329000000000001 137
-3.0273000000000003 0.3889 -0.3164 69
-12.718800000000002 1.6338 1.0439 231
-3.0332 0.3896 -0.24609999999999999 177
