# .PCD v0.7 - Point Cloud Data file format
VERSION 0.7
FIELDS x y z intensity
SIZE 4 4 4 4
TYPE F F F F
COUNT 1 1 1 1
WIDTH 1371
HEIGHT 1
VIEWPOINT 0 0 0 1 0 0 0
POINTS 1371
DATA ascii
-5.0938 5.9297 -1.3711000000000002 181
-5.8164 6.7734000000000005 -1.3544999999999998 26
-51.25 59.6875 2.7461 186
-6.7422 7.8477 -1.3252000000000002 173
-51.1875 59.5938 4.5664 129
-8.0156 9.3359 -1.2891 15
-51.125 59.5 6.4062 0
-9.6484 11.2344 -1.2061 156
-11.8672 13.8125 -1.0566 237
-15.656199999999998 18.2344 -0.8373999999999999 62
-5.0664 5.9414 -1.3691 28
-5.7890999999999995 6.7852 -1.3535 77
-50.875 59.6562 2.7363 127
-6.707000000000001 7.863300000000001 -1.3232 60
-50.8438 59.5938 4.5547 190
-7.984400000000001 9.3594 -1.2891 5
-50.7188 59.4688 6.3789 230
-9.6016 11.25 -1.2041 58
-11.8203 13.8594 -1.0566 49
-15.531199999999998 18.2188 -0.8340000000000001 127
-18.7969 22.0312 -0.3379 178
-5.043 5.957000000000001 -1.3691 169
-25.3594 29.9531 0.45799999999999996 100
-5.7422 6.7773 -1.3477000000000001 17
-50.5 59.6562 2.7285000000000004 211
-6.675800000000001 7.8828 -1.3232 229
-50.4688 59.5938 4.5391 203
-7.949199999999999 9.3828 -1.2881 84
-50.4062 59.5312 6.3672 117
-9.5625 11.2969 -1.2051 56
-11.781199999999998 13.914100000000001 -1.0576 116
-15.4844 18.2812 -0.835 217
-18.6875 22.0781 -0.33740000000000003 32
-5.0156 5.9648 -1.3672 188
-5.7188 6.800800000000001 -1.3477000000000001 204
-50.1562 59.6562 2.7188 136
-6.625 7.875 -1.3184 213
-50.0938 59.5625 4.5234 3
-7.9140999999999995 9.4141 -1.2881 120
-50.0 59.4688 6.3438 165
-9.5234 11.3281 -1.2051 82
-11.718800000000002 13.9375 -1.0566 144
-15.468800000000002 18.3906 -0.8373999999999999 253
-18.5 22.0 -0.33520000000000005 231
-4.9883 5.9727 -1.3643 91
-5.6953 6.8203 -1.3486000000000002 131
-49.8125 59.625 2.7108999999999996 93
-6.605499999999999 7.9102 -1.3203 117
-49.75 59.5625 4.5117 2
-7.875 9.4297 -1.2861000000000002 97
-49.625 59.4062 6.3203 213
-9.4844 11.351600000000001 -1.2041 29
-11.6875 13.9922 -1.0576 15
-15.4219 18.4688 -0.8384 201
-18.3594 21.9844 -0.3342 158
-4.9688 5.988300000000001 -1.3652000000000002 242
-5.675800000000001 6.8398 -1.3486000000000002 243
-49.4688 59.6562 2.7051 117
-6.5703 7.917999999999999 -1.3184 73
-49.4062 59.5312 4.5 78
-7.8398 9.4531 -1.2861000000000002 81
-49.2812 59.4062 6.3047 200
-9.4297 11.3672 -1.2031 70
-11.6172 14.0 -1.0556999999999999 187
-15.3281 18.4688 -0.8364 53
-18.2656 22.0156 -0.3337 58
-4.9492 6.0078 -1.3652000000000002 214
-5.644500000000001 6.8515999999999995 -1.3466999999999998 150
-49.125 59.625 2.6952999999999996 72
-6.5390999999999995 7.9414 -1.3174000000000001 202
-49.0312 59.5 4.4844 200
-7.800800000000001 9.4688 -1.2852000000000001 126
-48.9688 59.4375 6.2852 144
-9.3906 11.406199999999998 -1.2031 59
-11.593800000000002 14.0703 -1.0576 156
-15.3125 18.5781 -0.8389 7
-18.1562 22.0469 -0.33299999999999996 114
-4.9258 6.019500000000001 -1.3643 128
-5.609400000000001 6.855499999999999 -1.3447 120
-48.7188 59.5625 2.6855 156
-6.5 7.9453 -1.3154 1
-48.6875 59.5 4.4727 80
-7.7578 9.4844 -1.2832 4
-48.625 59.4375 6.269500000000001 80
-9.3516 11.4297 -1.2021 37
-11.531199999999998 14.101600000000001 -1.0576 65
-15.273399999999999 18.6719 -0.8408 63
-17.9531 21.9375 -0.3306 144
-4.8906 6.0234000000000005 -1.3603999999999998 206
-5.5977 6.890599999999999 -1.3477000000000001 146
-48.4062 59.5938 2.6797000000000004 81
-6.4688 7.9648 -1.3144999999999998 118
-48.3438 59.5 4.457 129
-7.7265999999999995 9.5078 -1.2832 51
-48.2812 59.4062 6.25 73
-9.3125 11.468800000000002 -1.2031 233
-20.2812 24.9688 3.375 210
-11.4844 14.1406 -1.0576 113
-15.210899999999999 18.7188 -0.8403 80
-17.8125 21.9375 -0.3296 190
-4.8672 6.0312 -1.3584 46
-5.574199999999999 6.9062 -1.3466999999999998 209
-48.0625 59.5625 2.6719 14
-6.4453 7.984400000000001 -1.3144999999999998 79
-47.9688 59.4688 4.4414 157
-7.6836 9.5234 -1.2812000000000001 68
-47.9062 59.375 6.2265999999999995 181
-9.2734 11.4922 -1.2031 104
-20.2812 25.125 3.3887 108
-11.4375 14.1719 -1.0566 169
-15.148399999999999 18.7656 -0.8403 175
-17.6719 21.9062 -0.3281 107
-4.8438 6.0547 -1.3603999999999998 36
-5.5352 6.9140999999999995 -1.3437999999999999 181
-47.6875 59.5938 2.6641000000000004 66
-6.4023 8.0 -1.3125 183
-47.5938 59.5 4.4297 4
-7.644500000000001 9.5469 -1.2812000000000001 203
-47.5 59.375 6.207000000000001 151
-9.2422 11.5469 -1.2041 197
-20.2812 25.3438 3.4062 105
-11.3828 14.226600000000001 -1.0576 54
-15.0625 18.8281 -0.8403 174
-17.5469 21.9219 -0.3274 133
-4.8203 6.0664 -1.3584 218
-22.9219 28.8594 0.4302 93
-5.4961 6.917999999999999 -1.3408000000000002 226
-47.3125 59.5625 2.6543 221
-6.3789 8.0312 -1.3135 56
-47.25 59.5 4.418 244
-7.5938 9.5625 -1.2783 66
-47.1875 59.4062 6.1914 1
-9.1719 11.5469 -1.2002 243
-19.6719 24.7656 3.3183999999999996 240
-11.335899999999999 14.273399999999999 -1.0576 218
-15.0078 18.8906 -0.8408 202
-18.8906 23.7812 4.625 148
-17.4062 21.9219 -0.3264 250
-4.8047 6.0859000000000005 -1.3603999999999998 1
-5.484400000000001 6.949199999999999 -1.3428 222
-47.0 59.5312 2.6464999999999996 82
-6.3359000000000005 8.0234 -1.3096 146
-46.9375 59.4688 4.4062 28
-7.5625 9.5781 -1.2783 232
-46.875 59.375 6.175800000000001 254
-9.1328 11.5703 -1.2002 34
-19.7344 25.0 3.3438 104
-11.2969 14.3125 -1.0586 204
-14.9922 18.9844 -0.8432999999999999 53
-18.4219 23.3281 4.5273 102
-17.2969 21.9062 -0.32539999999999997 108
-4.7695 6.0859000000000005 -1.3563999999999998 198
-5.4453 6.9453 -1.3397999999999999 85
-46.6875 59.5625 2.6406 5
-6.300800000000001 8.0391 -1.3075999999999999 66
-46.625 59.4688 4.3945 1
-7.5390999999999995 9.6172 -1.2803 138
-18.4531 23.5312 2.4395 213
-9.0859 11.585899999999999 -1.1982 134
-19.6562 25.0781 3.3438 125
-11.2578 14.351600000000001 -1.0586 203
-18.9062 24.125 3.9375 168
-14.906199999999998 19.0156 -0.8418000000000001 99
-18.8438 24.0312 4.6523 53
-17.1562 21.8906 -0.32420000000000004 0
-4.75 6.105499999999999 -1.3563999999999998 110
-5.4336 6.984400000000001 -1.3428 115
-46.3125 59.5312 2.6327999999999996 218
-6.269500000000001 8.0547 -1.3075999999999999 176
-46.25 59.4062 4.3789 134
-7.4727 9.6016 -1.2744 230
-18.7656 24.1094 2.4922 68
-9.0469 11.625 -1.1992 223
-19.4375 24.9844 3.3223000000000003 167
-11.156199999999998 14.343800000000002 -1.0547 21
-18.8438 24.2188 3.9414 201
-14.898399999999999 19.1406 -0.8452 107
-18.6875 24.0156 4.6328 152
-17.0469 21.9062 -0.3237 219
-4.7266 6.1172 -1.3555000000000001 30
-5.390599999999999 6.9765999999999995 -1.3378999999999999 110
-46.0 59.5312 2.625 146
-6.238300000000001 8.0781 -1.3075999999999999 238
-45.9062 59.4062 4.3672 34
-7.4453 9.6328 -1.2754 219
-18.6875 24.1875 2.4922 187
-8.9922 11.6406 -1.1982 54
-19.3594 25.0625 3.3242000000000003 129
-11.1328 14.414100000000001 -1.0566 87
-18.7344 24.2344 3.9355 13
-14.7578 19.1094 -0.8412999999999999 69
-16.9062 21.875 -0.3225 236
-4.6953 6.1211 -1.3525 250
-5.359400000000001 6.988300000000001 -1.3359 123
-6.2109000000000005 8.0938 -1.3066 131
-45.5938 59.4375 4.3555 254
-7.4023 9.6484 -1.2734 221
-18.5938 24.2344 2.4922 216
-8.9375 11.656199999999998 -1.1963 95
-18.9844 24.7656 3.2754000000000003 132
-11.101600000000001 14.468800000000002 -1.0586 132
-17.6562 23.0156 3.7266000000000004 67
-14.726600000000001 19.2031 -0.8432999999999999 215
-17.75 23.1406 4.4414 91
-16.7969 21.8906 -0.3218 172
-4.6797 6.144500000000001 -1.3544999999999998 216
-5.3359000000000005 7.0078 -1.3369 249
-6.175800000000001 8.1094 -1.3056999999999999 172
-45.25 59.4375 4.3438 234
-7.363300000000001 9.6719 -1.2725 27
-18.5156 24.3125 2.4922 4
-8.8906 11.6719 -1.1943000000000001 4
-18.9531 24.8906 3.2832 198
-11.0156 14.468800000000002 -1.0556999999999999 167
-17.5625 23.0625 3.7245999999999997 129
-14.6953 19.2969 -0.8452 247
-17.625 23.1406 4.4297 193
-16.6406 21.8594 -0.3206 255
-4.6523 6.1562 -1.3535 18
-5.3086 7.0234000000000005 -1.3359 170
-6.1328 8.1094 -1.3027000000000002 5
-44.9062 59.4062 4.332 54
-7.3398 9.7109 -1.2744 160
-18.2031 24.0938 2.4629 248
-8.8438 11.7031 -1.1943000000000001 101
-18.9688 25.0938 3.3026999999999997 196
-10.968800000000002 14.5078 -1.0556999999999999 81
-17.8906 23.6562 3.8086 172
-14.664100000000001 19.3906 -0.8472 230
-17.6094 23.2969 4.4453 233
-16.5156 21.8594 -0.3196 224
-4.625 6.1640999999999995 -1.3516 45
-5.2852 7.042999999999999 -1.3359 205
-6.1015999999999995 8.1328 -1.3018 191
-44.5938 59.4062 4.3164 240
-7.2773 9.6953 -1.2695 96
-44.5312 59.3438 6.0586 116
-8.7969 11.718800000000002 -1.1934 108
-18.9844 25.2812 3.3183999999999996 11
-10.914100000000001 14.539100000000001 -1.0547 5
-17.8125 23.7344 3.8125 117
-14.601600000000001 19.4531 -0.8477 148
-17.9062 23.8594 4.543 151
-16.4062 21.875 -0.3188 239
-4.6016 6.175800000000001 -1.3506 135
-5.25 7.042999999999999 -1.3330000000000002 198
-6.074199999999999 8.1484 -1.3018 86
-44.25 59.4062 4.3086 1
-7.2265999999999995 9.7031 -1.2666 168
-44.1562 59.25 6.0312 68
-8.75 11.7422 -1.1924 183
-17.8906 24.0156 3.1426 88
-10.8906 14.6094 -1.0576 6
-17.7656 23.8438 3.8183999999999996 166
-14.523399999999999 19.4844 -0.8472 167
-17.9219 24.0469 4.5664 77
-16.2969 21.875 -0.3181 57
-4.582 6.1953 -1.3516 145
-5.2188 7.0547 -1.3311000000000002 214
-6.0312 8.1562 -1.2997999999999998 135
-43.9062 59.3438 4.293 62
-7.199199999999999 9.7344 -1.2676 55
-43.8438 59.2812 6.019500000000001 134
-8.6953 11.7578 -1.1914 18
-17.5469 23.7188 3.0976999999999997 58
-10.851600000000001 14.664100000000001 -1.0586 208
-18.2656 24.6875 3.9433999999999996 115
-14.4375 19.5156 -0.8462000000000001 200
-16.1719 21.8594 -0.3171 84
-4.5586 6.2109000000000005 -1.3516 28
-5.1836 7.0625 -1.3291 117
-21.1875 28.8594 1.248 244
-5.988300000000001 8.1562 -1.2959 128
-43.5938 59.375 4.2852 200
-7.1523 9.7344 -1.2656 109
-43.5312 59.3125 6.0039 40
-8.6406 11.773399999999999 -1.1895 103
-17.3125 23.5781 3.0702999999999996 53
-10.773399999999999 14.6719 -1.0566 32
-18.25 24.8438 3.9608999999999996 62
-14.406199999999998 19.6094 -0.8481000000000001 88
-17.8438 24.2969 4.5898 169
-16.0312 21.8281 -0.3159 241
-4.5273 6.2109000000000005 -1.3477000000000001 48
-5.1523 7.0703 -1.3271000000000002 249
-21.0 28.7969 1.2431999999999999 189
-5.953099999999999 8.1719 -1.2949000000000002 185
-43.2812 59.3438 4.2695 117
-7.113300000000001 9.7578 -1.2646 21
-17.9219 24.5938 2.4824 117
-8.6094 11.8125 -1.1904000000000001 21
-17.3125 23.75 3.0839999999999996 26
-10.7344 14.726600000000001 -1.0576 213
-18.1875 24.9375 3.9648000000000003 242
-14.3125 19.625 -0.8467 59
-17.8438 24.4688 4.6133 26
-15.906199999999998 21.8125 -0.31489999999999996 221
-4.4961 6.2109000000000005 -1.3447 191
-5.1289 7.082000000000001 -1.3271000000000002 198
-20.8438 28.7812 1.2393 96
-5.9297 8.1953 -1.2949000000000002 199
-42.9688 59.3438 4.2617 159
-7.0703 9.7656 -1.2627 139
-17.7969 24.5781 2.4746 22
-8.5859 11.8594 -1.1924 231
-17.2188 23.7969 3.082 60
-10.664100000000001 14.7344 -1.0556999999999999 95
-18.1562 25.0781 3.9766000000000004 56
-14.2422 19.6875 -0.8467 93
-17.8125 24.6094 4.625 28
-15.914100000000001 21.9844 -0.31670000000000004 152
-4.4727 6.2227 -1.3437999999999999 230
-5.0938 7.0859000000000005 -1.3241999999999998 44
-20.7031 28.7969 1.2363 107
-5.894500000000001 8.1953 -1.2930000000000001 225
-42.6562 59.3438 4.25 90
-7.0390999999999995 9.7969 -1.2627 180
-17.7188 24.6406 2.4766 14
-8.5312 11.8672 -1.1895 74
-17.1406 23.8438 3.082 70
-10.6172 14.773399999999999 -1.0556999999999999 167
-17.4062 24.2188 3.832 179
-14.1953 19.75 -0.8477 13
-17.6875 24.6094 4.6172 7
-15.718800000000002 21.875 -0.314 231
-4.457 6.25 -1.3457 233
-5.0664 7.1015999999999995 -1.3241999999999998 102
-20.625 28.9062 1.2383 65
-5.8711 8.2266 -1.2949000000000002 168
-42.3125 59.3438 4.2383 28
-6.9961 9.8047 -1.2617 44
-18.5781 26.0469 2.6094 20
-8.4922 11.898399999999999 -1.1904000000000001 64
-17.4219 24.4219 3.1483999999999996 35
-10.5625 14.8047 -1.0556999999999999 126
-17.2031 24.125 3.8066000000000004 217
-14.2031 19.9062 -0.8521 106
-17.5312 24.5781 4.5977 34
-15.585899999999999 21.8438 -0.313 163
-4.4258 6.2539 -1.3437999999999999 36
-5.043 7.125 -1.3241999999999998 10
-20.5625 29.0312 1.2402 58
-5.824199999999999 8.2266 -1.291 69
-42.0312 59.3438 4.2266 202
-6.953099999999999 9.8203 -1.2598 171
-41.9062 59.1875 5.921900000000001 170
-8.4375 11.9219 -1.1895 242
-17.2656 24.3906 3.1367000000000003 103
-10.5469 14.898399999999999 -1.0595999999999999 8
-17.1094 24.1562 3.8026999999999997 105
-14.1094 19.9219 -0.8506 23
-17.1875 24.2812 4.5312 198
-15.5 21.8906 -0.3127 204
-4.4062 6.269500000000001 -1.3437999999999999 129
-5.0234 7.144500000000001 -1.3252000000000002 4
-20.4531 29.0938 1.2402 64
-5.7812 8.2266 -1.2881 178
-41.6875 59.3125 4.2148 161
-6.9102 9.8359 -1.2588 160
-41.6562 59.25 5.9140999999999995 76
-8.3828 11.9297 -1.1875 249
-17.1406 24.3906 3.1289 141
-10.476600000000001 14.906199999999998 -1.0576 93
-14.093800000000002 20.0469 -0.8540000000000001 157
-17.0938 24.3125 4.5273 90
-4.3672 6.2578 -1.3378999999999999 68
-5.0 7.167999999999999 -1.3262 93
-20.375 29.2188 1.2422 161
-5.7578 8.2578 -1.2891 135
-41.375 59.2812 4.2031 46
-6.8672 9.8438 -1.2568000000000001 227
-18.6406 26.7188 2.6582 133
-8.3359 11.9531 -1.1865 78
-17.0156 24.3906 3.1211 62
-10.398399999999999 14.906199999999998 -1.0547 137
-16.4219 23.5469 3.6875 21
-14.023399999999999 20.1094 -0.8540000000000001 95
-16.9531 24.3125 4.5117 178
-15.2031 21.7969 -0.3098 10
-4.3477 6.2773 -1.3388999999999998 161
-4.9531 7.1484000000000005 -1.3193000000000001 201
-20.3594 29.3906 1.2461 112
-5.730499999999999 8.2734 -1.2891 99
-41.0938 59.3125 4.1953 221
-6.824199999999999 9.8516 -1.2549 125
-18.5312 26.75 2.6543 97
-8.2891 11.968800000000002 -1.1855 245
-17.0312 24.5781 3.1387 12
-10.343800000000002 14.9375 -1.0547 172
-16.3125 23.5625 3.6816000000000004 220
-13.960899999999999 20.1562 -0.8540000000000001 180
-16.9062 24.4062 4.5195 1
-15.1094 21.8125 -0.3093 218
-16.5312 23.875 5.1133 213
-4.3242 6.2890999999999995 -1.3378999999999999 237
-4.9531 7.199199999999999 -1.3262 100
-20.2969 29.5 1.248 101
-5.699199999999999 8.2812 -1.2881 212
-6.7890999999999995 9.875 -1.2549 39
-17.8125 25.8906 2.5645 160
-8.2578 12.0 -1.1865 163
-16.9688 24.6719 3.1426 36
-10.343800000000002 15.031199999999998 -1.0586 188
-16.3594 23.7812 3.707 103
-13.8594 20.1562 -0.8521 14
-16.8438 24.5 4.5273 202
-15.0078 21.8281 -0.30879999999999996 74
-16.4688 23.9375 5.1172 19
-4.3047 6.3086 -1.3388999999999998 97
-4.8984 7.175800000000001 -1.3184 91
-20.25 29.6562 1.252 114
-5.6562 8.2891 -1.2852000000000001 84
-40.5 59.3125 4.1758 147
-6.7539 9.8906 -1.2539 191
-17.7188 25.9531 2.5625 199
-8.2109 12.031199999999998 -1.1865 106
-16.9219 24.7969 3.1504000000000003 244
-10.273399999999999 15.0547 -1.0576 12
-16.3281 23.9219 3.7207 217
-13.789100000000001 20.2031 -0.8521 55
-16.4844 24.1562 4.4531 42
-14.898399999999999 21.8281 -0.3081 30
-16.3438 23.9375 5.1016 126
-4.2734 6.3047 -1.3359 246
-4.8906 7.2148 -1.3222999999999998 68
-20.2031 29.7969 1.2559 2
-5.625 8.2969 -1.2841999999999998 205
-16.9062 24.9531 1.751 66
-6.7148 9.9062 -1.2529000000000001 73
-17.7344 26.1562 2.5781 222
-8.1797 12.0703 -1.1875 226
-16.875 24.8906 3.1562 63
-10.2109 15.0703 -1.0566 81
-15.9922 23.5938 3.6601999999999997 66
-13.7656 20.3125 -0.855 77
-16.5781 24.4531 4.4961 189
-14.7969 21.8281 -0.3074 68
-16.3281 24.0938 5.125 229
-4.25 6.3203 -1.335 22
-4.8633 7.230499999999999 -1.3222999999999998 87
-20.1719 30.0 1.2607 60
-5.6015999999999995 8.3281 -1.2861000000000002 21
-16.75 24.9062 1.7441 134
-6.6836 9.9375 -1.2539 233
-17.625 26.2031 2.5762 32
-8.1328 12.093800000000002 -1.1865 92
-16.4219 24.4062 3.0879000000000003 8
-10.1797 15.1328 -1.0586 127
-15.8828 23.625 3.6562 67
-13.6797 20.3438 -0.8540000000000001 67
-15.7422 23.4062 4.2969 8
-14.6953 21.8594 -0.3071 19
-16.2969 24.2344 5.144500000000001 136
-4.2266 6.3359000000000005 -1.3359 18
-4.832 7.238300000000001 -1.3203 100
-20.1562 30.2031 1.2656 249
-5.5625 8.3359 -1.2832 247
-16.6406 24.9375 1.7412 26
-6.640599999999999 9.9531 -1.2529000000000001 227
-17.375 26.0312 2.5527 87
-8.0859 12.1094 -1.1855 59
-15.4219 23.1094 2.9141000000000004 72
-10.1406 15.1953 -1.0605 84
-16.7188 25.0625 3.8691000000000004 214
-13.6094 20.3906 -0.8545 78
-15.6719 23.4844 4.2969 88
-14.6172 21.8906 -0.3069 128
-16.3125 24.4375 5.175800000000001 243
-4.207 6.3515999999999995 -1.3359 63
-4.7891 7.230499999999999 -1.3163999999999998 207
-20.1562 30.4219 1.2725 105
-5.5390999999999995 8.3594 -1.2841999999999998 20
-16.5469 24.9844 1.7412 239
-6.605499999999999 9.9766 -1.2529000000000001 182
-17.4219 26.2969 2.5723000000000003 89
-8.0547 12.164100000000001 -1.1875 172
-15.2969 23.0938 2.9062 154
-10.0625 15.1953 -1.0576 189
-16.0938 24.2969 3.7441000000000004 254
-13.5469 20.4531 -0.855 247
-15.5078 23.4062 4.2734 65
-14.5547 21.9688 -0.3071 194
-14.914100000000001 22.5156 4.7539 96
-4.1836 6.359400000000001 -1.335 191
-4.7656 7.25 -1.3163999999999998 181
-5.5 8.3672 -1.2822 50
-16.625 25.2812 1.7578 230
-6.5664 9.9922 -1.252 7
-16.4531 25.0312 2.4434 75
-7.984400000000001 12.148399999999999 -1.1836 6
-15.2422 23.1875 2.9120999999999997 102
-10.0312 15.2578 -1.0595999999999999 7
-16.7344 25.4688 3.9141000000000004 43
-13.4297 20.4375 -0.8521 227
-15.375 23.3906 4.2617 196
-14.5156 22.0781 -0.3081 37
-16.2656 24.7344 5.2109000000000005 107
-4.1562 6.3711 -1.334 119
-19.8438 30.4219 0.4238 105
-4.7422 7.269500000000001 -1.3163999999999998 90
-5.457000000000001 8.3672 -1.2793 100
-16.25 24.9062 1.7275 3
-6.5312 10.0078 -1.251 64
-16.2812 24.9531 2.4297 118
-7.925800000000001 12.148399999999999 -1.1816 27
-15.156199999999998 23.2344 2.9120999999999997 41
-9.9531 15.2578 -1.0576 119
-15.3594 23.5469 3.6113 122
-13.3828 20.5156 -0.8534999999999999 153
-14.6875 22.5156 4.0938 214
-14.476600000000001 22.1875 -0.30879999999999996 172
-16.1875 24.7969 5.2148 15
-4.1211 6.3672 -1.3300999999999998 124
-19.7812 30.5625 0.42479999999999996 242
-4.7148 7.2852 -1.3163999999999998 189
-5.4297 8.3906 -1.2803 73
-16.1406 24.9219 1.7256 248
-6.484400000000001 10.0156 -1.249 207
-16.2188 25.0625 2.4355 245
-7.890599999999999 12.1875 -1.1816 250
-15.1172 23.3438 2.918 252
-9.9219 15.3281 -1.0595999999999999 35
-17.0156 26.2812 4.0234 30
-13.335899999999999 20.5938 -0.855 165
-15.1406 23.375 4.2422 203
-14.468800000000002 22.3594 -0.3105 203
-16.1719 24.9688 5.238300000000001 252
-4.1094 6.390599999999999 -1.3319999999999999 214
-19.75 30.7188 0.4263 115
-4.6836 7.2852 -1.3144999999999998 144
-5.394500000000001 8.3906 -1.2773 127
-16.0781 25.0156 1.7275 169
-6.4453 10.0312 -1.248 124
-15.406199999999998 23.9688 2.3242 116
-7.8359000000000005 12.1953 -1.1806999999999999 177
-15.835899999999999 24.6406 3.0723000000000003 210
-9.8672 15.351600000000001 -1.0595999999999999 49
-15.1406 23.5625 3.5976999999999997 157
-13.2422 20.6094 -0.8534999999999999 164
-15.101600000000001 23.5 4.2539 74
-14.476600000000001 22.5156 -0.3123 39
-14.585899999999999 22.6875 4.75 206
-4.0859 6.4062 -1.3319999999999999 173
-19.6875 30.8594 0.42700000000000005 56
-4.6523 7.2890999999999995 -1.3115 219
-16.0 25.0781 1.0371 127
-5.3672 8.4141 -1.2783 122
-6.4140999999999995 10.0469 -1.248 227
-15.2578 23.9062 2.3125 73
-7.7812 12.1953 -1.1777 224
-15.7969 24.75 3.082 44
-9.8203 15.3906 -1.0595999999999999 133
-16.5156 25.8906 3.9452999999999996 0
-13.2031 20.6875 -0.855 4
-14.6797 23.0156 4.1562 224
-14.460899999999999 22.6719 -0.3135 120
-14.5547 22.8125 4.7656 117
-4.0586 6.4140999999999995 -1.3311000000000002 28
-15.773399999999999 24.9219 0.344 31
-4.6289 7.3164 -1.3135 51
-15.718800000000002 24.8281 1.0244 138
-5.328099999999999 8.4219 -1.2764 91
-15.5781 24.6094 1.6913999999999998 234
-6.3711 10.0703 -1.248 236
-14.898399999999999 23.5312 2.2715 144
-7.7422 12.2344 -1.1787 215
-14.7422 23.2969 2.8926 242
-9.7891 15.468800000000002 -1.0625 155
-14.8906 23.5312 3.5762 55
-13.1328 20.75 -0.8554999999999999 192
-14.210899999999999 22.4531 4.043 144
-14.4375 22.8125 -0.31489999999999996 210
-14.460899999999999 22.8438 4.7578 61
-4.0312 6.421900000000001 -1.3291 6
-15.648399999999999 24.9062 0.34299999999999997 29
-4.6016 7.328099999999999 -1.3135 109
-15.6172 24.8594 1.0234 164
-5.2890999999999995 8.4219 -1.2734 211
-15.5 24.6875 1.6934 120
-6.332000000000001 10.0859 -1.2470999999999999 208
-14.75 23.4844 2.2617 45
-7.6953 12.25 -1.1777 237
-14.726600000000001 23.4531 2.9062 62
-9.7266 15.4844 -1.0615 139
-14.8594 23.6562 3.5879000000000003 35
-13.039100000000001 20.75 -0.8540000000000001 192
-14.1797 22.5781 4.0586 31
-14.4453 23.0 -0.3169 158
-14.4453 23.0 4.7812 145
-4.0039 6.425800000000001 -1.3271000000000002 254
-15.6094 25.0469 0.3442 215
-4.5742 7.3359000000000005 -1.3115 161
-15.5547 24.9531 1.0254 165
-5.2578 8.4375 -1.2734 222
-36.9062 59.1875 4.0547 126
-6.2890999999999995 10.0938 -1.2451 1
-14.718800000000002 23.6094 2.2695 144
-7.6640999999999995 12.2969 -1.1797 159
-14.585899999999999 23.4062 2.8945 61
-9.6484 15.4844 -1.0586 244
-15.656199999999998 25.125 3.8026999999999997 205
-13.039100000000001 20.9219 -0.8593999999999999 115
-14.1953 22.7812 4.0859 126
-14.414100000000001 23.125 4.7969 208
-3.9824 6.4414 -1.3271000000000002 9
-19.5312 31.5938 0.43329999999999996 241
-4.5391 7.3398 -1.3096 120
-15.5469 25.1406 1.0303 239
-5.2227 8.4453 -1.2715 69
-36.625 59.2188 4.0469 71
-6.2578 10.1172 -1.2461 181
-14.6953 23.7656 2.2773 31
-7.5898 12.273399999999999 -1.1748 144
-14.6719 23.7188 2.9276999999999997 137
-9.6016 15.531199999999998 -1.0595999999999999 192
-15.585899999999999 25.2188 3.8066000000000004 154
-13.0156 21.0625 -0.8628 100
-13.9453 22.5469 4.0352 26
-14.5469 23.5156 4.8672 109
-3.9629000000000003 6.457000000000001 -1.3291 101
-19.4688 31.7344 0.4346 79
-4.5039 7.3438 -1.3066 124
-5.1914 8.4609 -1.2715 215
-36.3125 59.1875 4.0391 156
-6.2109000000000005 10.125 -1.2441 19
-14.625 23.8281 2.2812 53
-7.550800000000001 12.3047 -1.1758 37
-14.7422 24.0312 2.9589999999999996 154
-9.5625 15.585899999999999 -1.0615 195
-15.4297 25.1562 3.7910000000000004 109
-13.8906 22.6406 4.043 9
-14.156199999999998 23.0781 4.7656 176
-3.9395 6.4727 -1.3291 61
-4.4922 7.3828 -1.3115 208
-5.1562 8.4688 -1.2705 194
-36.0625 59.25 4.0312 84
-6.171900000000001 10.1406 -1.2431999999999999 193
-16.5781 27.2344 2.6016000000000004 64
-7.511699999999999 12.335899999999999 -1.1758 162
-14.3281 23.5469 2.8926 57
-9.4844 15.585899999999999 -1.0586 194
-15.5 25.4688 3.8301 171
-12.875 21.1406 -0.8628 60
-13.9453 22.9062 4.082 245
-14.3203 23.5312 4.8516 187
-3.9101999999999997 6.4765999999999995 -1.3262 97
-19.4531 32.1875 0.439 170
-4.4609 7.386699999999999 -1.3096 229
-5.1133 8.4688 -1.2666 151
-15.218800000000002 25.1875 1.71 90
-6.1289 10.1484 -1.2412 177
-16.5469 27.4062 2.6113 8
-7.449199999999999 12.335899999999999 -1.1729 93
-14.226600000000001 23.5625 2.8887 20
-9.4609 15.664100000000001 -1.0615 169
-15.1875 25.1562 3.7733999999999996 108
-12.781199999999998 21.1719 -0.8618000000000001 252
-13.843800000000002 22.9219 4.0781 243
-14.1719 23.4688 4.8281 113
-3.8789 6.4727 -1.3232 108
-19.3438 32.2812 0.43920000000000003 71
-4.4336 7.3984000000000005 -1.3086000000000002 66
-5.0859 8.4922 -1.2676 219
-15.1328 25.25 1.71 28
-6.1015999999999995 10.1797 -1.2431999999999999 105
-7.4140999999999995 12.375 -1.1748 141
-14.125 23.5781 2.8848000000000003 48
-9.3828 15.664100000000001 -1.0595999999999999 160
-14.1797 23.6719 3.543 196
-12.7344 21.2656 -0.8637999999999999 87
-13.7578 22.9688 4.0742 154
-13.968800000000002 23.3125 4.7852 163
-3.8613 6.4961 -1.3252000000000002 130
-19.3438 32.5625 0.44189999999999996 72
-4.4062 7.4140999999999995 -1.3086000000000002 7
-5.0586 8.5078 -1.2676 229
-6.050800000000001 10.1797 -1.2402 146
-14.101600000000001 23.7188 2.25 144
-7.375 12.406199999999998 -1.1758 123
-14.414100000000001 24.2344 2.9589999999999996 111
-9.3516 15.7344 -1.0625 75
-15.093800000000002 25.3906 3.793 23
-12.7031 21.3594 -0.8662000000000001 156
-13.710899999999999 23.0625 4.0859 100
-13.9375 23.4531 4.8008 86
-3.8379000000000003 6.5078 -1.3252000000000002 116
-4.375 7.421900000000001 -1.3066 201
-5.0195 8.5078 -1.2656 190
-14.0781 23.875 1.6094 234
-6.0 10.1797 -1.2373 135
-7.3125 12.398399999999999 -1.1719 60
-15.5 26.2812 3.2031 242
-9.2812 15.7344 -1.0595999999999999 19
-15.1719 25.7188 3.8358999999999996 80
-12.656199999999998 21.4531 -0.8682 184
-13.3906 22.7031 4.0117 111
-13.9844 23.7188 4.8477 108
-3.8183999999999996 6.5234000000000005 -1.3252000000000002 59
-4.3438 7.421900000000001 -1.3047 204
-14.1172 24.125 0.9741 39
-4.9805 8.5078 -1.2627 135
-14.0781 24.0625 1.6191 145
-5.9765999999999995 10.2109 -1.2393 119
-14.101600000000001 24.0938 2.2754 84
-7.2578 12.398399999999999 -1.1699 77
-15.3828 26.2812 3.1973000000000003 195
-9.2188 15.7578 -1.0595999999999999 43
-13.7578 23.5 3.498 81
-13.4453 22.9688 4.0508 142
-14.1328 24.1562 -0.3264 58
-13.476600000000001 23.0312 4.6992 53
-3.7891000000000004 6.5234000000000005 -1.3222999999999998 97
-4.3242 7.4414 -1.3056999999999999 6
-4.9453 8.5156 -1.2607 208
-14.0781 24.25 1.6288999999999998 242
-5.9375 10.2188 -1.2373 13
-7.2265999999999995 12.4453 -1.1719 102
-15.3594 26.4375 3.2089999999999996 224
-9.1406 15.7344 -1.0556999999999999 72
-13.6797 23.5625 3.498 216
-12.5078 21.5312 -0.8682 61
-13.289100000000001 22.875 4.0273 95
-13.3906 23.0469 4.6914 233
-3.7539 6.519500000000001 -1.3193000000000001 126
-4.3008 7.4648 -1.3066 235
-4.9102 8.5312 -1.2607 61
-14.0547 24.4062 1.6357 179
-5.890599999999999 10.2266 -1.2354 42
-7.175800000000001 12.460899999999999 -1.1709 203
-15.4453 26.8125 3.248 13
-9.0859 15.773399999999999 -1.0566 163
-14.5625 25.2812 3.748 194
-12.539100000000001 21.7812 -0.8755 52
-13.25 23.0 4.0391 0
-13.0625 22.6719 4.6055 5
-3.7324 6.5312 -1.3193000000000001 139
-4.2656 7.4648 -1.3047 73
-4.8828 8.5469 -1.2607 195
-5.8398 10.2188 -1.2324 213
-14.6953 25.7188 2.416 54
-7.1289 12.476600000000001 -1.1699 234
-15.031199999999998 26.3125 3.1797000000000004 48
-9.0156 15.781199999999998 -1.0547 253
-14.468800000000002 25.3281 3.7461 7
-12.476600000000001 21.8438 -0.8765000000000001 129
-13.601600000000001 23.8125 4.1758 81
-13.023399999999999 22.7969 4.6211 251
-3.7148000000000003 6.5547 -1.3213 177
-4.2305 7.4648 -1.3018 34
-4.8477 8.5547 -1.2588 111
-5.800800000000001 10.2344 -1.2314 73
-14.593800000000002 25.75 2.4141 216
-7.078099999999999 12.4922 -1.1689 14
-14.914100000000001 26.3281 3.1757999999999997 114
-8.9688 15.8281 -1.0556999999999999 241
-14.5547 25.6875 3.7910000000000004 12
-13.4844 23.7969 4.1641 60
-13.5 23.8125 4.8203 26
-3.6952999999999996 6.574199999999999 -1.3222999999999998 241
-4.2109 7.4922 -1.3037 77
-33.25 59.1562 2.3672 98
-4.8164 8.5703 -1.2588 229
-33.25 59.125 3.9433999999999996 44
-5.761699999999999 10.25 -1.2305 255
-7.0352 12.5156 -1.1689 181
-14.835899999999999 26.3906 3.1776999999999997 113
-8.9141 15.8594 -1.0556999999999999 216
-14.3828 25.5781 3.7695 9
-12.273399999999999 21.8438 -0.873 116
-13.273399999999999 23.6094 4.125 241
-12.898399999999999 22.9375 4.6328 209
-3.6641000000000004 6.5703 -1.3193000000000001 232
-4.1836 7.5078 -1.3037 247
-4.7773 8.5625 -1.2559 100
-32.9375 59.0625 3.9336 47
-5.7265999999999995 10.273399999999999 -1.2314 98
-14.601600000000001 26.1875 2.4453 61
-6.980499999999999 12.5156 -1.167 213
-8.8516 15.875 -1.0547 100
-14.2422 25.5469 3.7577999999999996 42
-12.2656 22.0 -0.8774 135
-13.1875 23.6562 4.125 160
-12.8281 23.0 4.6367 140
-3.6348000000000003 6.574199999999999 -1.3163999999999998 56
-4.1484 7.5039 -1.3008000000000002 14
-4.7461 8.5859 -1.2559 9
-32.6875 59.125 3.9276999999999997 197
-5.675800000000001 10.2656 -1.2285 206
-14.5078 26.2344 2.4453 74
-6.9375 12.5469 -1.168 16
-14.1172 25.5312 3.0625 211
-8.7812 15.8828 -1.0537 23
-14.1094 25.5156 3.7461 236
-13.156199999999998 23.7969 4.1406 157
-12.7578 23.0781 4.6406 44
-3.6172000000000004 6.5938 -1.3193000000000001 198
-4.1172 7.5039 -1.2988 215
-4.7148 8.5938 -1.2559 69
-32.375 59.0625 3.9160000000000004 73
-5.6328 10.273399999999999 -1.2266 182
-6.8789 12.5469 -1.165 143
-14.1797 25.8594 3.0957 198
-8.7344 15.9297 -1.0547 215
-13.9453 25.4219 3.7245999999999997 173
-13.0781 23.8594 4.1406 142
-13.1406 23.9531 4.8125 210
-3.5938 6.609400000000001 -1.3193000000000001 204
-4.0898 7.5234000000000005 -1.2988 182
-4.6875 8.6172 -1.2559 118
-32.125 59.0625 3.9101999999999997 109
-5.605499999999999 10.3047 -1.2285 123
-6.8359000000000005 12.5703 -1.165 24
-8.6641 15.9375 -1.0527 172
-13.7969 25.3594 3.7089999999999996 186
-13.0 23.9062 4.1445 186
-13.023399999999999 23.9531 4.8008 146
-3.5702999999999996 6.6211 -1.3193000000000001 202
-4.0586 7.5234000000000005 -1.2969 60
-4.6445 8.6094 -1.2529000000000001 111
-31.8281 59.0312 3.8983999999999996 227
-5.5625 10.3125 -1.2275 89
-14.7578 27.3594 2.5352 30
-6.7812 12.5781 -1.1631 45
-13.710899999999999 25.4219 3.0312 19
-8.625 15.9844 -1.0537 164
-13.7422 25.4844 3.7188 18
-12.9453 24.0 4.1523 138
-12.9453 24.0 4.8008 82
-3.5469 6.6328 -1.3193000000000001 180
-4.0391 7.550800000000001 -1.2988 236
-4.6133 8.625 -1.2529000000000001 47
-31.6094 59.0938 3.8964999999999996 234
-5.5273 10.335899999999999 -1.2275 180
-14.656199999999998 27.4062 2.5352 191
-6.738300000000001 12.601600000000001 -1.1631 51
-13.5625 25.3594 3.0176 164
-8.5391 15.960899999999999 -1.0508 25
-13.6719 25.5625 3.7245999999999997 205
-13.9297 26.0469 4.4961 114
-3.5156 6.6289 -1.3154 100
-4.0156 7.5664 -1.2997999999999998 172
-4.5859 8.6406 -1.2529000000000001 161
-31.3281 59.0312 3.8867000000000003 119
-5.4765999999999995 10.3281 -1.2236 158
-6.7148 12.656199999999998 -1.166 45
-13.468800000000002 25.3906 3.0156 70
-8.5 16.0312 -1.0527 94
-13.726600000000001 25.875 3.7617000000000003 88
-13.6094 25.6562 4.4219 201
-12.9219 24.3438 -0.3215 127
-3.498 6.644500000000001 -1.3163999999999998 50
-3.9766000000000004 7.5547 -1.2959 217
-4.5586 8.6562 -1.2529000000000001 202
-31.0469 59.0 3.877 215
-5.4453 10.343800000000002 -1.2246 35
-6.667999999999999 12.664100000000001 -1.165 60
-13.7969 26.2188 3.1094 131
-8.4453 16.0469 -1.0527 114
-13.601600000000001 25.8438 3.75 149
-13.4297 25.5156 4.3906 77
-12.789100000000001 24.2969 -0.32030000000000003 92
-13.0547 24.7969 4.9336 158
-3.4844 6.6797 -1.3213 227
-3.9452999999999996 7.5625 -1.2938999999999998 172
-4.5234 8.6719 -1.2529000000000001 206
-30.7812 59.0312 3.8711 3
-5.3984000000000005 10.351600000000001 -1.2227 200
-6.613300000000001 12.6797 -1.1641 8
-13.8125 26.4688 3.1327999999999996 220
-8.4062 16.1094 -1.0547 180
-13.5781 26.0312 3.7714999999999996 39
-13.3047 25.5156 4.3789 80
-12.718800000000002 24.375 -0.3208 238
-3.4608999999999996 6.6914 -1.3203 247
-3.9160000000000004 7.5703 -1.2930000000000001 145
-4.4922 8.6797 -1.252 44
-30.5156 59.0 3.8613 82
-5.363300000000001 10.3672 -1.2227 20
-6.550800000000001 12.664100000000001 -1.1611 145
-13.664100000000001 26.4219 3.1211 143
-8.3281 16.1094 -1.0527 17
-13.476600000000001 26.0625 3.7695 39
-12.9922 25.125 4.3047 97
-12.585899999999999 24.3281 -0.3193 20
-13.398399999999999 25.9062 5.1328 199
-3.4297000000000004 6.6875 -1.3184 203
-3.8887 7.5859000000000005 -1.2930000000000001 50
-4.457 8.6875 -1.25 88
-30.2812 59.0625 3.8594 231
-5.3203 10.375 -1.2207 192
-6.5 12.6797 -1.1602 173
-12.906199999999998 25.1719 2.9688 68
-8.2656 16.125 -1.0518 39
-13.4844 26.2969 3.7969 211
-12.9531 25.25 4.3203 147
-12.539100000000001 24.4531 -0.3206 117
-13.289100000000001 25.9062 5.1289 128
-3.3964999999999996 6.6797 -1.3144999999999998 82
-3.8555 7.582000000000001 -1.291 246
-4.4375 8.7266 -1.2539 169
-30.0 59.0 3.8495999999999997 213
-5.2734000000000005 10.375 -1.2187999999999999 170
-6.4648 12.710899999999999 -1.1611 239
-12.8594 25.2969 2.9766000000000004 68
-8.2031 16.1406 -1.0508 0
-13.1797 25.9219 3.7344 118
-12.781199999999998 25.1406 4.293 177
-13.1797 25.9219 5.1172 81
-3.3789 6.703099999999999 -1.3163999999999998 250
-3.832 7.605499999999999 -1.2919999999999998 53
-4.4023 8.7344 -1.2529000000000001 187
-29.7812 59.0938 3.8476999999999997 30
-5.238300000000001 10.3906 -1.2187999999999999 237
-6.3984000000000005 12.6953 -1.1572 3
-13.476600000000001 26.7344 3.1426 65
-8.1484 16.1719 -1.0508 0
-12.7656 25.3125 3.6426 161
-12.75 25.2969 4.3125 94
-13.093800000000002 25.9844 5.125 140
-3.3555 6.7148 -1.3163999999999998 224
-3.8007999999999997 7.605499999999999 -1.29 91
-4.3711 8.75 -1.2529000000000001 84
-29.4844 59.0 3.8358999999999996 79
-5.203099999999999 10.414100000000001 -1.2187999999999999 169
-6.3438 12.7031 -1.1562000000000001 148
-12.5156 25.0469 2.9395 124
-8.0859 16.1719 -1.0498 81
-12.593800000000002 25.2031 3.6191000000000004 18
-12.7344 25.4844 4.3359 21
-12.968800000000002 25.9531 5.1055 183
-3.3339999999999996 6.730499999999999 -1.3163999999999998 161
-3.7754000000000003 7.625 -1.291 7
-4.3398 8.7578 -1.252 32
-29.1875 58.9375 3.8242000000000003 88
-5.1602 10.4219 -1.2178 221
-6.3086 12.7344 -1.1572 98
-13.343800000000002 26.9375 3.1543 187
-8.0547 16.25 -1.0527 136
-12.476600000000001 25.1875 3.6113 92
-12.5703 25.375 4.3125 220
-12.9844 26.2188 5.1484000000000005 157
-3.3047000000000004 6.730499999999999 -1.3144999999999998 60
-3.748 7.6328 -1.29 243
-4.3047 8.7656 -1.25 141
-28.9844 59.0312 3.8242000000000003 59
-5.1211 10.4297 -1.2158 92
-6.265599999999999 12.7656 -1.1582 30
-12.6406 25.7344 3.0098000000000003 17
-7.9648 16.2188 -1.0488 147
-12.4297 25.3281 3.623 95
-11.656199999999998 23.75 -0.9218999999999999 50
-12.4453 25.3438 4.2969 182
-3.2812 6.738300000000001 -1.3144999999999998 104
-3.7245999999999997 7.644500000000001 -1.29 118
-4.2812 8.7891 -1.252 147
-28.7344 59.0 3.8145 79
-5.0859 10.4453 -1.2158 29
-6.2109000000000005 12.75 -1.1543 110
-12.5625 25.7969 3.0098000000000003 109
-7.917999999999999 16.25 -1.0498 25
-12.5 25.6719 3.6660000000000004 93
-12.085899999999999 24.8125 4.2031 205
-3.2539 6.738300000000001 -1.3115 65
-3.6895 7.640599999999999 -1.2871000000000001 42
-4.2578 8.8125 -1.2539 204
-28.5 59.0 3.8086 91
-5.043 10.4375 -1.2139 61
-12.156199999999998 25.1562 2.2793 255
-6.171900000000001 12.781199999999998 -1.1553 200
-12.5156 25.9219 3.0214999999999996 242
-7.859400000000001 16.2656 -1.0488 113
-12.343800000000002 25.5625 3.6464999999999996 141
-12.2344 25.3281 4.9531 151
-3.2344 6.765599999999999 -1.3144999999999998 44
-3.6543 7.640599999999999 -1.2852000000000001 165
-4.2227 8.8359 -1.2539 206
-28.2344 59.0312 3.8047000000000004 86
-5.0 10.4531 -1.2129 236
-12.031199999999998 25.1562 2.2734 32
-6.1015999999999995 12.7578 -1.1514 170
-12.9844 27.1406 3.1582 182
-7.8125 16.3281 -1.0508 144
-12.226600000000001 25.5625 3.6406 22
-12.375 25.875 4.3672 106
-12.148399999999999 25.4062 4.957 205
-3.2108999999999996 6.7773 -1.3144999999999998 119
-3.6367000000000003 7.671900000000001 -1.2881 180
-4.1836 8.8281 -1.251 78
-27.9531 58.9688 3.7949 182
-4.9609 10.468800000000002 -1.2129 237
-11.9453 25.2031 2.2754 29
-6.050800000000001 12.7656 -1.1504 103
-12.875 27.1719 3.1543 8
-7.75 16.3438 -1.0498 233
-12.0703 25.4688 3.6191000000000004 181
-11.2031 23.6406 -0.9116 77
-12.0703 25.4688 4.9609 163
-3.1836 6.7773 -1.3125 222
-3.6074 7.675800000000001 -1.2861000000000002 111
-4.1484 8.8281 -1.249 177
-27.7188 58.9688 3.7891000000000004 207
-4.9258 10.4844 -1.2129 224
-11.835899999999999 25.1875 2.2695 58
-6.0078 12.789100000000001 -1.1504 66
-12.1094 25.7812 2.9882999999999997 211
-7.675800000000001 16.3438 -1.0479 37
-11.976600000000001 25.4844 3.6151999999999997 12
-11.1328 23.7031 -0.9126000000000001 172
-12.1875 25.9219 4.3633 206
-3.1562 6.7734000000000005 -1.3105000000000002 187
-3.5858999999999996 7.699199999999999 -1.2881 11
-4.1211 8.8516 -1.25 92
-27.4688 58.9375 3.7812 19
-4.8867 10.4844 -1.2109 93
-5.957000000000001 12.789100000000001 -1.1484 77
-12.0625 25.8906 2.998 150
-7.625 16.375 -1.0479 111
-11.7969 25.3281 3.5898000000000003 164
-11.0625 23.75 -0.9131 96
-12.0781 25.9219 4.3555 101
-3.1308999999999996 6.7852 -1.3105000000000002 198
-3.5526999999999997 7.699199999999999 -1.2861000000000002 60
-4.0938 8.8672 -1.251 76
-27.2188 59.0 3.7773000000000003 88
-4.8438 10.5 -1.21 219
-5.917999999999999 12.8281 -1.1504 147
-11.8906 25.7656 2.9785000000000004 19
-7.5586 16.3906 -1.0469 92
-11.7656 25.4844 3.6055 96
-10.914100000000001 23.6562 -0.9081999999999999 54
-12.0547 26.125 4.3789 226
-3.1132999999999997 6.8086 -1.3125 119
-3.5176 7.6953 -1.2832 88
-4.0586 8.875 -1.25 227
-26.9531 58.9375 3.7695 73
-4.7969 10.4922 -1.208 244
-5.875 12.843800000000002 -1.1504 136
-7.4961 16.4062 -1.0469 219
-11.781199999999998 25.7656 3.6387 116
-10.835899999999999 23.6875 -0.9081999999999999 98
-11.9531 26.1406 4.3789 48
-3.0918 6.828099999999999 -1.3144999999999998 155
-3.4922000000000004 7.7148 -1.2852000000000001 129
-4.0156 8.875 -1.2470999999999999 217
-12.835899999999999 28.3594 1.8086000000000002 137
-4.7578 10.5078 -1.208 180
-5.800800000000001 12.8125 -1.1445 119
-37.0625 81.875 9.4453 233
-7.425800000000001 16.4062 -1.0449 176
-11.726600000000001 25.8906 3.6504000000000003 38
-10.7344 23.7188 -0.9072 107
-11.8125 26.0781 4.3594 84
-12.8281 28.3281 -0.3628 89
-3.0625 6.824199999999999 -1.3115 8
-12.726600000000001 28.3594 0.3625 209
-3.4648000000000003 7.7227 -1.2841999999999998 96
-12.726600000000001 28.375 1.084 5
-3.9805 8.875 -1.2451 205
-12.710899999999999 28.3438 1.8047 109
-4.7227 10.523399999999999 -1.208 122
-5.7539 12.8281 -1.1445 52
-7.363300000000001 16.4219 -1.0439 8
-11.7031 26.0938 3.6738 197
-10.6406 23.7344 -0.9062 98
-11.710899999999999 26.0938 4.3555 115
-12.718800000000002 28.3438 -0.3625 240
-10.406199999999998 23.1875 4.4727 117
-3.0312 6.8203 -1.3086000000000002 79
-3.4395 7.738300000000001 -1.2852000000000001 97
-3.9551 8.8984 -1.2470999999999999 23
-12.6328 28.4062 1.8066 82
-4.6836 10.531199999999998 -1.207 184
-5.7148 12.8594 -1.1455 166
-7.3047 16.4219 -1.043 108
-11.781199999999998 26.5 3.7245999999999997 151
-10.5625 23.75 -0.9057999999999999 182
-11.5781 26.0469 4.3398 144
-3.0098000000000003 6.832000000000001 -1.3086000000000002 6
-3.4160000000000004 7.7539 -1.2852000000000001 21
-3.918 8.8906 -1.2441 255
-25.9531 58.9062 3.7422000000000004 203
-4.6445 10.539100000000001 -1.2061 245
-5.6602 12.843800000000002 -1.1426 200
-7.2461 16.4375 -1.043 31
-10.460899999999999 23.7344 -0.9037999999999999 124
-11.476600000000001 26.0469 4.332 167
-2.9901999999999997 6.855499999999999 -1.3115 61
-3.377 7.7422 -1.2822 135
-3.8867000000000003 8.9141 -1.2451 33
-25.6875 58.9062 3.7363 109
-4.5977 10.539100000000001 -1.2041 20
-5.5938 12.8281 -1.1396 133
-7.1797 16.4688 -1.043 55
-10.3594 23.75 -0.9033 141
-10.539100000000001 24.1719 4.0156 7
-2.9668 6.8711 -1.3115 135
-3.3555 7.769500000000001 -1.2841999999999998 77
-3.8495999999999997 8.9141 -1.2431999999999999 204
-25.4375 58.9062 3.7305 142
-4.5586 10.5469 -1.2031 67
-5.5586 12.8672 -1.1416 6
-7.105499999999999 16.4531 -1.04 246
-10.281199999999998 23.7969 -0.9033 247
-10.468800000000002 24.2344 4.6484 196
-2.9414 6.8672 -1.3096 98
-3.3379000000000003 7.796900000000001 -1.2861000000000002 165
-10.4219 24.3281 0.9224 214
-3.8145 8.9062 -1.2412 188
-10.4219 24.3281 1.5371000000000001 11
-4.5234 10.5625 -1.2031 213
-5.511699999999999 12.875 -1.1406 167
-10.4297 24.3594 2.7812 25
-7.0586 16.4844 -1.041 126
-10.3906 24.2812 3.3906 197
-10.1797 23.7812 -0.9014 212
-10.4219 24.3438 -0.3086 214
-2.9101999999999997 6.859400000000001 -1.3066 187
-10.3672 24.4375 0.3096 180
-3.3066000000000004 7.796900000000001 -1.2852000000000001 126
-10.3281 24.3438 0.9214 125
-3.7891000000000004 8.9297 -1.2422 70
-10.3281 24.3281 1.5352000000000001 188
-4.4883 10.5781 -1.2031 180
-5.4688 12.8906 -1.1396 197
-6.9961 16.5 -1.04 180
-10.0938 23.7969 -0.9004000000000001 72
-10.343800000000002 24.375 -0.3086 107
-2.8887 6.8789 -1.3086000000000002 26
-3.2695 7.7852 -1.2812000000000001 150
-10.281199999999998 24.4844 0.9253 27
-3.7539 8.9375 -1.2422 4
-10.281199999999998 24.4844 1.5419999999999998 143
-4.4453 10.585899999999999 -1.2021 41
-5.417999999999999 12.906199999999998 -1.1396 59
-6.925800000000001 16.5 -1.0381 127
-10.0 23.8125 -0.8998999999999999 201
-10.289100000000001 24.5156 -0.31010000000000004 36
-10.2422 24.3906 4.6562 121
-2.8691000000000004 6.8984000000000005 -1.3096 99
-3.2401999999999997 7.792999999999999 -1.2803 56
-3.7245999999999997 8.9531 -1.2422 133
-24.4844 58.875 3.707 184
-4.4102 10.601600000000001 -1.2021 207
-5.363300000000001 12.898399999999999 -1.1367 56
-6.8789 16.5469 -1.04 0
-11.75 28.25 3.9316000000000004 147
-9.8906 23.7812 -0.8975 247
-11.718800000000002 28.1875 4.6484 172
-10.2266 24.5938 4.6914 129
-2.8418 6.9062 -1.3096 194
-3.2188 7.8203 -1.2832 223
-3.6855 8.9531 -1.2402 241
-11.7031 28.4375 1.7861000000000002 183
-4.3633 10.601600000000001 -1.2002 7
-11.656199999999998 28.3281 2.498 15
-5.3164 12.914100000000001 -1.1367 65
-6.8086 16.5469 -1.0381 76
-9.7969 23.8125 -0.8975 57
-11.6172 28.2344 4.6484 33
-2.8145 6.9102 -1.3086000000000002 103
-3.1875 7.824199999999999 -1.2822 55
-3.6504000000000003 8.9609 -1.2383 44
-9.9609 24.4531 1.5332 184
-4.332 10.6328 -1.2021 210
-11.5625 28.375 2.5 41
-5.265599999999999 12.9219 -1.1367 101
-6.75 16.5625 -1.0381 122
-9.7188 23.8438 -0.8975 88
-11.531199999999998 28.2969 4.6523 54
-2.7910000000000004 6.9140999999999995 -1.3066 211
-3.1699 7.8515999999999995 -1.2852000000000001 21
-23.8281 59.0312 2.2207 73
-3.6211 8.9688 -1.2383 53
-9.8594 24.4219 1.5303 109
-4.293 10.6406 -1.2012 96
-11.476600000000001 28.4375 2.502 21
-5.2188 12.9297 -1.1357 75
-6.6914 16.5781 -1.0381 161
-9.6328 23.875 -0.897 85
-11.4453 28.3594 4.6562 224
-2.7695 6.925800000000001 -1.3075999999999999 177
-3.1426 7.859400000000001 -1.2841999999999998 19
-3.5839999999999996 8.9688 -1.2363 181
-9.8438 24.625 1.54 8
-4.25 10.6328 -1.1992 47
-11.3906 28.5 2.5039 121
-5.1797 12.9531 -1.1357 59
-6.6289 16.5781 -1.0361 110
-11.3594 28.4219 3.9316000000000004 77
-9.5469 23.8906 -0.8965000000000001 42
-11.3594 28.4062 4.6602 17
-2.7461 6.9414 -1.3086000000000002 200
-3.1132999999999997 7.8711 -1.2841999999999998 121
-3.5507999999999997 8.9766 -1.2363 231
-11.3203 28.625 1.7891 97
-4.2148 10.656199999999998 -1.1992 128
-11.281199999999998 28.5312 2.502 129
-5.1133 12.9297 -1.1318000000000001 89
-6.5625 16.5938 -1.0352 181
-11.2656 28.4844 3.9355 245
-9.4531 23.9062 -0.8955 247
-11.2656 28.4844 4.6641 91
-2.7226999999999997 6.957000000000001 -1.3096 249
-3.0879000000000003 7.886699999999999 -1.2852000000000001 68
-11.25 28.7344 1.0762 147
-3.5156 8.9766 -1.2354 224
-11.2344 28.7031 1.791 14
-4.1758 10.664100000000001 -1.1992 107
-11.2031 28.625 2.5078 82
-5.0664 12.9375 -1.1318000000000001 188
-6.5039 16.6094 -1.0352 227
-11.1719 28.5469 3.9375 128
-9.375 23.9375 -0.8959999999999999 20
-11.164100000000001 28.5312 4.6641 117
-11.289100000000001 28.8281 -0.3611 116
-2.6952999999999996 6.953099999999999 -1.3075999999999999 36
-3.0547000000000004 7.8789 -1.2822 73
-3.4882999999999997 9.0 -1.2354 31
-11.148399999999999 28.75 1.791 102
-4.1328 10.656199999999998 -1.1973 83
-11.1172 28.6875 2.5098 177
-5.0234 12.960899999999999 -1.1318000000000001 103
-6.4336 16.5938 -1.0332 51
-11.085899999999999 28.6094 3.9414 75
-9.2969 23.9688 -0.8959999999999999 128
-11.0703 28.5625 4.6641 254
-2.6699 6.957000000000001 -1.3066 84
-3.0351999999999997 7.9062 -1.2852000000000001 231
-3.4551 9.0 -1.2344 213
-11.0625 28.8125 1.7930000000000001 171
-4.0898 10.656199999999998 -1.1953 5
-11.039100000000001 28.75 2.5117 150
-4.9727 12.9531 -1.1299 203
-6.375 16.6094 -1.0322 224
-11.0 28.6562 3.9433999999999996 33
-9.2188 24.0 -0.8959999999999999 35
-10.9922 28.6406 4.6719 74
-2.6445 6.9688 -1.3066 213
-2.9922000000000004 7.8828 -1.2793 54
-22.375 58.9375 2.1992 180
-3.4219 9.0156 -1.2354 6
-10.9531 28.8594 1.7938999999999998 209
-4.0508 10.6719 -1.1953 225
-10.9297 28.8125 2.5137 122
-4.9258 12.9844 -1.1309 126
-6.3047 16.625 -1.0312000000000001 165
-10.898399999999999 28.7188 3.9452999999999996 28
-9.125 24.0469 -0.8965000000000001 19
-10.8906 28.6875 4.6719 193
-2.6211 6.984400000000001 -1.3075999999999999 146
-2.9608999999999996 7.8828 -1.2773 75
-22.1094 58.875 2.1953 50
-3.3887 9.0234 -1.2344 16
-10.8672 28.9531 1.7969 144
-4.0078 10.6797 -1.1943000000000001 178
-10.835899999999999 28.8438 2.5137 14
-4.8789 12.9922 -1.1299 102
-6.2539 16.6562 -1.0322 35
-10.7969 28.7656 3.9473000000000003 60
-9.0469 24.1094 -0.8975 15
-10.789100000000001 28.7344 4.6758 100
-2.6035000000000004 7.0039 -1.3105000000000002 144
-11.0469 29.7031 0.3699 3
-2.9355 7.8984000000000005 -1.2783 32
-11.0469 29.7188 1.1055 133
-3.3574 9.0312 -1.2334 143
-10.781199999999998 29.0 1.7978999999999998 139
-3.9668 10.6719 -1.1924 180
-10.75 28.9219 2.5176 221
-4.8281 12.9844 -1.1279000000000001 98
-6.1914 16.6562 -1.0312000000000001 66
-10.726600000000001 28.875 3.957 6
-8.9922 24.1875 -0.8994 81
-11.0469 29.7188 -0.3699 98
-2.5742000000000003 6.9961 -1.3066 50
-10.914100000000001 29.6719 0.3689 245
-2.9101999999999997 7.9102 -1.2783 201
-10.9453 29.75 1.1055 122
-3.3202999999999996 9.0234 -1.2314 5
-3.9414 10.718800000000002 -1.1953 132
-21.5938 58.6562 5.1016 246
-4.7812 12.9922 -1.127 148
-6.125 16.6406 -1.0293 82
-8.9297 24.2812 -0.9014 31
-10.914100000000001 29.6719 -0.3689 75
-2.5469 7.0039 -1.3066 213
-10.7969 29.6875 0.36869999999999997 249
-2.8789 7.917999999999999 -1.2783 161
-3.293 9.0547 -1.2334 132
-3.8867000000000003 10.6953 -1.1914 114
-21.3438 58.7188 5.1016 201
-4.7383 13.031199999999998 -1.1289 138
-6.050800000000001 16.6406 -1.0273 106
-8.8594 24.3594 -0.9033 36
-2.5156 6.9961 -1.3037 169
-10.6797 29.6875 0.3682 30
-2.8476999999999997 7.917999999999999 -1.2764 125
-3.2539 9.0469 -1.2314 146
-3.8535000000000004 10.710899999999999 -1.1924 187
-21.0938 58.6875 5.0898 84
-4.6797 13.0156 -1.126 117
-5.9922 16.6719 -1.0283 152
-8.7891 24.4375 -0.9053 7
-10.8594 30.2031 4.8867 6
-11.1875 31.0938 -0.38549999999999995 107
-2.502 7.0273 -1.3075999999999999 238
-2.8262 7.9375 -1.2783 157
-20.9688 58.875 2.1797 121
-3.2266000000000004 9.0625 -1.2324 211
-20.9531 58.8438 3.6327999999999996 126
-3.8105 10.7031 -1.1895 209
-20.9062 58.6875 5.0859 160
-4.6367 13.023399999999999 -1.125 117
-5.9297 16.6562 -1.0264 88
-8.7188 24.4844 -0.9053 60
-10.585899999999999 29.7344 4.8047 22
-11.085899999999999 31.125 -0.38549999999999995 226
-2.4746 7.0273 -1.3056999999999999 128
-2.7988 7.9453 -1.2783 248
-3.1933999999999996 9.0625 -1.2305 172
-3.7733999999999996 10.710899999999999 -1.1885 177
-4.582 13.0078 -1.123 137
-5.863300000000001 16.6406 -1.0234 102
-10.9375 31.0469 4.2266 147
-8.625 24.4844 -0.9043000000000001 73
-10.6094 30.1094 4.8633 80
-2.4492 7.0352 -1.3066 95
-2.7617000000000003 7.9375 -1.2754 9
-10.648399999999999 30.5938 1.1299 153
-3.1562 9.0703 -1.2295 31
-10.6719 30.6719 1.8866999999999998 91
-3.7344 10.726600000000001 -1.1895 135
-4.5352 13.031199999999998 -1.123 35
-5.7890999999999995 16.625 -1.0215 156
-11.031199999999998 31.7031 4.3125 171
-8.5156 24.4844 -0.9033 101
-10.468800000000002 30.0781 4.8477 181
-10.1484 29.1562 5.4375 213
-2.418 7.0273 -1.3027000000000002 44
-2.7382999999999997 7.953099999999999 -1.2764 33
-10.656199999999998 30.9688 1.1416 180
-3.1211 9.0703 -1.2285 119
-10.648399999999999 30.9531 1.9013999999999998 0
-3.6914 10.726600000000001 -1.1875 147
-20.1875 58.6562 5.0625 197
-4.4961 13.0703 -1.125 237
-10.6953 31.0938 3.4512 179
-5.7265999999999995 16.6406 -1.0215 214
-10.8828 31.625 4.2969 210
-8.4766 24.6406 -0.9081999999999999 68
-10.0469 29.2031 5.4375 128
-2.3945 7.0352 -1.3027000000000002 67
-2.7012 7.9414 -1.2725 243
-20.0 58.7812 2.166 86
-3.0957 9.1016 -1.2314 58
-19.9844 58.75 3.6074 181
-3.6523000000000003 10.7344 -1.1875 174
-19.9375 58.625 5.0547 205
-4.4453 13.0625 -1.123 48
-10.6172 31.2188 3.4608999999999996 183
-5.6523 16.6094 -1.0186 20
-10.7422 31.5625 4.2852 128
-8.3906 24.6719 -0.9081999999999999 31
-9.8828 29.0469 5.4023 49
-2.3691 7.042999999999999 -1.3027000000000002 178
-2.6738 7.949199999999999 -1.2725 147
-19.7656 58.7812 2.1641 184
-3.0625 9.1094 -1.2305 183
-19.7344 58.6875 3.5995999999999997 23
-3.6132999999999997 10.7422 -1.1865 128
-10.539100000000001 31.3438 2.6973000000000003 72
