# .PCD v0.7 - Point Cloud Data file format
VERSION 0.7
FIELDS x y z intensity
SIZE 4 4 4 4
TYPE F F F F
COUNT 1 1 1 1
WIDTH 1199
HEIGHT 1
VIEWPOINT 0 0 0 1 0 0 0
POINTS 1199
DATA ascii
1.7197 -3.1016000000000004 0.0406 212
2.3281 -4.1992 -0.7256 235
1.7227000000000001 -3.1055 0.1223 43
1.6943000000000001 -3.0547000000000004 -0.44380000000000003 200
1.7285 -3.1172000000000004 0.2047 120
1.7138999999999998 -3.0898000000000003 -0.3667 87
1.7461000000000002 -3.1483999999999996 0.2903 48
1.7002000000000002 -3.0645 -0.2825 63
2.1602 -3.8926 0.46340000000000003 197
1.7021000000000002 -3.0683999999999996 -0.2014 76
2.166 -3.9043 0.5688 246
1.7216999999999998 -3.1035000000000004 -0.1222 127
2.1582 -3.8906 0.6718999999999999 87
1.7031 -3.0702999999999996 -0.04019999999999999 234
2.1621 -3.8983999999999996 0.7783 59
0.47609999999999997 -0.8643000000000001 -0.1666 39
1.7021000000000002 -3.0918 0.0404 67
2.3086 -4.1914 -0.7236 159
1.7109 -3.1074 0.12210000000000001 208
1.6865 -3.0625 -0.4443 137
1.7147999999999999 -3.1151999999999997 0.20420000000000002 4
1.6982 -3.0839999999999996 -0.3655 2
1.7372999999999998 -3.1543 0.2905 120
1.6963 -3.0801 -0.2834 124
2.1523 -3.9082 0.4644 211
1.6943000000000001 -3.0762 -0.20170000000000002 180
2.1406 -3.8867000000000003 0.5654 60
1.7147999999999999 -3.1151999999999997 -0.12240000000000001 193
2.1523 -3.9082 0.6738 122
1.6953 -3.0781 -0.04019999999999999 254
2.0527 -3.7558999999999996 -0.7471 128
1.6885 -3.0898000000000003 0.0403 139
2.293 -4.1953 -0.7227 190
1.709 -3.127 0.12269999999999999 103
1.6825999999999999 -3.0801 -0.4458 66
1.7050999999999998 -3.1211 0.20420000000000002 44
1.6865 -3.0858999999999996 -0.365 158
1.7266 -3.1601999999999997 0.2905 1
1.6865 -3.0879000000000003 -0.2837 219
2.1406 -3.918 0.4648 170
1.6816 -3.0781 -0.2014 221
2.1328 -3.9043 0.5669 131
1.7012 -3.1132999999999997 -0.12210000000000001 68
2.1445 -3.9257999999999997 0.7812 255
2.0 -3.6952999999999996 -0.7334 219
1.6825999999999999 -3.1074 0.0404 12
2.2695 -4.1953 -0.7206999999999999 228
1.6875 -3.1172000000000004 0.1219 246
1.6747999999999998 -3.0938 -0.447 111
1.6982 -3.1367000000000003 0.205 34
1.6777000000000002 -3.0995999999999997 -0.366 161
1.7109 -3.1601999999999997 0.2898 191
1.6709 -3.0879000000000003 -0.28300000000000003 197
1.6768 -3.0976999999999997 -0.2023 188
2.1211 -3.9160000000000004 0.5674 60
1.6875 -3.1172000000000004 -0.1219 225
2.1309 -3.9355 0.6758 252
1.6846 -3.1113 -0.0405 161
2.1484 -3.9707 0.7886 185
1.9950999999999999 -3.7148000000000003 -0.7363 68
1.6758000000000002 -3.1211 0.0405 159
2.2637 -4.2188 -0.7236 85
1.6747999999999998 -3.1191000000000004 0.12179999999999999 132
1.6582 -3.0879000000000003 -0.44530000000000003 182
1.6875 -3.1445 0.205 107
1.6728999999999998 -3.1151999999999997 -0.36719999999999997 127
1.7002000000000002 -3.1660000000000004 0.2898 204
1.6572 -3.0879000000000003 -0.2825 38
2.1328 -3.9707 0.4692 124
1.6669999999999998 -3.1055 -0.2024 21
2.1113 -3.9316000000000004 0.5688 172
1.6777000000000002 -3.125 -0.12210000000000001 57
2.1172 -3.9414 0.6758 238
1.6709 -3.1113 -0.0404 251
2.1465 -3.9961 0.7925 116
1.9512 -3.6641000000000004 -0.7245999999999999 97
1.6699000000000002 -3.1367000000000003 0.0406 3
1.8555000000000001 -3.4844 -0.5957 200
1.6669999999999998 -3.1308999999999996 0.12210000000000001 45
1.6475 -3.0938 -0.44530000000000003 201
1.6728999999999998 -3.1426 0.2045 140
1.6641 -3.125 -0.3674 68
1.6904 -3.1757999999999997 0.2903 214
1.6503999999999999 -3.0995999999999997 -0.2832 26
2.1152 -3.9707 0.4683 154
1.6484 -3.0957 -0.2014 249
2.1133 -3.9707 0.5732 9
1.6728999999999998 -3.1426 -0.1225 172
2.1211 -3.9844 0.6816 155
1.6522999999999999 -3.1035000000000004 -0.04019999999999999 210
2.1367 -4.0117 0.7939 5
1.8574000000000002 -3.5176 -0.6943 219
1.6503999999999999 -3.127 0.0404 103
1.8359 -3.4785000000000004 -0.5932999999999999 27
1.6582 -3.1406 0.1223 72
1.6396000000000002 -3.1074 -0.44630000000000003 123
1.6641 -3.1523000000000003 0.2047 173
1.6475 -3.1211 -0.36619999999999997 227
1.6875 -3.1952999999999996 0.2915 231
1.6444999999999999 -3.1151999999999997 -0.2839 196
2.1016 -3.9824 0.46880000000000005 60
1.6396000000000002 -3.1055 -0.20170000000000002 113
2.1055 -3.9882999999999997 0.5747 91
1.665 -3.1543 -0.12269999999999999 154
2.123 -4.0234 0.687 236
1.6425999999999998 -3.1113 -0.0403 118
2.1289 -4.0312 0.7964 133
1.835 -3.5058999999999996 -0.6904 106
1.6366999999999998 -3.127 0.0404 224
1.8075999999999999 -3.4531 -0.5879 139
1.6513999999999998 -3.1543 0.1225 118
1.6328 -3.1191000000000004 -0.4475 107
1.6572 -3.1660000000000004 0.2052 206
1.6366999999999998 -3.127 -0.36619999999999997 28
1.6669999999999998 -3.1836 0.2898 86
1.6406 -3.1348000000000003 -0.2854 17
2.1074 -4.0234 0.4729 180
1.6309 -3.1151999999999997 -0.20190000000000002 157
2.0996 -4.0117 0.5771000000000001 60
1.6494 -3.1504000000000003 -0.12240000000000001 131
2.125 -4.0586 0.6919 140
2.1289 -4.0664 0.8022 83
1.8056999999999999 -3.4785000000000004 -0.6836 224
1.6347999999999998 -3.1483999999999996 0.0406 244
1.7832 -3.4355 -0.584 107
1.6396000000000002 -3.1601999999999997 0.1225 92
1.6221 -3.125 -0.4475 141
1.6522999999999999 -3.1836 0.2059 134
1.6288999999999998 -3.1387 -0.36719999999999997 255
1.6522999999999999 -3.1836 0.2893 119
1.625 -3.1308999999999996 -0.2844 146
2.0977 -4.043 0.47409999999999997 83
1.6230000000000002 -3.127 -0.2024 201
2.1016 -4.0508 0.5815 8
1.6357 -3.1504000000000003 -0.1222 78
2.1191 -4.082 0.6948000000000001 4
2.1309 -4.1055 0.8081 124
1.7881 -3.4726999999999997 -0.6812 18
1.624 -3.1543 0.0406 8
1.7734 -3.4452999999999996 -0.5845 234
1.624 -3.1543 0.12210000000000001 122
1.6094 -3.127 -0.447 201
1.6416 -3.1875 0.2059 177
1.6221 -3.1523000000000003 -0.3679 26
1.6484 -3.2031 0.2905 145
1.6103999999999998 -3.1289 -0.2837 6
2.1035 -4.0859 0.4783 250
1.6133000000000002 -3.1327999999999996 -0.2024 42
2.1035 -4.0859 0.5854 114
1.6269999999999998 -3.1601999999999997 -0.1223 239
2.1152 -4.1094 0.6981999999999999 141
2.1406 -4.1602 0.8173999999999999 105
1.7656 -3.457 -0.6772 172
1.6172 -3.1660000000000004 0.0407 50
1.7549000000000001 -3.4375 -0.5820000000000001 88
1.6172 -3.1660000000000004 0.12240000000000001 207
1.5996000000000001 -3.1327999999999996 -0.447 58
1.625 -3.1836 0.2052 33
1.6122999999999998 -3.1562 -0.3679 78
1.6416 -3.2148000000000003 0.2913 5
1.6074000000000002 -3.1483999999999996 -0.2849 228
2.1113 -4.1328 0.48340000000000005 58
1.5996000000000001 -3.1327999999999996 -0.20199999999999999 246
2.1074 -4.1289 0.5908 4
1.6200999999999999 -3.1719 -0.1226 254
2.1328 -4.1797 0.7090000000000001 248
1.6035 -3.1406 -0.0403 229
2.7539 -5.394500000000001 1.0605 153
1.7422 -3.4452999999999996 -0.6733 211
1.6035 -3.1699 0.0406 241
1.7450999999999999 -3.4512 -0.583 251
1.6044999999999998 -3.1738 0.12240000000000001 94
1.5908000000000002 -3.1445 -0.44799999999999995 255
1.6143 -3.1914 0.2053 98
1.5977000000000001 -3.1601999999999997 -0.3674 52
1.6288999999999998 -3.2207 0.2913 4
1.5918 -3.1464999999999996 -0.2844 139
2.1191 -4.1875 0.4888 21
1.5878999999999999 -3.1387 -0.20199999999999999 159
2.1133 -4.1797 0.5972 73
1.6113 -3.1855 -0.1229 34
2.7344 -5.4062 0.9175 10
1.6006 -3.1641000000000004 -0.0406 103
2.7305 -5.3984000000000005 1.0595999999999999 134
1.7285 -3.4473000000000003 -0.6724 44
1.5878999999999999 -3.1660000000000004 0.0405 0
1.7236000000000002 -3.4375 -0.5801 199
1.6006 -3.1933999999999996 0.1229 212
1.5819999999999999 -3.1543 -0.4485 219
1.6025 -3.1973000000000003 0.2053 66
1.5830000000000002 -3.1582 -0.3667 148
1.6191 -3.2285000000000004 0.2913 254
1.585 -3.1601999999999997 -0.2852 112
2.1348 -4.2578 0.49579999999999996 38
1.5819999999999999 -3.1562 -0.2026 27
2.6973000000000003 -5.3789 0.7686 120
1.5966999999999998 -3.1836 -0.1226 22
2.707 -5.3984000000000005 0.9140999999999999 237
1.584 -3.1582 -0.0404 69
2.7089999999999996 -5.4023 1.0586 225
1.7128999999999999 -3.4473000000000003 -0.6714 198
1.5819999999999999 -3.1816000000000004 0.0406 126
1.7061000000000002 -3.4336 -0.5781000000000001 15
1.5830000000000002 -3.1836 0.12240000000000001 176
1.5722999999999998 -3.1641000000000004 -0.449 199
1.5966999999999998 -3.2129000000000003 0.2061 197
1.5741999999999998 -3.1660000000000004 -0.36719999999999997 21
1.5996000000000001 -3.2188 0.2898 1
1.5800999999999998 -3.1797000000000004 -0.2864 179
2.707 -5.4453 0.6347999999999999 171
1.5752000000000002 -3.168 -0.20309999999999997 155
2.6738 -5.3789 0.7676000000000001 73
1.584 -3.1855 -0.12240000000000001 9
2.6836 -5.3984000000000005 0.9126000000000001 213
2.6836 -5.3984000000000005 1.0556999999999999 243
1.6991999999999998 -3.4492000000000003 -0.6704000000000001 149
1.5771000000000002 -3.2012 0.0408 203
1.6943000000000001 -3.4395 -0.5781000000000001 62
1.5713 -3.1895 0.12240000000000001 124
1.5615 -3.1699 -0.449 4
1.584 -3.2148000000000003 0.20579999999999998 2
1.5703 -3.1875 -0.3689 243
1.5966999999999998 -3.2401999999999997 0.2913 28
1.5596 -3.1641000000000004 -0.2844 196
2.6641000000000004 -5.4062 0.6289 222
1.5654 -3.1776999999999997 -0.2034 34
2.6523000000000003 -5.3828 0.7666 16
1.5762 -3.1992000000000003 -0.12269999999999999 191
2.6523000000000003 -5.3828 0.9087000000000001 202
1.5605000000000002 -3.1660000000000004 -0.0404 54
2.6582 -5.394500000000001 1.0527 96
1.6777000000000002 -3.4336 -0.6665000000000001 56
1.5674000000000001 -3.207 0.0408 52
1.6825999999999999 -3.4452999999999996 -0.5781000000000001 23
1.5644999999999998 -3.2012 0.12269999999999999 64
1.5527000000000002 -3.1776999999999997 -0.4495 107
1.5771000000000002 -3.2266000000000004 0.20629999999999998 79
1.5635 -3.1992000000000003 -0.3696 204
1.5888999999999998 -3.252 0.292 18
1.5537 -3.1816000000000004 -0.2854 41
2.6327999999999996 -5.390599999999999 0.626 45
1.5488 -3.1699 -0.2026 41
2.6308999999999996 -5.386699999999999 0.7656000000000001 73
1.5674000000000001 -3.207 -0.1229 250
2.6348000000000003 -5.390599999999999 0.9087000000000001 184
1.5596 -3.1914 -0.0406 80
2.6387 -5.3984000000000005 1.0518 14
1.6611000000000002 -3.4276999999999997 -0.6640999999999999 229
1.5508000000000002 -3.1992000000000003 0.0407 24
1.6728999999999998 -3.4512 -0.5786 61
1.5575999999999999 -3.2148000000000003 0.1229 195
1.5478999999999998 -3.1952999999999996 -0.4512 77
1.5605000000000002 -3.2226999999999997 0.20559999999999998 64
1.5488 -3.1973000000000003 -0.3689 112
1.5762 -3.252 0.2915 89
1.5537 -3.207 -0.2874 54
2.6211 -5.4102 0.627 11
1.541 -3.1797000000000004 -0.2029 73
2.6055 -5.3789 0.7631999999999999 96
1.5596 -3.2207 -0.1232 0
2.6151999999999997 -5.3984000000000005 0.9077 73
1.5518 -3.2031 -0.0407 98
2.6094 -5.386699999999999 1.0479 98
1.6533000000000002 -3.4433999999999996 -0.6659999999999999 7
1.5361000000000002 -3.1992000000000003 0.0406 42
1.6543 -3.4452999999999996 -0.5761999999999999 114
1.5497999999999998 -3.2266000000000004 0.1232 25
1.5518 -3.2305 -0.4556 174
1.5566 -3.2422000000000004 0.2065 190
1.5361000000000002 -3.1992000000000003 -0.36840000000000006 20
1.5625 -3.2539 0.2913 206
1.5322 -3.1914 -0.2854 147
2.5995999999999997 -5.4140999999999995 0.627 250
1.5312000000000001 -3.1895 -0.20309999999999997 113
2.5801 -5.3711 0.7612000000000001 49
1.5449000000000002 -3.2188 -0.1229 16
2.5918 -5.3984000000000005 0.9067000000000001 51
1.5430000000000001 -3.2129000000000003 -0.0408 244
2.5801 -5.375 1.0439 244
1.6387 -3.4414 -0.6646 235
1.5322 -3.2168 0.0408 40
1.6387 -3.4414 -0.5747 149
1.5352000000000001 -3.2245999999999997 0.1229 130
1.5478999999999998 -3.25 -0.4575 28
1.5459 -3.2461 0.2065 228
1.5283000000000002 -3.2089999999999996 -0.3689 162
1.5459 -3.2461 0.29 187
1.5263999999999998 -3.2051 -0.2864 201
2.5742000000000003 -5.4062 0.6245 176
1.5272999999999999 -3.207 -0.204 228
2.5566 -5.3711 0.7593000000000001 96
1.5312000000000001 -3.2168 -0.1226 104
2.5664 -5.390599999999999 0.9037999999999999 79
2.5605 -5.3789 1.043 37
1.6299000000000001 -3.4589999999999996 -0.6665000000000001 220
1.5263999999999998 -3.2382999999999997 0.040999999999999995 124
1.6269999999999998 -3.4512 -0.5752 89
1.5194999999999999 -3.2226999999999997 0.12269999999999999 57
1.5419999999999998 -3.2714999999999996 -0.4597 247
1.5352000000000001 -3.2558999999999996 0.20679999999999998 160
1.5194999999999999 -3.2245999999999997 -0.3701 78
1.5371000000000001 -3.2598000000000003 0.2908 162
1.5186000000000002 -3.2226999999999997 -0.2874 96
2.5488 -5.4102 0.624 72
1.5166 -3.2168 -0.20420000000000002 67
2.5371 -5.3828 0.7598 162
1.5225 -3.2285000000000004 -0.1229 71
2.541 -5.386699999999999 0.9018999999999999 183
1.5146000000000002 -3.2129000000000003 -0.0406 74
2.543 -5.394500000000001 1.0439 117
1.6113 -3.4492000000000003 -0.6640999999999999 21
1.5156 -3.2441000000000004 0.040999999999999995 97
1.6230000000000002 -3.4745999999999997 -0.5786 181
1.5137 -3.2401999999999997 0.12300000000000001 130
1.5303 -3.2754000000000003 -0.4597 158
1.5234 -3.2617000000000003 0.20679999999999998 230
1.5116999999999998 -3.2363 -0.37079999999999996 212
1.5341999999999998 -3.2832 0.2922 208
1.4971 -3.2031 -0.2852 143
2.5215 -5.3984000000000005 0.6215999999999999 254
1.5 -3.2108999999999996 -0.20350000000000001 208
2.5176 -5.390599999999999 0.7598 254
1.5137 -3.2401999999999997 -0.12300000000000001 182
2.5156 -5.386699999999999 0.8998999999999999 244
1.4971 -3.2051 -0.0405 237
2.5137 -5.3828 1.04 233
1.5947 -3.4433999999999996 -0.6616 56
1.501 -3.2422000000000004 0.0409 184
1.6113 -3.4805 -0.5786 200
1.5068000000000001 -3.2558999999999996 0.1235 180
1.5459 -3.3398000000000003 -0.4678 24
1.5068000000000001 -3.2558999999999996 0.2061 56
1.4971 -3.2344 -0.3701 211
1.5186000000000002 -3.2812 0.2917 49
1.4941 -3.2266000000000004 -0.2869 253
2.4902 -5.3789 0.6182 181
1.4902000000000002 -3.2207 -0.20370000000000002 99
2.4883 -5.3789 0.7568 44
1.5038999999999998 -3.248 -0.1232 244
2.5 -5.3984000000000005 0.9009 234
1.4941 -3.2266000000000004 -0.0407 125
2.4922 -5.3828 1.0391 10
1.5859 -3.457 -0.6631 71
1.4853999999999998 -3.2382999999999997 0.0407 89
1.5957 -3.4785000000000004 -0.5771000000000001 40
1.4971 -3.2656 0.12369999999999999 0
1.5488 -3.377 -0.47240000000000004 217
1.5029 -3.2754000000000003 0.207 49
1.4872999999999998 -3.2441000000000004 -0.3704 197
1.5059 -3.2832 0.2913 13
1.4824000000000002 -3.2324 -0.2869 134
2.4668 -5.375 0.6172 77
1.4805000000000001 -3.2285000000000004 -0.204 232
2.4629 -5.3711 0.7548999999999999 159
1.4912 -3.25 -0.12300000000000001 37
2.4746 -5.3984000000000005 0.8989 213
1.4853999999999998 -3.2401999999999997 -0.0408 124
2.4707 -5.386699999999999 1.0381 28
1.5771000000000002 -3.4688 -0.6646 76
1.4775 -3.25 0.0408 137
1.5859 -3.4882999999999997 -0.5776 79
1.4834 -3.2617000000000003 0.1234 249
1.5430000000000001 -3.3926 -0.4739 98
1.4971 -3.2910000000000004 0.2076 18
1.4805000000000001 -3.2558999999999996 -0.3713 73
1.4941 -3.2870999999999997 0.2913 218
1.4707 -3.2363 -0.2866 200
2.459 -5.4102 0.6201 119
1.4736000000000002 -3.2401999999999997 -0.2045 190
2.4434 -5.375 0.7539 201
1.4785 -3.252 -0.1229 177
2.4492 -5.390599999999999 0.8959999999999999 90
1.4785 -3.252 -0.0409 29
2.4531 -5.394500000000001 1.0371 239
1.5693000000000001 -3.4824 -0.6659999999999999 38
1.4727000000000001 -3.2676 0.040999999999999995 133
1.5722999999999998 -3.4901999999999997 -0.5771000000000001 158
1.4756 -3.2754000000000003 0.12369999999999999 75
1.5361000000000002 -3.4082 -0.4756 33
1.4853999999999998 -3.2969 0.2076 48
1.4727000000000001 -3.2676 -0.3721 182
1.4872999999999998 -3.3007999999999997 0.292 200
1.4569999999999999 -3.2324 -0.2859 159
2.4395 -5.4102 0.6191 157
1.4658000000000002 -3.252 -0.205 186
2.4238 -5.3789 0.7534000000000001 237
1.4697 -3.2617000000000003 -0.1232 81
2.4219 -5.375 0.8926000000000001 171
1.459 -3.2382999999999997 -0.0406 39
2.4336 -5.4023 1.0371 98
1.5537 -3.4824 -0.665 170
1.5663999999999998 -3.5098000000000003 -0.5796 237
1.4658000000000002 -3.2851999999999997 0.12380000000000001 133
1.5361000000000002 -3.4414 -0.4792 230
1.4716999999999998 -3.2988 0.20739999999999997 185
1.4609 -3.2733999999999996 -0.3721 59
1.4813999999999998 -3.3202999999999996 0.2932 202
1.4491999999999998 -3.248 -0.2869 182
2.4082 -5.3984000000000005 0.6167 145
1.4541 -3.2577999999999996 -0.205 56
2.4004 -5.3789 0.7524 172
2.3984 -5.375 0.8906000000000001 114
2.4062 -5.390599999999999 1.0342 244
1.5430000000000001 -3.4901999999999997 -0.6655 143
1.4512 -3.2832 0.041100000000000005 185
1.5596 -3.5273000000000003 -0.5815 144
1.4541 -3.2891000000000004 0.12380000000000001 205
1.54 -3.4824 -0.4844 252
1.4569999999999999 -3.2969 0.207 8
1.4463 -3.2714999999999996 -0.3713 138
1.4687999999999999 -3.3223000000000003 0.293 199
2.3848 -5.390599999999999 0.6152000000000001 227
1.4375 -3.252 -0.20420000000000002 248
2.3789 -5.3789 0.7509999999999999 30
1.4531 -3.2870999999999997 -0.12369999999999999 41
2.3809 -5.3828 0.8911 235
1.4424000000000001 -3.2637 -0.0408 90
2.375 -5.3711 1.0283 219
1.5381 -3.5137 -0.6689 134
1.4385 -3.2851999999999997 0.040999999999999995 20
1.5518 -3.543 -0.583 200
1.4453 -3.3007999999999997 0.124 253
1.5341999999999998 -3.5039 -0.4866 102
1.4521000000000002 -3.3164 0.2079 71
1.4365 -3.2793 -0.3716 200
1.4541 -3.3223000000000003 0.2925 92
1.4365 -3.2793 -0.2888 206
2.3711 -5.4140999999999995 0.6167 219
1.4277000000000002 -3.2617000000000003 -0.2045 38
2.3516 -5.3672 0.748 3
1.4424000000000001 -3.293 -0.12380000000000001 18
2.3613 -5.390599999999999 0.8906000000000001 18
1.4355000000000002 -3.2793 -0.040999999999999995 36
2.3555 -5.3789 1.0283 242
1.5391 -3.5488 -0.6748000000000001 230
1.4287 -3.293 0.041100000000000005 132
1.5438999999999998 -3.5586 -0.585 164
1.4287 -3.293 0.1235 63
1.5303 -3.5293 -0.4893 205
1.4453 -3.332 0.2086 88
1.4277000000000002 -3.2910000000000004 -0.3726 92
1.4424000000000001 -3.3242000000000003 0.2922 32
1.4188999999999998 -3.2714999999999996 -0.2876 126
2.3672 -5.457000000000001 0.6206 211
1.4219 -3.2773000000000003 -0.2051 130
2.3301 -5.3711 0.7476 70
1.4287 -3.293 -0.1235 133
2.332 -5.375 0.8872 196
1.4258000000000002 -3.2851999999999997 -0.040999999999999995 25
2.3379 -5.390599999999999 1.0283 224
1.5518 -3.6113 -0.6859999999999999 86
1.4219 -3.3086 0.0412 121
1.541 -3.5879000000000003 -0.5889 112
1.4180000000000001 -3.3007999999999997 0.12369999999999999 166
1.5215 -3.5410000000000004 -0.4902 219
1.4336000000000002 -3.3379000000000003 0.2086 185
1.4199000000000002 -3.3047000000000004 -0.37329999999999997 32
1.4325999999999999 -3.3358999999999996 0.2927 201
1.4082 -3.2793 -0.2878 10
2.3828 -5.542999999999999 0.6299 108
1.415 -3.293 -0.20579999999999998 47
2.3105 -5.3789 0.7476 247
1.4180000000000001 -3.3007999999999997 -0.12369999999999999 127
2.3086 -5.375 0.8856999999999999 52
1.415 -3.293 -0.040999999999999995 214
2.3203 -5.4023 1.0293 237
2.0156 -4.7344 -0.8998999999999999 185
1.4131 -3.3223000000000003 0.041299999999999996 194
1.4091999999999998 -3.3125 0.12390000000000001 137
1.5127000000000002 -3.5547000000000004 -0.4915 162
1.4209 -3.3379000000000003 0.2084 25
1.4131 -3.3202999999999996 -0.37450000000000006 205
1.4258000000000002 -3.3516000000000004 0.2937 11
1.3984 -3.2870999999999997 -0.28809999999999997 0
1.4003999999999999 -3.2910000000000004 -0.2053 156
2.291 -5.386699999999999 0.7476 77
1.4111000000000002 -3.3164 -0.124 5
2.2891 -5.3789 0.8848 234
1.4022999999999999 -3.2949 -0.040999999999999995 100
2.293 -5.390599999999999 1.0254 60
2.0078 -4.7656 -0.9043000000000001 34
1.3965 -3.3164 0.0412 159
1.9580000000000002 -4.6484 -0.7626999999999999 187
1.3994 -3.3223000000000003 0.1241 241
1.4062000000000001 -3.3398000000000003 0.20809999999999998 125
1.3975 -3.3183999999999996 -0.3738 52
1.4111000000000002 -3.3516000000000004 0.2932 171
1.4022999999999999 -3.3281 -0.2913 143
1.4434 -3.4276999999999997 0.3862 226
1.3896000000000002 -3.2988 -0.20559999999999998 198
2.2637 -5.3711 0.7445999999999999 223
1.4033000000000002 -3.332 -0.1245 185
2.2695 -5.386699999999999 0.8848 173
1.3916 -3.3047000000000004 -0.040999999999999995 2
2.2637 -5.3711 1.0205 78
2.0078 -4.8125 -0.9120999999999999 248
1.3838 -3.3164 0.041100000000000005 150
1.9541 -4.6836 -0.7676000000000001 249
1.3896000000000002 -3.332 0.1243 211
2.6582 -6.3711 -0.8828 30
1.3994 -3.3555 0.2089 12
1.3828 -3.3145 -0.373 171
1.4003999999999999 -3.3574 0.29350000000000004 107
1.3838 -3.3183999999999996 -0.29 111
1.4247999999999998 -3.4160000000000004 0.3845 174
1.3799000000000001 -3.3086 -0.20579999999999998 119
2.2422 -5.375 0.7437 69
1.3906 -3.3339999999999996 -0.1243 70
1.3866999999999998 -3.3242000000000003 -0.0412 8
2.0059 -4.8555 -0.9189 5
1.375 -3.3281 0.0412 57
1.9482 -4.7148 -0.7715000000000001 50
1.3809 -3.3418 0.1245 69
2.6562 -6.425800000000001 -0.8892 100
1.3896000000000002 -3.3632999999999997 0.2091 213
1.3779 -3.3339999999999996 -0.37450000000000006 41
1.3857 -3.3535000000000004 0.2927 48
1.3730000000000002 -3.3242000000000003 -0.29 139
1.4091999999999998 -3.4101999999999997 0.3833 168
1.3681999999999999 -3.3125 -0.20579999999999998 147
1.376 -3.3301 -0.124 83
1.4180000000000001 -3.4316000000000004 0.5596 233
1.375 -3.3281 -0.0412 104
1.4121000000000001 -3.4160000000000004 0.6445000000000001 235
2.0 -4.8867 -0.9233 100
1.3691 -3.3438 0.0414 180
2.002 -4.8906 -0.7993000000000001 113
1.3652000000000002 -3.3358999999999996 0.124 169
2.6464999999999996 -6.4688 -0.8936 14
1.3838 -3.3789 0.20980000000000001 55
1.3700999999999999 -3.3457 -0.37549999999999994 54
1.3809 -3.375 0.2942 253
1.3603999999999998 -3.3242000000000003 -0.2898 113
1.3936000000000002 -3.4043 0.3818 32
1.3633000000000002 -3.332 -0.20679999999999998 30
1.3906 -3.3964999999999996 0.46659999999999996 116
1.3652000000000002 -3.3358999999999996 -0.124 90
1.3965 -3.4120999999999997 0.5557 97
1.3613 -3.3262 -0.041100000000000005 82
1.4082 -3.4395 0.6479 181
1.9950999999999999 -4.9258 -0.9297 134
1.3613 -3.3613 0.0415 19
2.0508 -5.0625 -0.8262 91
1.3594 -3.3555 0.1246 5
2.6406 -6.519500000000001 -0.8994 85
1.3681999999999999 -3.377 0.2094 62
1.3603999999999998 -3.3594 -0.3762 46
1.3721 -3.3887 0.2949 173
1.3516 -3.3358999999999996 -0.2903 228
1.3788999999999998 -3.4023000000000003 0.38130000000000003 44
1.3516 -3.3358999999999996 -0.20679999999999998 22
1.3857 -3.4219 0.46950000000000003 68
1.3574000000000002 -3.3516000000000004 -0.1245 174
1.3506 -3.3339999999999996 -0.0412 11
1.3779 -3.4023000000000003 0.6401 129
1.9824000000000002 -4.9414 -0.9316 192
1.3466999999999998 -3.3574 0.0414 140
2.0625 -5.140599999999999 -0.8384 174
1.3496000000000001 -3.3651999999999997 0.12480000000000001 204
2.6348000000000003 -6.574199999999999 -0.9053 45
1.3544999999999998 -3.3789 0.2091 248
1.3477000000000001 -3.3594 -0.376 82
1.3613 -3.3945 0.2952 129
1.3486000000000002 -3.3632999999999997 -0.2922 163
1.3643 -3.4023000000000003 0.38060000000000005 251
1.3388999999999998 -3.3398000000000003 -0.20670000000000002 83
1.3643 -3.4023000000000003 0.4661 110
1.3516 -3.3711 -0.125 30
1.3818000000000001 -3.4473000000000003 0.5596 82
1.3388999999999998 -3.3398000000000003 -0.0412 125
1.374 -3.4257999999999997 0.6436 136
1.9785 -4.9844 -0.9384999999999999 79
1.335 -3.3632999999999997 0.0414 236
2.0547 -5.175800000000001 -0.8428 54
1.3418 -3.3789 0.1251 84
2.5234 -6.355499999999999 -0.8745 245
1.3457 -3.3906 0.2096 130
1.3330000000000002 -3.3574 -0.375 18
1.3506 -3.4043 0.2954 137
1.3369 -3.3691000000000004 -0.2922 194
1.3574000000000002 -3.4199 0.3821 159
1.3271000000000002 -3.3438 -0.20670000000000002 103
1.3535 -3.4101999999999997 0.46659999999999996 138
1.3359 -3.3651999999999997 -0.1246 101
1.3643 -3.4355 0.5571 41
1.3319999999999999 -3.3574 -0.0414 101
1.3574000000000002 -3.4199 0.6411 119
1.9893 -5.0625 -0.9517 63
1.3241999999999998 -3.3711 0.0414 1
2.0098 -5.1133 -0.8315 199
1.3262 -3.377 0.1249 154
2.4238 -6.171900000000001 -0.8472 214
1.3369 -3.4023000000000003 0.21 132
1.3252000000000002 -3.373 -0.3762 97
1.3359 -3.4004000000000003 0.29469999999999996 121
1.3252000000000002 -3.373 -0.2922 104
1.3466999999999998 -3.4276999999999997 0.3826 35
1.3222999999999998 -3.3651999999999997 -0.2076 88
1.3437999999999999 -3.4199 0.467 60
1.3232 -3.3691000000000004 -0.1246 0
1.3486000000000002 -3.4316000000000004 0.5557 194
1.3241999999999998 -3.3711 -0.0414 183
1.3506 -3.4375 0.6436 69
1.9834 -5.1016 -0.9575 128
1.3203 -3.3945 0.0417 174
1.9813999999999998 -5.0938 -0.8271 116
1.3154 -3.3827999999999996 0.1249 224
2.3906 -6.1484000000000005 -0.8432999999999999 27
1.3281 -3.4141000000000004 0.2104 215
1.3144999999999998 -3.3808999999999996 -0.37670000000000003 216
1.3262 -3.4101999999999997 0.2952 203
1.3115 -3.373 -0.292 21
1.3369 -3.4375 0.3831 224
1.3125 -3.375 -0.20800000000000002 126
1.3311000000000002 -3.4238 0.467 142
1.3163999999999998 -3.3848000000000003 -0.125 210
1.335 -3.4336 0.5552 157
1.3086000000000002 -3.3651999999999997 -0.0414 253
1.3397999999999999 -3.4452999999999996 0.6445000000000001 22
1.9707 -5.1211 -0.96 195
1.3075999999999999 -3.3983999999999996 0.0417 75
2.0371 -5.292999999999999 -0.8584 236
1.3075999999999999 -3.3964999999999996 0.1252 146
2.3555 -6.1211 -0.8379000000000001 44
1.3135 -3.4120999999999997 0.21 138
1.3066 -3.3945 -0.37770000000000004 48
1.3203 -3.4297000000000004 0.2966 216
1.2988 -3.375 -0.2917 34
1.3213 -3.4336 0.3821 97
1.2969 -3.3711 -0.20739999999999997 154
1.3252000000000002 -3.4433999999999996 0.469 177
1.3066 -3.3945 -0.1252 103
1.3262 -3.4473000000000003 0.5566 48
1.2949000000000002 -3.3651999999999997 -0.041299999999999996 106
1.3241999999999998 -3.4414 0.6426000000000001 173
1.9727000000000001 -5.175800000000001 -0.9692000000000001 48
1.2938999999999998 -3.3964999999999996 0.0416 122
2.3203 -6.0859000000000005 -0.9868000000000001 9
1.2988 -3.4082 0.12560000000000002 105
2.3555 -6.1797 -0.8452 218
1.2988 -3.4082 0.2096 136
1.2959 -3.4004000000000003 -0.3779 58
1.3144999999999998 -3.4492000000000003 0.2979 115
1.2919999999999998 -3.3906 -0.2927 3
1.3105000000000002 -3.4395 0.3821 102
1.2852000000000001 -3.3711 -0.2073 243
1.3105000000000002 -3.4395 0.46799999999999997 156
1.2988 -3.4082 -0.12560000000000002 205
1.3184 -3.4589999999999996 0.5581 52
1.2871000000000001 -3.3789 -0.0414 1
1.3144999999999998 -3.4492000000000003 0.6436 240
1.9727000000000001 -5.2265999999999995 -0.978 208
1.2822 -3.4004000000000003 0.0416 19
2.2949 -6.082000000000001 -0.9843999999999999 205
1.2891 -3.4160000000000004 0.1257 8
2.3203 -6.1523 -0.8403 128
1.2930000000000001 -3.4276999999999997 0.2104 104
1.2832 -3.4004000000000003 -0.3774 167
1.2978999999999998 -3.4395 0.2966 225
1.2891 -3.4160000000000004 -0.29469999999999996 236
1.3056999999999999 -3.4608999999999996 0.3843 37
1.2803 -3.3926 -0.20829999999999999 164
1.2978999999999998 -3.4395 0.4673 41
1.2822 -3.4004000000000003 -0.1251 178
1.2822 -3.4004000000000003 -0.0416 158
2.0332 -5.390599999999999 1.0088 71
1.9697 -5.2812 -0.9863 18
1.2734 -3.4160000000000004 0.0417 229
2.248 -6.0273 -0.9741 233
1.2773 -3.4257999999999997 0.1259 143
2.2949 -6.1523 -0.8389 12
1.2812000000000001 -3.4375 0.2107 95
1.2725 -3.4120999999999997 -0.3782 10
1.2832 -3.4395 0.2961 227
1.2715 -3.4101999999999997 -0.2937 7
1.2978999999999998 -3.4805 0.3857 18
1.2734 -3.4141000000000004 -0.2094 194
1.9971 -5.355499999999999 0.73 64
1.2695 -3.4043 -0.1251 31
2.0098 -5.390599999999999 0.8706 99
1.2744 -3.418 -0.0417 183
2.0078 -5.386699999999999 1.0059 112
2.207 -5.980499999999999 -1.1172 68
1.2656 -3.4316000000000004 0.04190000000000001 137
2.2305 -6.046900000000001 -0.9761 145
1.2598 -3.4141000000000004 0.1252 92
2.2734 -6.1602 -0.8389 99
1.9893 -5.394500000000001 0.3318 46
1.2607 -3.4160000000000004 -0.3782 186
1.9824000000000002 -5.3711 0.46409999999999996 132
1.2588 -3.4120999999999997 -0.2932 69
1.9872999999999998 -5.386699999999999 0.5991 176
1.2354 -3.3476999999999997 -0.205 44
1.9824000000000002 -5.3711 0.731 75
1.2588 -3.4120999999999997 -0.1252 127
1.9844 -5.3789 0.8676999999999999 14
1.2588 -3.4101999999999997 -0.0416 106
1.9931999999999999 -5.4023 1.0078 92
2.1855 -5.984400000000001 -1.1162 41
1.9561000000000002 -5.359400000000001 0.0658 76
2.2148 -6.0664 -0.9784999999999999 142
1.9463 -5.332000000000001 0.19640000000000002 68
2.25 -6.1602 -0.8379000000000001 241
1.9561000000000002 -5.355499999999999 0.32909999999999995 98
1.2549 -3.4355 -0.3799 188
1.9609 -5.3711 0.46340000000000003 79
1.2461 -3.4141000000000004 -0.2932 137
1.9687999999999999 -5.390599999999999 0.5986 49
1.2119 -3.3202999999999996 -0.2029 15
1.9707 -5.394500000000001 0.7334 159
1.2549 -3.4355 -0.126 152
1.9707 -5.3984000000000005 0.8695999999999999 119
1.9453 -5.328099999999999 -0.0654 85
1.9707 -5.3984000000000005 1.0059 185
2.1758 -6.0234000000000005 -1.1220999999999999 222
1.9346 -5.3515999999999995 0.06570000000000001 254
2.207 -6.105499999999999 -0.9834 205
1.9385 -5.363300000000001 0.1974 238
2.2363 -6.1914 -0.8412999999999999 107
1.9365 -5.355499999999999 0.3289 192
1.2549 -3.4726999999999997 -0.3833 13
1.9424000000000001 -5.375 0.4631 16
1.2529000000000001 -3.4688 -0.29760000000000003 223
1.9502000000000002 -5.3984000000000005 0.5986 14
1.2031 -3.3301 -0.2032 179
1.9502000000000002 -5.394500000000001 0.7323999999999999 45
1.9306999999999999 -5.3438 -0.19649999999999998 225
1.9580000000000002 -5.417999999999999 0.8721 13
1.9277000000000002 -5.332000000000001 -0.0654 43
1.9502000000000002 -5.394500000000001 1.0039 237
2.1719 -6.078099999999999 -1.1309 58
1.9141 -5.355499999999999 0.06559999999999999 93
2.1895 -6.125 -0.9849 190
1.9199000000000002 -5.3711 0.1974 118
2.2109 -6.1836 -0.8393999999999999 240
1.9219 -5.375 0.3293 8
1.9219 -5.375 0.46259999999999996 119
1.2422 -3.4745999999999997 -0.29760000000000003 147
1.9306999999999999 -5.3984000000000005 0.5981000000000001 142
1.1934 -3.3379000000000003 -0.20350000000000001 240
1.9238 -5.3828 0.7295 66
1.9111000000000002 -5.3438 -0.19640000000000002 90
1.9336000000000002 -5.4102 0.8691 72
1.9111000000000002 -5.3477 -0.0655 231
2.2012 -6.2188 -1.1562000000000001 133
1.8936000000000002 -5.355499999999999 0.0655 15
2.1836 -6.175800000000001 -0.9922 235
1.8955000000000002 -5.359400000000001 0.1967 64
2.1973 -6.2148 -0.8423 112
1.9062000000000001 -5.390599999999999 0.3298 56
1.9033000000000002 -5.3789 0.46240000000000003 74
1.8965 -5.363300000000001 -0.46090000000000003 177
1.9209 -5.4297 0.6006 98
1.1875 -3.3574 -0.2046 221
1.8936000000000002 -5.3515999999999995 -0.19649999999999998 183
1.8916 -5.3477 -0.0654 143
1.9188999999999998 -5.425800000000001 1.0068000000000001 177
2.1035 -6.019500000000001 -1.1172 181
1.8788999999999998 -5.375 0.06570000000000001 191
2.2012 -6.300800000000001 -1.0107 146
1.8779 -5.375 0.19699999999999998 211
2.1836 -6.25 -0.8462000000000001 251
1.8896000000000002 -5.4062 0.3306 30
1.8847999999999998 -5.394500000000001 0.4631 48
1.8681999999999999 -5.3477 -0.45899999999999996 13
1.8944999999999999 -5.421900000000001 0.5991 157
1.1826 -3.3848000000000003 -0.2059 186
1.8925999999999998 -5.417999999999999 0.7329000000000001 154
1.8730000000000002 -5.359400000000001 -0.19649999999999998 230
1.8711000000000002 -5.355499999999999 -0.0654 167
2.0566 -5.953099999999999 -1.1025 162
1.8633000000000002 -5.394500000000001 0.0658 3
2.0996 -6.078099999999999 -0.9741 235
1.8633000000000002 -5.394500000000001 0.1975 161
2.1777 -6.3047 -0.8525 115
1.8700999999999999 -5.4140999999999995 0.3306 138
1.8769999999999998 -5.4336 0.4658 157
1.8574000000000002 -5.3789 -0.46090000000000003 135
1.8779 -5.4336 0.5996 204
1.8613 -5.386699999999999 -0.1971 202
1.8563999999999998 -5.3711 -0.06559999999999999 50
2.0352 -5.953099999999999 -1.1025 204
1.8477000000000001 -5.4102 0.0659 197
2.0781 -6.0859000000000005 -0.9741 132
1.8516 -5.421900000000001 0.19820000000000002 30
2.1621 -6.332000000000001 -0.855 15
1.8574000000000002 -5.4375 0.33149999999999996 165
5.296900000000001 -15.5078 -1.7178 234
1.8633000000000002 -5.453099999999999 0.467 35
1.8486000000000002 -5.4102 -0.46340000000000003 164
1.8691 -5.4727 0.603 237
1.8437999999999999 -5.3984000000000005 -0.32909999999999995 238
1.8466999999999998 -5.4062 -0.19760000000000003 11
1.875 -5.488300000000001 0.8779 237
1.8388999999999998 -5.3828 -0.06559999999999999 205
1.8700999999999999 -5.4765999999999995 1.0127 251
2.0117 -5.953099999999999 -1.1006 24
1.8330000000000002 -5.4297 0.0661 53
2.0586 -6.0938 -0.9741 187
1.8388999999999998 -5.4453 0.1989 201
2.0898 -6.1875 -0.8345 252
1.8447 -5.4648 0.3328 230
5.292999999999999 -15.6797 -1.7344 219
1.8516 -5.484400000000001 0.469 231
1.8388999999999998 -5.4453 -0.4658 125
1.8594 -5.5039 0.606 238
1.8369 -5.4375 -0.33130000000000004 40
1.8544999999999998 -5.4922 0.7402 104
1.8369 -5.4375 -0.1986 141
1.8799000000000001 -5.5664 0.8892 56
1.835 -5.4336 -0.0662 178
1.8838 -5.578099999999999 1.0312000000000001 180
1.9902000000000002 -5.957000000000001 -1.1006 21
1.8359 -5.4961 0.0669 222
2.0371 -6.1015999999999995 -0.9741 99
1.835 -5.4922 0.2004 27
2.0605 -6.171900000000001 -0.8315 172
1.8486000000000002 -5.5352 0.3367 206
5.2812 -15.8047 -1.7471 136
1.8447 -5.5234000000000005 0.4719 60
1.8271000000000002 -5.4727 -0.4675 120
1.8643 -5.582000000000001 0.6138 119
1.8232 -5.4609000000000005 -0.3323 113
1.8603999999999998 -5.5703 0.75 55
1.8311000000000002 -5.480499999999999 -0.2 23
1.875 -5.613300000000001 0.8959999999999999 177
1.8359 -5.4961 -0.0669 32
1.8828 -5.636699999999999 1.041 239
1.9727000000000001 -5.9727 -1.1016 155
1.835 -5.5547 0.0675 27
2.0176 -6.105499999999999 -0.9741 146
1.8369 -5.5625 0.2028 15
2.0352 -6.1602 -0.8291 140
1.8506 -5.6015999999999995 0.3406 14
5.300800000000001 -16.0469 -1.7715 159
1.8516 -5.605499999999999 0.47850000000000004 53
1.8262 -5.5273 -0.4717 88
1.8594 -5.6289 0.6187 229
1.8281 -5.5352 -0.33640000000000003 231
1.8603999999999998 -5.6328 0.7573000000000001 153
1.8378999999999999 -5.5664 -0.2029 68
1.8711000000000002 -5.6640999999999995 0.9033 88
1.8388999999999998 -5.5664 -0.0676 149
1.8779 -5.6836 1.0488 103
1.9434 -5.957000000000001 -1.0977 167
1.834 -5.6211 0.0682 15
1.9950999999999999 -6.113300000000001 -0.9741 167
1.8330000000000002 -5.6172 0.2045 202
2.0078 -6.1562 -0.8271 77
1.8388999999999998 -5.636699999999999 0.3423 243
1.8457 -5.6562 0.4824 233
1.8252000000000002 -5.5938 -0.4771 197
1.8535 -5.6797 0.6235 254
1.8271000000000002 -5.5977 -0.34009999999999996 133
1.8652000000000002 -5.7148 0.7681 242
1.835 -5.6211 -0.2047 163
1.8721 -5.738300000000001 0.9136 44
1.8300999999999998 -5.609400000000001 -0.0681 28
1.874 -5.7461 1.0576 124
1.9169999999999998 -5.9453 -1.0937999999999999 16
1.8271000000000002 -5.667999999999999 0.0687 130
1.9619 -6.082000000000001 -0.9682999999999999 88
1.835 -5.6914 0.207 57
1.9844 -6.1562 -0.8262 129
1.8397999999999999 -5.707000000000001 0.34619999999999995 216
1.8477000000000001 -5.730499999999999 0.48829999999999996 128
1.8291 -5.671900000000001 -0.4832 178
1.8584 -5.761699999999999 0.6318 194
1.8213 -5.6484000000000005 -0.3428 200
1.8603999999999998 -5.769500000000001 0.7744 101
1.835 -5.6914 -0.207 12
1.874 -5.8125 0.9248000000000001 181
1.8330000000000002 -5.6836 -0.069 3
1.8730000000000002 -5.8086 1.0693000000000001 137
1.8916 -5.9414 -1.0918 176
1.8262 -5.734400000000001 0.0695 35
1.9306999999999999 -6.0664 -0.9639 118
1.834 -5.7578 0.20920000000000002 173
1.9512 -6.1289 -0.8218000000000001 77
1.8397999999999999 -5.7812 0.3503 178
1.8447 -5.792999999999999 0.4929 216
1.8300999999999998 -5.7461 -0.489 29
1.8555000000000001 -5.828099999999999 0.6382 9
1.8184 -5.7109000000000005 -0.34590000000000004 31
1.8544999999999998 -5.824199999999999 0.7807999999999999 90
1.8300999999999998 -5.7461 -0.2089 133
1.8681999999999999 -5.8672 0.9326000000000001 170
1.8319999999999999 -5.7539 -0.0697 121
1.8721 -5.8789 1.0811 28
1.8788999999999998 -5.9727 -1.0967 83
1.8281 -5.8125 0.0703 30
1.9003999999999999 -6.042999999999999 -0.9590000000000001 57
1.8291 -5.8164 0.21109999999999998 205
1.9482 -6.1953 -0.8301000000000001 161
1.8408000000000002 -5.8515999999999995 0.3542 114
1.8408000000000002 -5.8515999999999995 0.4976 244
1.8311000000000002 -5.824199999999999 -0.4949 200
1.8535 -5.890599999999999 0.6445000000000001 203
1.8213 -5.792999999999999 -0.3506 168
1.8555000000000001 -5.8984000000000005 0.79 57
1.8222999999999998 -5.792999999999999 -0.21030000000000001 111
1.8643 -5.9297 0.9409000000000001 90
1.8319999999999999 -5.824199999999999 -0.0705 108
1.8779 -5.9727 1.0967 145
1.8662 -6.0039 -1.1016 58
1.8241999999999998 -5.8711 0.071 63
1.8994 -6.113300000000001 -0.9692000000000001 0
1.8262 -5.8789 0.21309999999999998 18
1.9141 -6.1602 -0.8242 108
1.8378999999999999 -5.9140999999999995 0.3577 189
1.8408000000000002 -5.925800000000001 0.5029 55
1.8311000000000002 -5.894500000000001 -0.5005 149
1.8555000000000001 -5.9727 0.6528 10
1.8154 -5.8438 -0.3533 151
1.8603999999999998 -5.988300000000001 0.8012999999999999 161
1.8222999999999998 -5.8672 -0.2126 91
1.8622999999999998 -5.9961 0.9506999999999999 152
1.8281 -5.8828 -0.0712 250
1.876 -6.0390999999999995 1.1074 236
1.8437999999999999 -6.0078 -1.1006 228
1.8300999999999998 -5.9648 0.07200000000000001 41
1.8711000000000002 -6.0977 -0.9658 184
1.8262 -5.949199999999999 0.21559999999999999 253
1.8857 -6.144500000000001 -0.8212999999999999 113
1.8378999999999999 -5.988300000000001 0.3618 94
1.8437999999999999 -6.0078 0.5097999999999999 20
1.8574000000000002 -6.050800000000001 -0.5136999999999999 219
1.8525 -6.0352 0.6592 37
1.8154 -5.9140999999999995 -0.3574 243
1.8574000000000002 -6.0547 0.8090999999999999 136
1.8252000000000002 -5.9453 -0.2155 137
1.8594 -6.0586 0.96 163
1.8222999999999998 -5.9375 -0.0717 186
1.8711000000000002 -6.0977 1.1172 15
1.8369 -6.0547 -1.1084 136
1.8213 -6.0 0.0724 67
1.8652000000000002 -6.1484000000000005 -0.9731000000000001 75
1.8300999999999998 -6.0312 0.2184 228
1.8788999999999998 -6.1914 -0.8267 60
1.8311000000000002 -6.0352 0.3643 62
1.8428 -6.074199999999999 0.5146000000000001 175
1.8477000000000001 -6.0898 0.6640999999999999 140
1.8096 -5.9648 -0.3601 183
1.8535 -6.109400000000001 0.8154 43
1.8232 -6.0078 -0.2175 74
1.8662 -6.1523 0.9736 5
1.8271000000000002 -6.019500000000001 -0.0727 161
1.876 -6.1836 1.1318000000000001 185
1.8154 -6.0547 0.073 18
1.8496000000000001 -6.167999999999999 -0.9756 209
1.8281 -6.0977 0.2205 218
1.8711000000000002 -6.238300000000001 -0.8325 215
1.8330000000000002 -6.113300000000001 0.36869999999999997 171
1.8447 -6.1523 0.521 62
1.8563999999999998 -6.1914 0.6748000000000001 128
1.8125 -6.046900000000001 -0.36450000000000005 121
1.8594 -6.203099999999999 0.8271 237
1.8213 -6.074199999999999 -0.21960000000000002 13
1.8681999999999999 -6.230499999999999 0.9854 210
1.8252000000000002 -6.0859000000000005 -0.07339999999999999 41
1.875 -6.2539 1.1436 251
1.9813999999999998 -6.699199999999999 -1.2246 72
1.8154 -6.136699999999999 0.0739 85
1.9336000000000002 -6.5352 -1.0332 34
1.8232 -6.1640999999999995 0.2227 225
1.8613 -6.292999999999999 -0.8384 139
1.8359 -6.207000000000001 0.3738 91
1.8378999999999999 -6.2109000000000005 0.5254 111
1.8544999999999998 -6.269500000000001 0.6826000000000001 54
1.8115 -6.125 -0.3689 76
1.8437999999999999 -6.234400000000001 0.8306 213
1.8163999999999998 -6.140599999999999 -0.2218 123
1.8652000000000002 -6.3047 0.9961 86
1.8232 -6.1602 -0.0742 155
1.874 -6.3359000000000005 1.1572 179
1.9580000000000002 -6.703099999999999 -1.2236 158
1.8135 -6.2109000000000005 0.0748 90
1.9365 -6.6328 -1.0469 38
1.8203 -6.234400000000001 0.225 157
1.8477000000000001 -6.324199999999999 -0.8423 232
1.8319999999999999 -6.2734000000000005 0.3774 127
5.3203 -18.2188 -1.9902000000000002 118
1.8397999999999999 -6.300800000000001 0.5322 93
1.8496000000000001 -6.3359000000000005 0.6890000000000001 48
1.8086000000000002 -6.1953 -0.3728 122
1.8378999999999999 -6.292999999999999 0.8379000000000001 200
1.8144999999999998 -6.2148 -0.2242 74
1.8574000000000002 -6.359400000000001 1.0039 240
1.8193000000000001 -6.230499999999999 -0.075 31
1.875 -6.421900000000001 1.1719 239
1.9277000000000002 -6.6875 -1.2197 116
1.8163999999999998 -6.300800000000001 0.0758 163
1.916 -6.644500000000001 -1.0479 29
1.8193000000000001 -6.3125 0.2275 71
1.8418 -6.390599999999999 -0.8501000000000001 57
1.8281 -6.3438 0.38130000000000003 52
5.3047 -18.3906 -2.0078 121
1.8388999999999998 -6.3789 0.5386 163
1.8457 -6.4023 0.6958 1
1.8008000000000002 -6.25 -0.3757 10
1.8477000000000001 -6.4102 0.8525 159
1.8154 -6.300800000000001 -0.22719999999999999 234
1.8584 -6.449199999999999 1.0166 37
1.8184 -6.3086 -0.0759 120
1.8662 -6.4727 1.1806999999999999 223
1.9013999999999998 -6.6836 -1.2178 176
1.8125 -6.3711 0.0766 233
1.8944999999999999 -6.6602 -1.0488 233
1.8203 -6.3984000000000005 0.2305 121
1.8457 -6.488300000000001 -0.8623000000000001 4
1.8262 -6.421900000000001 0.3857 86
5.2852 -18.5781 -2.0254 6
1.835 -6.449199999999999 0.5439 231
1.8408000000000002 -6.4727 0.7026 158
1.8027000000000002 -6.3359000000000005 -0.38060000000000005 150
1.8496000000000001 -6.5 0.8637999999999999 46
1.8154 -6.3828 -0.23 60
1.8584 -6.5352 1.0293 105
1.8144999999999998 -6.3789 -0.0767 229
1.8662 -6.5586 1.1953 37
1.8769999999999998 -6.6914 -1.2178 229
1.8066 -6.4414 0.07730000000000001 171
1.8711000000000002 -6.671900000000001 -1.0498 92
1.8174000000000001 -6.4765999999999995 0.2332 91
1.8418 -6.5664 -0.8715999999999999 99
1.8232 -6.5 0.3901 167
3.8125 -13.593800000000002 -1.4794999999999998 218
1.8291 -6.5234000000000005 0.5498 217
1.8397999999999999 -6.5586 0.7114 203
1.7938999999999998 -6.394500000000001 -0.38380000000000003 128
1.8418 -6.5625 0.8715999999999999 206
1.8037 -6.4297 -0.2314 160
1.8584 -6.625 1.043 10
1.8154 -6.4727 -0.07769999999999999 180
1.8662 -6.6523 1.2109 100
1.8603999999999998 -6.7227 -1.2227 80
1.8075999999999999 -6.5312 0.0784 74
1.8457 -6.667999999999999 -1.0488 250
1.8135 -6.550800000000001 0.23559999999999998 212
1.8359 -6.6328 -0.8798999999999999 61
1.8241999999999998 -6.5898 0.3953 37
3.7637 -13.601600000000001 -1.4785 201
1.8291 -6.609400000000001 0.5566 223
4.0781 -14.7422 -1.2451 149
1.8418 -6.6523 0.7212000000000001 212
1.7959 -6.4922 -0.3892 143
1.8437999999999999 -6.6602 0.8833 239
1.8027000000000002 -6.511699999999999 -0.2341 70
1.8544999999999998 -6.699199999999999 1.0537 130
1.8105000000000002 -6.542999999999999 -0.0785 135
1.8681999999999999 -6.75 1.2275 30
1.8397999999999999 -6.734400000000001 -1.2236 121
1.8018 -6.5977 0.079 75
1.8369 -6.7227 -1.0566 41
1.8105000000000002 -6.6289 0.2382 113
1.834 -6.7109000000000005 -0.8896 56
1.8222999999999998 -6.671900000000001 0.3997 228
3.7108999999999996 -13.5781 -1.4756 163
1.8262 -6.6836 0.5625 139
3.7148000000000003 -13.601600000000001 -1.1475 164
1.8369 -6.7227 0.728 61
1.7959 -6.574199999999999 -0.39380000000000004 19
1.8437999999999999 -6.75 0.8945000000000001 121
1.8037 -6.605499999999999 -0.2373 32
1.8525 -6.7812 1.0654000000000001 115
1.8075999999999999 -6.6172 -0.0793 51
1.8662 -6.832000000000001 1.2412 204
1.8184 -6.7422 -1.2236 137
1.8075999999999999 -6.703099999999999 0.0803 176
1.8311000000000002 -6.7890999999999995 -1.0654000000000001 229
1.8115 -6.7188 0.2412 137
3.957 -14.6719 -1.9491999999999998 69
1.8163999999999998 -6.738300000000001 0.4033 165
3.6757999999999997 -13.6328 -1.4794999999999998 243
1.8271000000000002 -6.7734000000000005 0.5693 211
3.6601999999999997 -13.5781 -1.1445 101
1.8388999999999998 -6.8203 0.7378 81
1.79 -6.636699999999999 -0.3972 140
1.8437999999999999 -6.8398 0.9057999999999999 59
1.8027000000000002 -6.6836 -0.24 53
1.8555000000000001 -6.8789 1.0801 160
1.8066 -6.699199999999999 -0.0803 126
1.8633000000000002 -6.9102 1.2549 132
1.8086000000000002 -6.8086 -1.2344 193
1.7949000000000002 -6.7578 0.0809 171
1.9141 -7.203099999999999 -1.1299 24
1.8066 -6.800800000000001 0.2439 74
3.9101999999999997 -14.718800000000002 -1.9531 186
1.8105000000000002 -6.8164 0.4077 197
2.3398 -8.8047 -0.9531000000000001 217
1.8241999999999998 -6.8672 0.5767 253
1.8311000000000002 -6.890599999999999 0.7445999999999999 239
1.7871000000000001 -6.7265999999999995 -0.4023 249
1.8369 -6.9140999999999995 0.915 17
1.8008000000000002 -6.7773 -0.243 40
1.8477000000000001 -6.953099999999999 1.0908 209
1.7997999999999998 -6.7734000000000005 -0.08109999999999999 3
1.8555000000000001 -6.984400000000001 1.2666 144
1.8936000000000002 -7.2265999999999995 -1.3096 39
1.7871000000000001 -6.8203 0.0815 12
1.9022999999999999 -7.261699999999999 -1.1387 224
1.8047 -6.886699999999999 0.2468 180
3.8691000000000004 -14.773399999999999 -1.959 30
1.8096 -6.9062 0.4128 165
2.3066 -8.8047 -0.9521 229
1.8174000000000001 -6.9375 0.5820000000000001 25
1.835 -7.0039 0.7563 22
1.7841999999999998 -6.8125 -0.40700000000000003 97
1.834 -7.0039 0.9258 200
1.7919999999999998 -6.8398 -0.2451 29
1.8506 -7.0664 1.1074 212
1.8008000000000002 -6.875 -0.08220000000000001 59
1.8594 -7.0977 1.2871000000000001 109
1.8691 -7.2422 -1.3115 118
1.7852000000000001 -6.917999999999999 0.08259999999999999 37
3.2851999999999997 -12.726600000000001 -1.9980000000000002 50
1.7959 -6.9609000000000005 0.2491 155
3.8438 -14.898399999999999 -1.9736000000000002 10
1.8096 -7.015599999999999 0.41869999999999996 78
2.2754 -8.8203 -0.9526 171
1.8144999999999998 -7.0312 0.5893999999999999 255
3.6426 -14.1172 -1.1875 142
1.8319999999999999 -7.0977 0.7661 215
1.7793 -6.894500000000001 -0.41159999999999997 197
1.8311000000000002 -7.0938 0.937 116
1.7852000000000001 -6.917999999999999 -0.2477 139
1.8466999999999998 -7.1562 1.1201 152
1.7959 -6.9609000000000005 -0.08310000000000001 181
1.8584 -7.203099999999999 1.3047 25
1.8466999999999998 -7.2578 -1.3135 180
1.7930000000000001 -7.050800000000001 0.0842 232
2.2188 -8.7188 -1.3652000000000002 231
1.7949000000000002 -7.0586 0.25239999999999996 121
2.2012 -8.6484 -1.1426 123
1.8105000000000002 -7.1172 0.42460000000000003 241
2.1484 -8.4531 -0.9120999999999999 151
1.8154 -7.136699999999999 0.5981000000000001 50
2.1191 -8.3281 -0.6981999999999999 129
1.8291 -7.1914 0.7754000000000001 38
1.7793 -6.9961 -0.4172 22
1.834 -7.2109000000000005 0.9517 43
1.7891 -7.0352 -0.25170000000000003 43
1.8447 -7.2539 1.1348 26
1.7930000000000001 -7.050800000000001 -0.0842 242
1.8544999999999998 -7.292999999999999 1.3193000000000001 155
2.6035000000000004 -10.3828 -1.8799000000000001 251
1.791 -7.140599999999999 0.0852 69
2.168 -8.6484 -1.3525 57
1.7969 -7.1640999999999995 0.2561 141
2.1484 -8.5625 -1.1309 110
1.8086000000000002 -7.2109000000000005 0.4299 3
2.1094 -8.4062 -0.9062 46
1.8154 -7.238300000000001 0.606 135
2.0781 -8.2891 -0.6943 168
1.8262 -7.2812 0.7842 66
1.7793 -7.0938 -0.4229 17
1.8311000000000002 -7.300800000000001 0.9629000000000001 91
1.79 -7.136699999999999 -0.2551 150
1.8457 -7.359400000000001 1.1504 39
1.7919999999999998 -7.144500000000001 -0.0852 140
1.8563999999999998 -7.4023 1.3378999999999999 29
2.5683999999999996 -10.3828 -1.8788999999999998 111
1.7861000000000002 -7.2227 0.0861 126
2.1367 -8.6406 -1.3506 225
1.7978999999999998 -7.269500000000001 0.25980000000000003 255
2.0977 -8.4844 -1.1191 142
1.8027000000000002 -7.2890999999999995 0.4343 91
2.1191 -8.5703 -0.9238 195
1.8193000000000001 -7.355499999999999 0.6152000000000001 155
2.0781 -8.4062 -0.7036 237
1.8271000000000002 -7.386699999999999 0.7954000000000001 255
1.7734 -7.171900000000001 -0.42719999999999997 162
1.8311000000000002 -7.4023 0.9756 36
1.7891 -7.234400000000001 -0.2585 47
1.8447 -7.4609000000000005 1.165 72
1.7891 -7.234400000000001 -0.0862 146
1.8525 -7.4922 1.3535 167
2.5254 -10.3828 -1.876 153
1.7861000000000002 -7.3438 0.0875 91
2.1016 -8.6406 -1.3496000000000001 182
1.7930000000000001 -7.3711 0.2632 80
2.0762 -8.5391 -1.125 232
1.8008000000000002 -7.4062 0.4407 193
2.084 -8.5625 -0.9218999999999999 202
1.8125 -7.453099999999999 0.623 3
2.0762 -8.5391 -0.7139 80
1.8222999999999998 -7.4922 0.8057 204
1.7694999999999999 -7.2773 -0.43310000000000004 123
1.8241999999999998 -7.5 0.9873000000000001 202
1.7812000000000001 -7.324199999999999 -0.2615 175
1.8437999999999999 -7.578099999999999 1.1826 116
1.7891 -7.355499999999999 -0.0876 149
1.8486000000000002 -7.6015999999999995 1.3721 145
2.4844 -10.375 -1.874 6
1.7832 -7.4414 0.0886 82
2.0684 -8.6328 -1.3466999999999998 12
1.7881 -7.4648 0.2661 30
2.0781 -8.6719 -1.1416 239
1.8008000000000002 -7.515599999999999 0.447 135
