# .PCD v0.7 - Point Cloud Data file format
VERSION 0.7
FIELDS x y z intensity
SIZE 4 4 4 4
TYPE F F F F
COUNT 1 1 1 1
WIDTH 1318
HEIGHT 1
VIEWPOINT 0 0 0 1 0 0 0
POINTS 1318
DATA ascii
-0.3542 -4.9414 -0.6318 253
-0.35840000000000005 -5.0 -0.5225 246
-0.3835 -5.3515999999999995 -0.4346 70
-0.521 -7.265599999999999 -0.2527 138
-0.0663 -0.8837999999999999 -0.1489 27
-0.4946 -6.5938 0.0764 98
-0.3779 -5.0391 -0.7642 251
-0.373 -4.9727 -0.6362 27
-0.3735 -4.9766 -0.52 42
-0.3982 -5.3086 -0.43119999999999997 123
-0.5449 -7.265599999999999 -0.2527 4
-0.0701 -0.8916 -0.1503 1
-0.5234000000000001 -6.6523 0.0771 192
-0.3933 -4.9961 -0.7578 243
-0.3962 -5.0352 -0.644 100
-0.3926 -4.9883 -0.5215 65
-0.41600000000000004 -5.2852 -0.4294 179
-0.0731 -0.8892 -0.1499 133
-0.542 -6.5938 0.0765 121
-0.4097 -4.9844 -0.7559 105
-0.4097 -4.9844 -0.6377 154
-0.41240000000000004 -5.0156 -0.5244 48
-0.43700000000000006 -5.3164 -0.4321 48
-0.0757 -0.8833 -0.1489 240
-0.5688 -6.636699999999999 0.077 206
-0.4294 -5.0078 -0.7603 126
-0.4241 -4.9453 -0.6333 61
-0.4275 -4.9844 -0.5215 97
-0.457 -5.332000000000001 -0.43329999999999996 191
-0.079 -0.8848 -0.1492 25
-0.5879 -6.5859000000000005 0.0764 191
-0.4451 -4.9844 -0.7568 214
-0.44170000000000004 -4.9492 -0.6333 70
-0.44530000000000003 -4.9922 -0.522 33
-0.4792 -5.3672 -0.4365 18
-0.08310000000000001 -0.8965000000000001 -0.1514 24
-0.6118 -6.5938 0.0765 185
-0.4622 -4.9805 -0.7563 43
-0.46090000000000003 -4.9688 -0.6362 130
-0.49829999999999997 -5.3711 -0.43700000000000006 107
-0.46950000000000003 -4.875 -0.8564 32
-0.6347999999999999 -6.5938 0.0765 47
-0.48100000000000004 -4.9961 -0.7587999999999999 23
-0.4783 -4.9688 -0.6367 191
-0.5068 -5.261699999999999 -0.4282 244
-0.5879 -6.105499999999999 -0.3542 101
-0.47950000000000004 -4.8047 -0.8438 105
-0.6581999999999999 -6.5977 0.0766 216
-0.4963 -4.9727 -0.7559 200
-0.4993 -5.0 -0.6411 216
-0.49950000000000006 -5.0039 -0.5239 135
-0.5283 -5.292999999999999 -0.4307 7
-0.6093999999999999 -6.105499999999999 -0.3542 165
-0.4946 -4.7852 -0.8408 255
-0.6816 -6.5938 0.0766 155
-0.5127 -4.9609 -0.7539 38
-0.5171 -5.0078 -0.6420999999999999 233
-0.5171 -5.0 -0.5239 36
-0.5518 -5.3359000000000005 -0.4346 206
-0.6309 -6.1015999999999995 -0.3542 218
-0.6820999999999999 -6.6015999999999995 -0.0767 80
-0.5132 -4.8008 -0.8438 206
-0.7075 -6.6211 0.077 107
-0.5293 -4.9531 -0.7529 153
-0.5317000000000001 -4.9766 -0.6382 205
-0.5381 -5.0352 -0.5278 234
-0.5649000000000001 -5.2890999999999995 -0.4307 239
-0.6518999999999999 -6.1015999999999995 -0.3542 41
-0.7041 -6.5898 -0.0766 238
-0.5303 -4.8047 -0.8447 31
-0.7265999999999999 -6.582000000000001 0.0765 213
-0.5508 -4.9883 -0.7587999999999999 183
-0.5532 -5.0117 -0.6431 116
-0.5532 -5.0117 -0.5254 210
-0.5879 -5.324199999999999 -0.4341 193
-0.6733 -6.0977 -0.3542 35
-0.7290000000000001 -6.6015999999999995 -0.0768 120
-0.5464 -4.793 -0.8432999999999999 179
-0.7490000000000001 -6.574199999999999 0.0765 34
-0.5659000000000001 -4.9648 -0.7559 14
-0.5742 -5.0391 -0.647 129
-0.5718 -5.0195 -0.5264 124
-0.6025 -5.2890999999999995 -0.43119999999999997 24
-0.748 -6.5664 -0.0764 219
-0.5659000000000001 -4.8164 -0.8477 109
-0.7725 -6.578099999999999 0.0765 120
-0.5835 -4.9648 -0.7559 174
-0.5898 -5.0234 -0.645 16
-0.5922999999999999 -5.043 -0.5288 217
-0.6201 -5.2773 -0.4304 111
-0.77 -6.5547 -0.07629999999999999 67
-0.5791 -4.8008 -0.8452 146
-0.7954000000000001 -6.5938 0.0768 180
-0.6006 -4.9766 -0.7583 147
-0.6054999999999999 -5.0195 -0.6445000000000001 176
-0.6103999999999999 -5.0586 -0.5307999999999999 83
-0.6392 -5.296900000000001 -0.4321 129
-0.792 -6.5625 -0.0764 100
-0.5928 -4.7773 -0.8418000000000001 156
-0.8193 -6.605499999999999 0.077 25
-0.6172 -4.9766 -0.7583 190
-6.078099999999999 -49.0312 1.7227000000000001 202
-0.6211 -5.0078 -0.6436 173
-5.667999999999999 -45.7188 2.6776999999999997 118
-0.6235 -5.0273 -0.5278 233
-0.6587000000000001 -5.3086 -0.43329999999999996 64
-0.812 -6.546900000000001 -0.0762 128
-0.6187 -4.8398 -0.853 107
-0.8379000000000001 -6.5586 0.0764 15
-0.6362 -4.9805 -0.7593000000000001 105
-6.1640999999999995 -48.25 1.6972999999999998 103
-0.644 -5.043 -0.6484000000000001 77
-0.6445000000000001 -5.0469 -0.5303 90
-0.6729 -5.265599999999999 -0.4302 172
-0.8373999999999999 -6.5547 -0.0764 6
-0.6572 -5.0078 -0.8833 236
-0.8691 -6.6211 0.07719999999999999 221
-0.6514 -4.9609 -0.7563 177
-6.363300000000001 -48.4688 1.7050999999999998 147
-0.6597 -5.0234 -0.6465000000000001 85
-5.9688 -45.4375 2.6641000000000004 52
-0.6592 -5.0195 -0.5278 73
-6.550800000000001 -49.875 4.1055 178
-0.6943 -5.2890999999999995 -0.4321 131
-0.8589 -6.542999999999999 -0.0762 97
-0.6675 -4.9492 -0.8734999999999999 98
-0.8867 -6.574199999999999 0.0767 63
-0.6718999999999999 -4.9844 -0.7603 71
-6.4023 -47.4688 1.6709 148
-0.6689 -4.9609 -0.6382 35
-6.207000000000001 -46.0312 2.6992000000000003 64
-0.6768000000000001 -5.0195 -0.5278 73
-0.7095 -5.261699999999999 -0.4302 130
-0.8936 -6.625 -0.07730000000000001 209
-0.6655 -4.8086 -0.8486 210
-0.915 -6.609400000000001 0.0771 31
-0.687 -4.9648 -0.7578 17
-6.5703 -47.4688 1.6719 203
-0.6865000000000001 -4.9609 -0.6386999999999999 207
-6.375 -46.0625 2.7031 178
-0.6943 -5.0156 -0.5278 146
-6.9727 -50.375 4.1523 149
-0.7368000000000001 -5.324199999999999 -0.4353 150
-0.9531000000000001 -6.886699999999999 -0.24109999999999998 26
-0.9575 -6.917999999999999 -0.0808 244
-0.6787000000000001 -4.7812 -0.8438 26
-0.9326000000000001 -6.5664 0.0767 251
-0.7041 -4.9609 -0.7573000000000001 3
-6.3164 -44.5 1.5674000000000001 206
-0.7017 -4.9414 -0.6367 96
-6.511699999999999 -45.875 2.6933999999999996 44
-0.7173 -5.0547 -0.5317000000000001 62
-0.7563 -5.328099999999999 -0.436 120
-0.9751000000000001 -6.8672 -0.24050000000000002 152
-0.6962999999999999 -4.7852 -0.8452 28
-0.9536 -6.550800000000001 0.0765 79
-0.7202 -4.9492 -0.7559 23
-0.7231000000000001 -4.9688 -0.6406000000000001 130
-6.625 -45.5 2.6738 187
-0.7295 -5.0117 -0.5278 101
-0.77 -5.2890999999999995 -0.43310000000000004 111
-0.9961 -6.8438 -0.2397 70
-0.7153 -4.7969 -0.8481000000000001 204
-0.9795 -6.5703 0.0768 9
-0.7412000000000001 -4.9727 -0.7598 62
-6.5625 -44.0312 1.5527000000000002 209
-0.7412000000000001 -4.9727 -0.6411 11
-6.792999999999999 -45.5625 2.6776999999999997 226
-0.7573000000000001 -5.0781 -0.5352 182
-0.7896 -5.296900000000001 -0.4336 234
-1.0215 -6.8515999999999995 -0.2401 78
-0.7349 -4.8164 -0.8515999999999999 185
-1.0068000000000001 -6.5938 0.0771 137
-0.7612000000000001 -4.9883 -0.7626999999999999 177
-6.761699999999999 -44.3125 1.5635 155
-0.7568 -4.957 -0.6396000000000001 177
-6.8477 -44.8438 2.6367000000000003 7
-0.7642 -5.0078 -0.5278 203
-7.4062 -48.5 4.0039 42
-0.8066 -5.2852 -0.43310000000000004 232
-1.0449 -6.8477 -0.2401 71
-0.7524 -4.8164 -0.8521 29
-1.0293 -6.5859000000000005 0.0771 221
-0.7768999999999999 -4.9727 -0.7612000000000001 242
-0.7852 -5.0234 -0.6489 155
-0.7817000000000001 -5.0039 -0.5278 0
-7.5390999999999995 -48.25 3.9863 169
-0.8306 -5.3164 -0.436 107
-1.0078 -6.449199999999999 -0.2261 180
-0.7676000000000001 -4.8008 -0.8501000000000001 115
-1.0537 -6.5938 0.07719999999999999 61
-0.7998000000000001 -5.0039 -0.7661 6
-0.7998000000000001 -5.0039 -0.6465000000000001 153
-7.3711 -46.125 2.7148000000000003 41
-0.8467 -5.300800000000001 -0.4346 24
-6.5938 -41.25 5.3672 207
-1.0322 -6.457000000000001 -0.2266 40
-0.7822 -4.7891 -0.8481000000000001 62
-1.0723 -6.5625 0.0768 36
-0.8159000000000001 -4.9922 -0.7651 151
-7.2852 -44.5938 1.5752000000000002 158
-0.8208 -5.0234 -0.6494 48
-7.5390999999999995 -46.1562 2.7188 199
-0.8164 -4.9961 -0.5278 188
-7.457000000000001 -45.6562 3.7733999999999996 136
-0.8652 -5.296900000000001 -0.4346 169
-6.6797 -40.875 5.3203 40
-1.0576 -6.4727 -0.22719999999999999 103
-0.8047 -4.8203 -0.8540000000000001 247
-1.0967 -6.5703 0.077 168
-0.8320000000000001 -4.9844 -0.7637 133
-0.8384 -5.0195 -0.6494 180
-7.6875 -46.0312 2.7129000000000003 23
-7.5898 -45.4688 3.7617000000000003 247
-0.8862000000000001 -5.3086 -0.436 19
-1.0869 -6.511699999999999 -0.2288 218
-0.833 -4.8789 -0.8652 120
-1.124 -6.5859000000000005 0.07719999999999999 135
-0.855 -5.0078 -0.7681 142
-0.8573999999999999 -5.0195 -0.6498999999999999 117
-7.6602 -44.875 2.6464999999999996 49
-7.7461 -45.3438 3.7539 245
-0.9057999999999999 -5.3047 -0.436 27
-6.3828 -37.375 3.9824 53
-1.125 -6.5898 -0.23170000000000002 79
-1.2881 -7.542999999999999 -0.0886 137
-0.8452 -4.8477 -0.8604 229
-1.1475 -6.582000000000001 0.07719999999999999 45
-0.8726 -5.0039 -0.7681 176
-0.8774 -5.0312 -0.6514 76
-8.2109 -47.125 2.7793 124
-7.0586 -40.5 3.3535000000000004 206
-0.9262999999999999 -5.3125 -0.43700000000000006 229
-6.511699999999999 -37.3438 3.9805 166
-0.8525 -4.7969 -0.8515999999999999 31
-1.1719 -6.5898 0.0774 107
-0.8896 -5.0039 -0.7686 109
-7.015599999999999 -39.4688 1.3984 156
-0.897 -5.043 -0.6537999999999999 175
-7.953099999999999 -44.75 2.6426 162
-0.8862000000000001 -4.9844 -0.5278 43
-6.144500000000001 -34.5625 2.8632999999999997 194
-0.9453 -5.3203 -0.4375 24
-6.6211 -37.25 3.9707 27
-1.3622999999999998 -7.6602 -0.0901 81
-0.8856999999999999 -4.8906 -0.8687 19
-1.1924 -6.582000000000001 0.07730000000000001 3
-0.8998999999999999 -4.9648 -0.7631999999999999 161
-7.1484000000000005 -39.4375 1.3984 0
-0.9120999999999999 -5.0352 -0.6523 45
-7.050800000000001 -38.9062 2.2988 21
-0.9028 -4.9844 -0.5278 125
-6.2422 -34.4688 2.8574 215
-0.9736 -5.375 -0.4424 133
-6.730499999999999 -37.1562 3.9629000000000003 47
-1.4072 -7.765599999999999 -0.27390000000000003 63
-1.3838 -7.636699999999999 -0.0898 129
-0.9248000000000001 -5.0 -0.8892 244
-1.2207 -6.5977 0.0776 85
-0.9238 -4.9961 -0.7681 63
-7.269500000000001 -39.3125 1.3936000000000002 205
-0.9351 -5.0547 -0.6557999999999999 63
-7.2422 -39.1562 2.3145 71
-6.3711 -34.4375 2.8574 212
-0.981 -5.3047 -0.43700000000000006 122
-6.863300000000001 -37.0938 3.9608999999999996 226
-1.4258000000000002 -7.7109000000000005 -0.272 78
-0.9087000000000001 -4.8164 -0.8569 7
-1.2461 -6.609400000000001 0.07780000000000001 166
-0.9434 -5.0039 -0.77 4
-7.7109000000000005 -40.9062 1.4512 208
-0.9497 -5.0352 -0.6537999999999999 90
-6.949199999999999 -36.8438 2.1797 240
-6.6484000000000005 -35.25 2.9257999999999997 123
-0.9995 -5.300800000000001 -0.43700000000000006 10
-6.988300000000001 -37.0625 3.9589999999999996 19
-1.3691 -7.2578 -0.08539999999999999 158
-0.9238 -4.8086 -0.8564 179
-1.2695 -6.609400000000001 0.07780000000000001 248
-0.9643999999999999 -5.0234 -0.7734000000000001 237
-0.9678 -5.0391 -0.6548 79
-7.0625 -36.7812 2.1758 246
-0.9551000000000001 -4.9727 -0.5278 131
-6.7265999999999995 -35.0312 2.9101999999999997 63
-1.0215 -5.3203 -0.439 59
-7.2188 -37.5938 4.0195 197
-1.4111000000000002 -7.3515999999999995 -0.2595 187
-0.9359999999999999 -4.7891 -0.853 50
-1.29 -6.6015999999999995 0.07780000000000001 206
-0.9883 -5.0547 -0.7787999999999999 240
-8.2031 -41.9688 1.4912 7
-0.9868000000000001 -5.0469 -0.6562 168
-7.042999999999999 -36.0312 2.1328 225
-7.4297 -38.0 3.1582 78
-1.0459 -5.3477 -0.4414 189
-1.4355000000000002 -7.3477 -0.2595 114
-0.9575 -4.8047 -0.8564 91
-1.3281 -6.6640999999999995 0.0786 230
-0.9995 -5.0156 -0.7734000000000001 170
-8.3359 -41.8125 1.4872999999999998 119
-1.0049 -5.043 -0.6557999999999999 70
-7.1602 -35.9375 2.1289 77
-8.1328 -40.8438 3.3964999999999996 216
-1.0615 -5.328099999999999 -0.44020000000000004 66
-7.7188 -38.7188 5.0742 175
-0.9741 -4.8008 -0.8564 247
-1.0166 -5.0078 -0.7729 86
-1.0186 -5.0195 -0.6533 167
-7.515599999999999 -37.0625 2.1973 255
-1.0068000000000001 -4.9648 -0.5278 104
-6.9062 -34.0312 2.8339999999999996 182
-1.084 -5.3398 -0.4414 24
-7.7188 -38.0312 4.0742 132
-7.4922 -36.9062 4.8398 127
-1.3496000000000001 -6.6484000000000005 -0.0784 224
-0.9917 -4.8008 -0.8569 41
-1.0381 -5.0234 -0.7759 207
-8.8906 -43.0312 1.5332 144
-1.042 -5.043 -0.6567000000000001 55
-7.011699999999999 -33.9375 2.0137 14
-1.1035 -5.3398 -0.44189999999999996 9
-7.019500000000001 -34.0 3.6426 18
-7.988300000000001 -38.6562 5.0742 12
-1.0156 -4.832 -0.8633 164
-1.0684 -5.082 -0.7856000000000001 173
-1.0664 -5.0742 -0.6616 106
-7.1328 -33.9375 2.0156 110
-7.7773 -37.0 3.0839999999999996 246
-1.1299 -5.375 -0.4451 119
-7.1328 -33.9375 3.6406 168
-7.925800000000001 -37.7188 4.9531 18
-1.375 -6.542999999999999 -0.07730000000000001 239
-1.0264 -4.7969 -0.8579000000000001 182
-10.0469 -46.9688 0.5605 150
-1.0889 -5.0938 -0.7876000000000001 248
-8.5703 -40.0625 1.4287 106
-1.0859 -5.0781 -0.6620999999999999 243
-7.25 -33.9062 2.0156 133
-1.1006 -5.1484000000000005 -0.5483 236
-1.1572 -5.4102 -0.4482 176
-8.0078 -37.4688 4.0195 88
-7.8359000000000005 -36.6562 4.8164 9
-1.4043 -6.5664 -0.0776 35
-1.0488 -4.8203 -0.8628 78
-1.1025 -5.0664 -0.7842 197
-1.0713 -4.9258 -0.6431 72
-7.3398 -33.75 2.0078 76
-7.363300000000001 -33.875 2.8281 104
-1.1689 -5.375 -0.4458 213
-3.5605 -16.375 -0.19510000000000002 142
-1.0684 -4.8281 -0.8647 134
-1.0898 -4.9297 -0.7631999999999999 29
-9.4453 -42.7188 1.5253999999999999 194
-1.0889 -4.9219 -0.6431 219
-7.4375 -33.625 2.002 48
-7.355499999999999 -33.25 2.7793 21
-1.1953 -5.4023 -0.4482 108
-7.8086 -35.3125 3.7969 197
-3.6074 -16.3125 -0.1945 231
-1.0928 -4.8594 -0.8711 84
-8.8516 -39.375 0.47090000000000004 209
-1.1006 -4.8984 -0.7587999999999999 30
-9.5781 -42.625 1.5234 109
-1.1201 -4.9805 -0.6514 191
-7.5273 -33.4688 1.9941 69
-7.4609000000000005 -33.1875 2.7754000000000003 6
-1.2266 -5.457000000000001 -0.4531 199
-7.917999999999999 -35.2188 3.7891000000000004 106
-7.613300000000001 -33.8438 4.457 17
-1.4375 -6.394500000000001 -0.2271 166
-3.6601999999999997 -16.2812 -0.1942 49
-1.1035 -4.8242 -0.8652 216
-1.1289 -4.9375 -0.7656000000000001 148
-1.1406 -4.9883 -0.6528 62
-7.636699999999999 -33.4062 1.9912 110
-7.582000000000001 -33.1562 2.7733999999999996 246
-7.7578 -33.9375 4.4727 249
-3.7188 -16.2656 -0.1942 154
-1.1133 -4.7891 -0.8599 23
-1.1709 -5.0391 -0.7827 103
-1.1641 -5.0078 -0.6557999999999999 7
-7.9648 -34.2812 2.0449 49
-1.2978999999999998 -5.5859000000000005 -0.4646 112
-7.859400000000001 -33.8125 3.6445 251
-1.4785 -6.3672 -0.3774 73
-7.8515999999999995 -33.7812 4.457 181
-3.7714999999999996 -16.2344 -0.19399999999999998 93
-1.1289 -4.7852 -0.8599 16
-1.1641 -4.9375 -0.7666 151
-1.1865 -5.0312 -0.6597 32
-8.6094 -36.5 2.1777 98
-7.875 -33.4062 2.7988 251
-1.3163999999999998 -5.578099999999999 -0.4646 51
-7.953099999999999 -33.7188 3.6367000000000003 183
-1.4707 -6.234400000000001 -0.3701 80
-7.949199999999999 -33.7188 4.4492 142
-3.8262 -16.2188 -0.19399999999999998 88
-1.1533 -4.8164 -0.8662000000000001 48
-9.4688 -39.5625 0.47490000000000004 193
-1.1885 -4.9648 -0.7725 95
-1.1934 -4.9844 -0.6537999999999999 248
-8.3906 -35.0625 2.0957 109
-7.925800000000001 -33.125 2.7793 64
-1.3056999999999999 -5.457000000000001 -0.4546 29
-9.4609 -39.5312 4.2656 12
-8.25 -34.4688 4.5547 67
-3.8867000000000003 -16.2344 -0.1943 63
-1.2129 -4.9883 -0.7764 118
-1.2451 -5.1172 -0.6718999999999999 250
-10.5156 -43.2188 2.5858999999999996 29
-8.0 -32.9062 2.7617000000000003 235
-1.3544999999999998 -5.5703 -0.4646 237
-1.5438999999999998 -6.3515999999999995 -0.3774 65
-8.4609 -34.7812 4.5977 90
-3.9452999999999996 -16.2188 -0.1943 44
-14.2344 -57.6562 0.6938 85
-1.2344 -5.0 -0.7787999999999999 100
-8.9844 -36.375 1.3066 105
-1.2627 -5.1133 -0.6724 169
-8.0938 -32.7812 2.7558999999999996 77
-1.3866999999999998 -5.6172 -0.46880000000000005 123
-1.5575999999999999 -6.3086 -0.37549999999999994 218
-14.3125 -57.9688 7.675800000000001 39
-4.0 -16.2031 -0.1942 230
-14.414100000000001 -57.5625 0.6929000000000001 47
-1.252 -5.0 -0.7793000000000001 214
-9.1172 -36.4062 1.3086000000000002 187
-1.2793 -5.1094 -0.6718999999999999 232
-8.9531 -35.75 2.1426 145
-8.2109 -32.7812 2.7558999999999996 98
-1.4022999999999999 -5.6015999999999995 -0.4678 51
-9.0938 -36.3125 3.9297000000000004 114
-13.976600000000001 -55.7812 8.7656 10
-4.0664 -16.2344 -0.1948 192
-13.968800000000002 -55.7812 10.1328 55
-9.0469 -35.625 0.429 173
-1.2705 -5.0039 -0.7807999999999999 234
-1.2930000000000001 -5.0898 -0.6704000000000001 233
-9.9766 -39.2812 2.3555 254
-8.5781 -33.75 2.8418 140
-1.4404 -5.671900000000001 -0.4744 215
-8.5078 -33.5 3.6289 107
-8.8828 -34.9688 4.6367 164
-13.9297 -54.8438 8.625 69
-4.1367 -16.2812 -0.1956 178
-13.9297 -54.8438 9.9688 245
-1.2919999999999998 -5.0078 -0.7817000000000001 67
-1.3027000000000002 -5.0469 -0.665 182
-14.0078 -54.2812 3.2598000000000003 172
-1.4569999999999999 -5.6484000000000005 -0.4727 187
-9.2969 -36.0312 4.7812 12
-13.9375 -54.0 8.5 25
-4.2031 -16.2812 -0.19579999999999997 208
-13.9219 -53.9375 9.8203 87
-1.3174000000000001 -5.0312 -0.9097 211
-1.3086000000000002 -4.9961 -0.7812 229
-11.4531 -43.75 1.5771000000000002 66
-8.75 -33.4062 2.8183999999999996 67
-1.5019999999999998 -5.738300000000001 -0.48100000000000004 58
-8.8984 -34.0 3.6875 253
-9.3203 -35.5938 4.7266 139
-13.898399999999999 -53.0938 8.3672 117
-4.2734 -16.3281 -0.19640000000000002 49
-13.8906 -53.0625 9.6641 25
-1.3418 -5.0547 -0.915 226
-9.7109 -36.625 0.4421 171
-1.3291 -5.0078 -0.7837000000000001 81
-8.8828 -33.5 1.208 48
-1.3418 -5.0586 -0.6675 233
-8.9766 -33.8438 2.0352 129
-8.8203 -33.25 2.8066000000000004 151
-3.7637 -14.1875 -1.1953 21
-8.9141 -33.5938 3.6483999999999996 169
-9.4766 -35.7188 4.7461 76
-13.8594 -52.25 8.2344 0
-4.3438 -16.375 -0.1973 68
-13.8672 -52.25 9.5234 97
-1.3594 -5.0547 -0.9155 231
-13.9531 -51.9062 0.6274000000000001 216
-1.3477000000000001 -5.0117 -0.7847 70
-9.0 -33.4688 1.208 48
-1.374 -5.1094 -0.6753 79
-13.976600000000001 -52.0 3.1308999999999996 65
-9.0781 -33.7812 2.8535000000000004 238
-3.832 -14.25 -1.2021 47
-8.8203 -32.8125 3.5664 233
-14.0078 -52.0938 6.9375 43
-14.0469 -52.2188 8.2422 0
-4.3945 -16.3438 -0.19699999999999998 174
-14.039100000000001 -52.2188 9.5234 135
-1.3633000000000002 -4.9961 -0.7831999999999999 5
-9.1094 -33.4062 1.207 27
-1.3965 -5.1172 -0.6768000000000001 53
-3.8887 -14.25 -1.2031 97
-9.3125 -34.125 3.7129000000000003 114
-14.210899999999999 -52.0938 6.9375 57
-14.2422 -52.2188 8.2422 214
-10.1562 -37.2188 -0.45039999999999997 153
-14.25 -52.25 9.5391 133
-1.3818000000000001 -4.9961 -0.7842 159
-9.2109 -33.3125 1.2051 81
-1.4121000000000001 -5.1055 -0.6758 41
-10.593800000000002 -38.3125 2.3086 45
-3.9336 -14.226600000000001 -1.2021 244
-14.4297 -52.1562 8.25 78
-10.335899999999999 -37.375 -0.4526 197
-14.4297 -52.1875 9.5391 47
-10.781199999999998 -38.4375 0.4661 141
-1.4043 -5.0078 -0.7866 65
-9.3047 -33.1875 1.2012 131
-1.4072 -5.0195 -0.6655 169
-3.9863 -14.218800000000002 -1.2031 220
-13.7656 -49.0938 6.5547 214
-13.789100000000001 -49.1875 7.7852 125
-10.5078 -37.5 -0.4543 8
-13.781199999999998 -49.1562 8.9922 20
-1.4111000000000002 -4.9648 -0.9028 43
-10.914100000000001 -38.4375 0.46630000000000005 195
-1.4268 -5.0234 -0.7896 165
-10.8672 -38.25 1.3866999999999998 68
-10.1406 -35.6875 2.1562 91
-4.043 -14.226600000000001 -1.2041 176
-10.6172 -37.375 4.0781 59
-10.1016 -35.5625 4.75 90
-13.773399999999999 -48.4688 7.675800000000001 140
-13.773399999999999 -48.4688 -0.5884 112
-13.7578 -48.4375 8.8672 242
-1.4268 -4.957 -0.9023 66
-1.4491999999999998 -5.0352 -0.7925 12
-9.7266 -33.8125 1.2266 223
-1.4647999999999999 -5.0898 -0.6758 149
-13.8594 -48.1562 2.9120999999999997 201
-4.1094 -14.281199999999998 -1.21 195
-13.75 -47.75 6.386699999999999 151
-13.7578 -47.7812 7.578099999999999 232
-13.789100000000001 -47.9062 -0.5820000000000001 193
-13.75 -47.75 8.7578 13
-1.4491999999999998 -4.9688 -0.9048 107
-1.4658000000000002 -5.0273 -0.792 16
-10.3281 -35.4062 1.2861000000000002 178
-1.4863 -5.0977 -0.6772 148
-4.1602 -14.2656 -1.21 1
-9.7734 -33.5 3.6641000000000004 128
-10.335899999999999 -35.4375 4.7422 169
-13.773399999999999 -47.2188 -0.5742 25
-13.7344 -47.0938 8.6406 95
-1.4922 -5.0508 -0.9209 38
-1.5038999999999998 -5.0898 -0.8031999999999999 127
-11.0156 -37.2812 1.3563999999999998 112
-1.5225 -5.1523 -0.6855 32
-11.0469 -37.375 2.2656 31
-9.8672 -33.375 2.8398000000000003 95
-4.2109 -14.25 -1.21 126
-11.2031 -37.9375 4.1523 149
-10.4844 -35.5 4.7578 114
-13.726600000000001 -46.4688 -0.5659000000000001 236
-13.718800000000002 -46.4375 8.5312 232
-11.226600000000001 -37.5 0.457 223
-1.5605000000000002 -5.2148 -0.8237000000000001 246
-11.1172 -37.1562 2.2539 100
-9.9766 -33.3125 2.8379000000000003 136
-4.2656 -14.2578 -1.2119 207
-11.3828 -38.0312 4.168 52
-13.726600000000001 -45.875 6.1523 220
-13.710899999999999 -45.8125 7.2852 34
-13.7422 -45.9062 -0.5596 156
-13.6953 -45.75 8.4141 36
-3.6151999999999997 -11.9297 -1.8936000000000002 206
-13.781199999999998 -45.4688 1.6572 5
-4.2344 -13.976600000000001 -1.5303 124
-10.5 -34.625 2.9531 163
-4.3242 -14.2656 -1.2139 17
-10.1875 -33.5938 3.6855 108
-13.7344 -45.3438 6.0859000000000005 209
-13.375 -44.125 7.0234000000000005 204
-13.7344 -45.3125 -0.5527000000000001 222
-13.3672 -44.0938 8.1172 166
-3.0469 -9.9297 -1.8232 62
-3.6543 -11.906199999999998 -1.8925999999999998 73
-11.1406 -36.3125 1.3241999999999998 113
-10.664100000000001 -34.75 2.1133 64
-13.4922 -43.9688 3.752 75
-4.375 -14.25 -1.2139 215
-13.460899999999999 -43.875 4.8203 20
-13.4375 -43.7812 5.886699999999999 150
-4.8242 -15.718800000000002 -0.5722999999999999 115
-13.4297 -43.75 6.9727 21
-13.875 -45.2188 -0.5522 110
-13.414100000000001 -43.7188 8.0547 33
-3.0839999999999996 -9.9219 -1.8252000000000002 228
-3.6992000000000003 -11.906199999999998 -1.8944999999999999 173
-11.2969 -36.375 1.3281 53
-13.5078 -43.4688 2.6464999999999996 131
-10.7969 -34.75 2.9688 59
-13.4453 -43.2812 4.7578 199
-13.4219 -43.2188 5.8164 102
-13.773399999999999 -44.3438 -1.6191 234
-13.414100000000001 -43.1875 6.886699999999999 183
-14.0703 -45.2812 -0.5537 73
-13.398399999999999 -43.125 7.953099999999999 179
-3.123 -9.9297 -1.8281 5
-13.4844 -42.875 1.5684 167
-13.4844 -42.875 2.6132999999999997 43
-10.9297 -34.75 2.9707 76
-11.6406 -37.0 4.0742 213
-13.414100000000001 -42.6562 5.7461 202
-13.7031 -43.5625 -1.5928 174
-13.3906 -42.5938 6.800800000000001 34
-13.6719 -43.4688 -0.5322 126
-13.3906 -42.5625 7.859400000000001 214
-2.9082 -9.1328 -1.6825999999999999 216
-2.9276999999999997 -9.1953 -1.4658000000000002 252
-13.460899999999999 -42.2812 1.5478999999999998 21
-2.9355 -9.2188 -1.2393 10
-13.476600000000001 -42.3438 2.582 249
-11.031199999999998 -34.6562 2.9668 109
-11.8594 -37.25 4.1055 165
-13.406199999999998 -42.0938 5.6797 107
-13.7422 -43.1562 -1.5800999999999998 85
-13.375 -42.0 6.7148 31
-13.7578 -43.2188 -0.5293 61
-13.375 -42.0 7.765599999999999 215
-2.9101999999999997 -9.0312 -1.666 180
-9.5 -29.4844 0.3613 4
-2.9589999999999996 -9.1797 -1.4647999999999999 199
-13.460899999999999 -41.7812 1.5303 56
-2.9101999999999997 -9.0312 -1.2148 4
-13.460899999999999 -41.7812 2.5508 67
-11.101600000000001 -34.4688 2.9531 65
-11.8828 -36.875 4.0664 26
-4.582 -14.218800000000002 -0.8662000000000001 18
-13.3906 -41.5625 5.609400000000001 56
-13.906199999999998 -43.1562 -1.5819999999999999 169
-13.3828 -41.5312 6.644500000000001 193
-13.914100000000001 -43.1875 -0.5297999999999999 93
-13.3594 -41.4688 7.671900000000001 217
-2.9355 -9.0 -1.6621000000000001 82
-9.5938 -29.4062 0.3608 54
-2.9512 -9.0469 -1.4453 136
-13.4453 -41.25 1.5127000000000002 26
-2.9082 -8.9141 -1.2012 196
-13.4297 -41.1875 2.5176 146
-11.1875 -34.3125 2.9433999999999996 145
-11.726600000000001 -35.9688 3.9707 161
-4.6445 -14.2422 -0.8691 228
-13.3281 -40.875 5.5234000000000005 110
-9.5156 -29.1875 -1.0703 172
-13.351600000000001 -40.9375 6.5586 90
-14.7578 -45.2812 -0.5562 52
-13.351600000000001 -40.9375 7.5859000000000005 248
-2.918 -8.8438 -1.6338 159
-13.414100000000001 -40.6562 1.4931999999999999 222
-2.9257999999999997 -8.8672 -1.1953 150
-13.4297 -40.7188 2.4922 66
-13.4453 -40.75 3.502 171
-13.460899999999999 -40.8125 4.5117 83
-4.7148 -14.289100000000001 -0.873 9
-13.468800000000002 -40.8125 5.5234000000000005 228
-14.210899999999999 -43.0625 -1.5819999999999999 216
-13.4922 -40.9062 6.5625 34
-14.914100000000001 -45.1875 -0.5557 175
-13.5078 -40.9375 7.5938 159
-2.9101999999999997 -8.7266 -1.6143 121
-2.9414 -8.8203 -1.4111000000000002 32
-13.5547 -40.625 1.4941 122
-2.9492000000000003 -8.8438 -1.1934 120
-13.5781 -40.6875 2.4941 31
-13.601600000000001 -40.75 3.5058999999999996 200
-13.601600000000001 -40.7812 4.5117 150
-4.7891 -14.351600000000001 -0.8779 110
-13.585899999999999 -40.7188 5.515599999999999 153
-13.6172 -40.8125 -1.501 227
-13.585899999999999 -40.7188 6.5390999999999995 170
-13.6094 -40.7812 -0.502 160
-13.6094 -40.7812 7.574199999999999 242
-2.9257999999999997 -8.6797 -1.6074000000000002 140
-2.9395 -8.7109 -1.3955000000000002 1
-13.664100000000001 -40.5 1.4912 70
-13.6875 -40.5625 2.4883 54
-13.7422 -40.75 4.5156 44
-13.5469 -40.1562 -2.4629 42
-13.625 -40.375 5.4765999999999995 208
-13.625 -40.4062 -1.4872999999999998 52
-13.5547 -40.1875 6.4609000000000005 226
-13.6172 -40.375 -0.49729999999999996 58
-13.718800000000002 -40.6875 7.5625 144
-2.9629000000000003 -8.6797 -1.6094 138
-2.9707 -8.6953 -1.3944999999999999 33
-11.9219 -34.9062 2.1426 242
-13.6094 -39.8438 3.4355 121
-13.5469 -39.6562 -2.4355 98
-13.781199999999998 -40.3438 -1.4863 199
-13.5547 -39.6875 6.386699999999999 111
-13.781199999999998 -40.3438 -0.4976 75
-2.9922000000000004 -8.6562 -1.6074000000000002 192
-13.5703 -39.2812 1.4491999999999998 91
-12.0547 -34.9062 2.1445 182
-13.6172 -39.4062 3.4023000000000003 63
-3.1327999999999996 -9.0625 -0.7798 219
-13.5781 -39.3125 4.3672 169
-13.531199999999998 -39.1562 -2.4082 135
-13.5625 -39.25 5.3359000000000005 119
-13.9531 -40.375 -1.4902000000000002 228
-13.5547 -39.2188 6.3203 157
-14.843800000000002 -42.9688 -0.5307999999999999 211
-13.531199999999998 -39.1562 7.296900000000001 19
-3.0233999999999996 -8.6562 -1.6103999999999998 136
-12.7344 -36.4688 0.4509 79
-13.5703 -38.875 1.4355000000000002 110
-12.1406 -34.75 2.1387 18
-13.5703 -38.875 3.3594 221
-3.498 -10.0156 -0.8633 166
-13.539100000000001 -38.7812 4.3125 64
-13.5547 -38.8125 -2.3906 234
-13.5469 -38.7812 5.2812 114
-13.5625 -38.8438 -1.4346 39
-13.523399999999999 -38.7188 6.25 248
-13.5469 -38.8125 -0.4797 144
-13.5078 -38.6875 7.2148 119
-3.0625 -8.6719 -1.6152000000000002 68
-12.843800000000002 -36.375 0.45039999999999997 162
-13.5469 -38.375 1.4199000000000002 126
-13.601600000000001 -38.5312 2.375 16
-13.5703 -38.4375 3.3262 229
-3.543 -10.0391 -0.8656999999999999 21
-13.5156 -38.2812 4.2617 192
-13.523399999999999 -38.3125 -2.3613 235
-13.6094 -38.5625 5.2539 223
-13.5547 -38.4062 -1.4199000000000002 72
-13.5078 -38.2812 6.1836 55
-13.5469 -38.375 -0.47509999999999997 102
-13.4531 -38.125 7.1211 36
-3.0995999999999997 -8.6797 -1.6181999999999999 194
-12.9453 -36.25 0.44920000000000004 4
-13.531199999999998 -37.9062 1.4033000000000002 136
-13.6953 -38.3438 2.3672 137
-13.5469 -37.9375 3.2870999999999997 122
-3.5879000000000003 -10.0547 -0.8682 83
-13.5 -37.8125 4.2148 213
-13.531199999999998 -37.9062 -2.3379 208
-13.5156 -37.8438 6.1211 242
-13.585899999999999 -38.0312 -0.4714 105
-13.4531 -37.6875 7.046900000000001 121
-3.5391000000000004 -9.8047 -1.8300999999999998 175
-13.085899999999999 -36.25 0.4497 53
-2.9297000000000004 -8.1172 -1.3096 196
-13.531199999999998 -37.4688 1.3896000000000002 251
-13.5547 -37.5312 3.2577999999999996 105
-3.6308999999999996 -10.0547 -0.8695999999999999 217
-13.4844 -37.3438 4.168 45
-13.5078 -37.4062 -2.3105 40
-13.4922 -37.375 5.1055 128
-13.5781 -37.625 6.0938 254
-13.4453 -37.25 6.9727 227
-3.5723000000000003 -9.7891 -1.8300999999999998 19
-13.1953 -36.1562 0.44920000000000004 0
-13.5156 -37.0312 1.375 85
-13.5469 -37.125 2.2969 136
-13.539100000000001 -37.0938 3.2226999999999997 71
-3.6620999999999997 -10.0391 -0.8691 119
-13.476600000000001 -36.9062 4.125 102
-13.5 -36.9688 -2.2871 36
-13.5156 -37.0312 5.0625 81
-13.5 -37.0 -1.3730000000000002 180
-13.4844 -36.9688 -0.4592 121
-13.476600000000001 -36.9062 6.921900000000001 139
-3.2129000000000003 -8.7109 -1.6299000000000001 217
-13.3203 -36.0938 0.44920000000000004 216
-13.5 -36.5938 1.3603999999999998 190
-13.539100000000001 -36.6875 2.2734 168
-13.5156 -36.625 3.1855 79
-3.7188 -10.0781 -0.8740000000000001 17
-13.468800000000002 -36.5 4.0859 202
-13.5 -36.5938 -2.2676 57
-9.2656 -25.1094 3.4375 99
-13.4844 -36.5625 -1.3594 159
-13.5 -36.5938 -0.4551 123
-13.4453 -36.4375 6.8398 239
-3.2285000000000004 -8.6562 -1.6221 211
-13.4297 -36.0312 0.4487 107
-13.4844 -36.1562 1.3457 216
-13.523399999999999 -36.2812 2.25 200
-13.4922 -36.1875 3.1504000000000003 165
-13.4844 -36.1562 4.0508 23
-13.4844 -36.1562 -2.2422 84
-13.460899999999999 -36.0938 4.9492 74
-13.4922 -36.1875 -1.3466999999999998 73
-13.476600000000001 -36.1562 -0.45020000000000004 190
-13.4453 -36.0625 6.7812 74
-3.2207 -8.5469 -1.6025 186
-13.523399999999999 -35.9062 0.44780000000000003 118
-13.476600000000001 -35.7812 1.3330000000000002 97
-13.523399999999999 -35.875 2.2285 181
-13.4844 -35.7812 3.1191000000000004 22
-13.4922 -35.7812 4.0156 18
-13.4844 -35.7812 -2.2227 151
-9.4375 -25.0469 3.4375 92
-13.4844 -35.7812 -1.3330000000000002 101
-13.4922 -35.8125 5.828099999999999 234
-13.468800000000002 -35.75 -0.4458 34
-13.4844 -35.7812 6.734400000000001 3
-3.2129000000000003 -8.4375 -1.584 62
-13.5625 -35.625 0.4448 51
-13.531199999999998 -35.5312 1.3262 26
-13.5625 -35.625 2.2148 130
-13.585899999999999 -35.6875 3.1151999999999997 252
-9.5234 -25.0 3.4355 206
-13.5078 -35.4688 -1.3232 70
-13.6328 -35.7812 5.832000000000001 68
-13.5156 -35.4688 -0.44310000000000005 116
-13.4844 -35.4062 6.671900000000001 255
-3.1933999999999996 -8.2969 -1.5596 6
-9.6328 -25.0156 0.3125 193
-13.710899999999999 -35.625 2.2188 59
-2.9101999999999997 -7.5625 -0.8472 112
-13.7656 -35.75 3.127 87
-9.625 -25.0156 2.8125 98
-9.6016 -24.9531 3.4336 115
-13.6328 -35.4375 -1.3241999999999998 32
-13.648399999999999 -35.4688 -0.4436 75
-13.476600000000001 -35.0 6.609400000000001 53
-2.998 -7.707000000000001 -1.4512 199
-9.6797 -24.8906 0.31129999999999997 252
-9.6641 -24.8594 0.9297 206
-9.6797 -24.8906 1.5518 83
-2.9414 -7.5625 -0.8481000000000001 166
-9.7031 -24.9531 2.1836 107
-9.7109 -24.9844 2.8125 111
-9.6953 -24.9375 3.4355 50
-9.6328 -24.7656 -0.9262999999999999 13
-13.9297 -35.8125 5.8515999999999995 243
-9.625 -24.7656 -0.3098 38
-13.468800000000002 -34.625 6.542999999999999 191
-9.7656 -24.8594 0.9312 181
-9.7891 -24.9219 1.5547 158
-14.0156 -35.6875 3.127 171
-9.8047 -24.9688 3.4452999999999996 200
-14.023399999999999 -35.6875 5.8398 108
-9.7422 -24.7969 -0.3105 189
-13.460899999999999 -34.25 6.484400000000001 61
-2.9707 -7.4922 -1.4131 91
-14.085899999999999 -35.5312 2.2207 238
-14.0703 -35.4688 3.1132999999999997 78
-2.9901999999999997 -7.542999999999999 -0.6592 218
-13.5 -34.0625 3.8457 150
-9.8984 -24.9688 3.4492000000000003 176
-14.023399999999999 -35.375 -0.44409999999999994 7
-13.4531 -33.9375 6.4297 9
-13.5625 -33.875 1.2725 16
-14.0625 -35.125 2.1992 6
-14.0547 -35.0938 3.0839999999999996 97
-13.468800000000002 -33.625 3.8047000000000004 1
-14.023399999999999 -35.0312 -0.44020000000000004 50
-10.0312 -25.0625 4.75 12
-14.085899999999999 -34.8125 0.4382 42
-13.539100000000001 -33.4688 1.2588 167
-14.0781 -34.8125 2.1816 212
-14.039100000000001 -34.6875 3.0547000000000004 207
-3.0469 -7.5273 -0.6597 131
-10.1172 -25.0 3.4629000000000003 158
-14.031199999999998 -34.6875 -0.4365 41
-13.335899999999999 -32.9688 6.261699999999999 133
-2.9589999999999996 -7.238300000000001 -1.3721 60
-14.0625 -34.4062 0.4338 30
-13.5078 -33.0312 1.2451 236
-13.414100000000001 -32.8125 2.0605 131
-13.3906 -32.75 2.8867000000000003 93
-13.375 -32.7188 3.7108999999999996 74
-3.0742000000000003 -7.5234000000000005 -0.4702 223
-13.3203 -32.5938 4.5234 172
-13.343800000000002 -32.625 5.3711 255
-14.0703 -34.4375 -0.4341 42
-13.351600000000001 -32.6562 6.2148 68
-13.4297 -32.5312 0.4106 151
-13.406199999999998 -32.4688 1.2256 254
-13.414100000000001 -32.5 2.043 220
-13.3906 -32.4375 2.8632999999999997 27
-13.3828 -32.4375 3.6836 246
-13.3281 -32.2812 4.4883 199
-13.3594 -32.3438 5.332000000000001 111
-13.3672 -32.375 -0.40869999999999995 167
-13.335899999999999 -32.3125 6.1562 131
-13.4297 -32.2188 0.4075 219
-13.3906 -32.125 1.2129 17
-13.406199999999998 -32.1562 2.0234 135
-13.3828 -32.0938 2.8379000000000003 10
-13.3594 -32.0625 3.6445 84
-13.3203 -31.9531 4.4492 61
-13.343800000000002 -32.0 5.2812 84
-13.351600000000001 -32.0312 -0.405 5
-13.335899999999999 -31.9844 6.105499999999999 50
-13.406199999999998 -31.8438 0.4031 24
-13.3828 -31.7812 1.2021 72
-13.398399999999999 -31.8281 2.0059 214
-13.3672 -31.7656 2.8105 101
-13.351600000000001 -31.7188 3.6113 8
-13.3047 -31.6094 4.4062 27
-13.3281 -31.6562 5.230499999999999 116
-13.335899999999999 -31.6875 -0.4011 169
-13.3203 -31.6406 6.046900000000001 8
-13.406199999999998 -31.5312 0.3997 170
-13.3828 -31.4688 1.1924 100
-13.375 -31.4531 1.9863 43
-13.3672 -31.4531 2.7870999999999997 27
-13.343800000000002 -31.4062 3.582 142
-13.3047 -31.2969 4.3711 131
-13.3281 -31.3594 5.1875 123
-13.335899999999999 -31.375 -0.39770000000000005 217
-13.2969 -31.2812 5.988300000000001 144
-13.406199999999998 -31.2188 0.39649999999999996 255
-13.3828 -31.1875 1.1836 81
-13.375 -31.1562 1.9697 31
-13.3672 -31.1562 2.7656 77
-13.351600000000001 -31.1094 3.5547000000000004 62
-13.2969 -30.9688 4.3281 119
-13.3203 -31.0312 5.144500000000001 172
-13.335899999999999 -31.0781 -0.3945 138
-13.3047 -31.0 5.9414 34
-13.3594 -30.8281 0.3921 204
-13.375 -30.8594 1.1729 91
-13.375 -30.8594 1.9541 87
-13.343800000000002 -30.7969 2.7382999999999997 52
-13.343800000000002 -30.7969 3.5233999999999996 112
-3.3105 -7.640599999999999 -0.4819 174
-13.3125 -30.7188 4.3008 72
-13.3047 -30.7031 5.0977 121
-13.3203 -30.75 -0.3909 101
-13.2969 -30.6875 5.890599999999999 70
-13.3828 -30.5781 0.38939999999999997 48
-13.3672 -30.5312 1.1621 227
-13.375 -30.5469 1.9375 11
-13.343800000000002 -30.4844 2.7148000000000003 87
-13.343800000000002 -30.4844 3.4922000000000004 232
-3.2988 -7.5390999999999995 -0.47609999999999997 226
-13.3203 -30.4375 4.2695 93
-13.3203 -30.4219 5.0586 217
-13.3203 -30.4375 -0.38770000000000004 253
-13.2969 -30.375 5.8398 252
-13.3828 -30.2812 0.3862 201
-13.3594 -30.2188 1.1523 140
-13.351600000000001 -30.2188 1.9188999999999998 143
-13.335899999999999 -30.1719 2.6914 116
-3.3105 -7.488300000000001 -0.665 67
-13.3125 -30.125 3.457 201
-13.3203 -30.1562 4.2344 232
-13.3047 -30.1094 5.0117 144
-13.3125 -30.125 -0.3843 118
-13.2969 -30.0781 5.792999999999999 159
-13.3594 -29.9688 0.38280000000000003 166
-13.351600000000001 -29.9375 1.1426 104
-13.3125 -29.8594 1.8994 11
-13.343800000000002 -29.9219 2.6738 113
-3.3339999999999996 -7.480499999999999 -0.665 245
-13.3047 -29.8438 3.4297000000000004 84
-13.2969 -29.8281 4.1953 57
-13.289100000000001 -29.8125 4.9688 155
-13.2969 -29.8281 -0.3809 217
-13.281199999999998 -29.7812 5.7422 195
-13.3594 -29.7031 0.3799 134
-13.343800000000002 -29.6562 1.1338 210
-13.3047 -29.5781 1.8838 130
-13.3281 -29.6406 2.6504000000000003 8
-13.3047 -29.5781 3.4043 91
-13.281199999999998 -29.5156 4.1602 225
-13.281199999999998 -29.5312 4.9297 124
-13.289100000000001 -29.5312 -0.3779 30
-13.2656 -29.4844 5.6914 156
-2.8632999999999997 -6.300800000000001 -1.2129 153
-13.351600000000001 -29.375 0.3765 249
-13.3281 -29.3281 1.123 146
-13.3047 -29.2812 1.8681999999999999 186
-13.3125 -29.2969 2.625 86
-13.3125 -29.2969 3.377 71
-13.281199999999998 -29.2188 4.125 64
-13.2969 -29.25 4.8945 17
-13.2969 -29.2656 -0.375 64
-13.273399999999999 -29.2188 5.6523 224
-2.8887 -6.296900000000001 -1.2139 115
-13.343800000000002 -29.0938 0.3735 23
-13.3203 -29.0312 1.1133 102
-13.3047 -29.0156 1.8544999999999998 42
-13.3125 -29.0156 2.6055 84
-13.3047 -29.0156 3.3495999999999997 171
-13.3047 -29.0 4.0977 164
-13.3281 -29.0469 4.8672 102
-13.289100000000001 -28.9844 -0.3718 78
-13.335899999999999 -29.0781 5.6328 52
-2.9062 -6.2773 -1.2129 181
-13.351600000000001 -28.8438 0.37079999999999996 242
-13.351600000000001 -28.8438 1.1084 37
-13.3594 -28.8594 1.8477000000000001 246
-13.3828 -28.9219 2.5995999999999997 221
-13.414100000000001 -28.9688 3.3516000000000004 136
-13.4219 -29.0 4.1055 87
-13.4375 -29.0312 4.8711 208
-13.3125 -28.75 -0.3696 158
-13.460899999999999 -29.0781 5.644500000000001 105
-2.9375 -6.2852 -1.2158 224
-13.4844 -28.8594 0.3716 25
-2.8887 -6.1836 -1.0342 231
-13.4531 -28.7969 1.1084 96
-13.468800000000002 -28.8281 1.8486000000000002 231
-13.5156 -28.9219 2.6035000000000004 252
-3.1016000000000004 -6.640599999999999 -0.5947 129
-13.531199999999998 -28.9688 3.3555 45
-13.539100000000001 -28.9844 4.1094 112
-13.5625 -29.0312 4.8789 127
-13.5781 -29.0625 5.6484000000000005 246
-2.8535000000000004 -6.0547 -1.1729 223
-13.593800000000002 -28.8594 0.3721 58
-13.5781 -28.8125 1.1104 124
-13.593800000000002 -28.8438 1.8525 158
-3.0058999999999996 -6.3789 -0.7368000000000001 100
-13.625 -28.9062 2.6074 149
-13.648399999999999 -28.9688 3.3613 27
-13.648399999999999 -28.9688 4.1133 38
-13.6875 -29.0469 4.8906 11
-13.539100000000001 -28.7344 -0.37060000000000004 141
-13.6953 -29.0625 5.6602 239
-2.8555 -6.0078 -1.165 146
-13.710899999999999 -28.8594 0.3728 86
-13.7031 -28.8438 1.1133 94
-13.710899999999999 -28.8438 1.8555000000000001 200
-13.7422 -28.9062 2.6113 17
-3.8007999999999997 -7.9961 -0.7197 251
-13.7656 -28.9688 3.3651999999999997 146
-13.773399999999999 -28.9844 4.1211 19
-13.8047 -29.0469 4.8984 242
-13.656199999999998 -28.7344 -0.3713 172
-13.8203 -29.0781 5.667999999999999 6
-2.8476999999999997 -5.9336 -1.1533 10
-13.835899999999999 -28.8281 0.373 221
-13.8281 -28.8125 1.1143 79
-13.851600000000001 -28.8438 1.8594 211
-13.875 -28.9062 2.6151999999999997 154
-3.8418 -8.0078 -0.7217 85
-13.8906 -28.9375 3.3691000000000004 108
-13.914100000000001 -28.9844 4.1289 97
-13.9297 -29.0156 4.9023 189
-13.8047 -28.75 -0.3721 21
-13.9453 -29.0625 5.675800000000001 147
-2.8574 -5.9023 -1.1484 135
-13.9922 -28.8906 0.37450000000000006 108
-2.998 -6.1914 -1.042 113
-13.9531 -28.8125 1.1162 78
-13.968800000000002 -28.8438 1.8613 56
-14.0 -28.9062 2.6211 1
-3.8945 -8.0391 -0.7261 131
-14.0156 -28.9375 3.375 160
-14.023399999999999 -28.9531 4.1328 163
-14.0469 -29.0 4.9062 243
-13.9453 -28.7969 -0.37329999999999997 167
-14.0703 -29.0469 5.6836 79
-2.8516000000000004 -5.8398 -1.1387 213
-3.0273000000000003 -6.1953 -1.0449 235
-13.093800000000002 -26.7969 1.04 158
-14.085899999999999 -28.8281 1.8633000000000002 56
-14.1172 -28.8906 2.623 187
-3.9316000000000004 -8.0469 -0.7275 55
-14.1406 -28.9375 3.3808999999999996 146
-14.1406 -28.9531 4.1406 44
-14.1797 -29.0156 4.918 215
-13.101600000000001 -26.8125 -0.3481 37
-14.1875 -29.0469 5.6914 35
-2.8418 -5.765599999999999 -1.126 30
-13.1875 -26.75 0.3479 180
-13.1172 -26.6094 1.0342 58
-14.210899999999999 -28.8281 1.8681999999999999 88
-14.2422 -28.8906 2.627 106
-3.9629000000000003 -8.0391 -0.7284999999999999 210
-14.2656 -28.9375 3.3867000000000003 192
-14.273399999999999 -28.9531 4.1484 49
-3.3964999999999996 -6.890599999999999 -0.2664 255
-14.3047 -29.0156 4.9258 81
-13.1797 -26.7344 -0.3477 55
-14.3203 -29.0469 5.703099999999999 15
-2.8516000000000004 -5.738300000000001 -1.1220999999999999 216
-13.2031 -26.5781 0.34619999999999995 240
-13.210899999999999 -26.5938 1.0352 207
-14.3281 -28.8438 1.8711000000000002 34
-14.351600000000001 -28.8906 2.6308999999999996 219
-3.9901999999999997 -8.0312 -0.7284999999999999 206
-14.3906 -28.9531 3.3945 0
-14.3906 -28.9688 4.1562 73
-14.414100000000001 -29.0156 4.9336 129
-13.164100000000001 -26.5 -0.345 245
-14.4375 -29.0625 5.7148 91
-2.8632999999999997 -5.7148 -1.1191 123
-13.2578 -26.4688 0.3452 177
-13.226600000000001 -26.4062 1.0293 182
-14.4453 -28.8281 1.874 160
-14.476600000000001 -28.9062 2.6367000000000003 111
-4.0117 -8.0078 -0.728 31
-14.4922 -28.9375 3.3964999999999996 208
-14.5078 -28.9688 4.1602 94
-14.531199999999998 -29.0 4.9414 108
-13.1953 -26.3438 -0.34380000000000005 147
-14.5625 -29.0625 5.7265999999999995 111
-2.875 -5.6836 -1.1152 197
-13.375 -26.4219 0.3455 107
-13.2422 -26.1719 1.0225 14
-14.5781 -28.8125 1.876 167
-14.625 -28.8906 2.6426 247
-4.0586 -8.0156 -0.7304999999999999 161
-14.6328 -28.9219 3.4023000000000003 105
-14.656199999999998 -28.9688 4.1719 138
-14.6875 -29.0156 4.9531 2
-13.1953 -26.0781 -0.3408 63
-14.6953 -29.0312 5.730499999999999 89
-2.8964999999999996 -5.671900000000001 -1.1152 62
-13.2344 -25.9219 0.3396 51
-13.2344 -25.9219 1.0146 253
-14.7031 -28.7969 1.8788999999999998 220
-14.75 -28.8906 2.6464999999999996 167
-4.0938 -8.0234 -0.7319 253
-14.773399999999999 -28.9375 3.4101999999999997 172
-14.781199999999998 -28.9531 4.1758 188
-14.8125 -29.0 4.9609 98
-13.1953 -25.8438 -0.33840000000000003 197
-14.8203 -29.0156 5.738300000000001 185
-2.9043 -5.644500000000001 -1.1123 44
-13.2344 -25.7344 0.33740000000000003 40
-13.210899999999999 -25.6875 1.0068000000000001 137
-14.8281 -28.8281 1.8828 157
-14.8594 -28.8906 2.6504000000000003 219
-4.125 -8.0234 -0.7334 250
-14.8828 -28.9375 3.4160000000000004 178
-14.8906 -28.9375 4.1797 162
-14.914100000000001 -29.0 4.9648 68
-13.2031 -25.6719 -0.3367 224
-14.9297 -29.0312 5.7461 204
-13.218800000000002 -25.4844 0.3347 83
-13.2031 -25.4531 0.9995 100
-14.9453 -28.8125 1.8857 72
-14.960899999999999 -28.8438 2.6504000000000003 163
-4.1484 -8.0 -0.7323999999999999 255
-15.0078 -28.9375 3.4219 211
-15.0156 -28.9531 4.1914 60
-15.039100000000001 -29.0156 4.9766 241
-13.289100000000001 -25.625 -0.3367 245
-15.0547 -29.0312 5.7578 58
-13.2344 -25.2656 0.3325 75
-13.2031 -25.2031 0.9917 255
-15.085899999999999 -28.8125 1.8896000000000002 81
-15.1172 -28.875 2.6582 154
-4.1914 -8.0078 -0.7343999999999999 220
-15.148399999999999 -28.9219 3.4276999999999997 209
-15.156199999999998 -28.9375 4.1953 94
-15.1797 -28.9844 4.9844 205
-15.1953 -29.0156 5.769500000000001 235
-13.218800000000002 -25.0156 0.3298 111
-13.2031 -24.9844 0.9854 101
-15.210899999999999 -28.7969 1.8916 105
-15.25 -28.8594 2.6620999999999997 232
-4.2344 -8.0156 -0.7368000000000001 124
-15.281199999999998 -28.9219 3.4336 217
-3.9844 -7.5390999999999995 -0.49340000000000006 4
-15.289100000000001 -28.9375 4.2031 195
-15.3125 -28.9844 4.9922 147
-13.531199999999998 -25.6094 -0.33759999999999996 51
-15.3281 -29.0 5.7773 185
-13.2031 -24.7969 0.3276 251
-2.8964999999999996 -5.4414 -0.9331 212
-13.1953 -24.7812 0.9784999999999999 183
-15.3281 -28.7969 1.8944999999999999 12
-15.3594 -28.8594 2.6660000000000004 173
-15.398399999999999 -28.9219 3.4395 209
-3.9882999999999997 -7.4922 -0.49119999999999997 47
-15.414100000000001 -28.9531 4.2148 168
-3.7031 -6.957000000000001 -0.2734 123
-15.4297 -28.9844 5.0 185
-14.1875 -26.6562 -0.35229999999999995 181
-15.4453 -29.0156 5.7890999999999995 240
-13.1953 -24.5781 0.32539999999999997 21
-13.1797 -24.5469 0.9712000000000001 211
-15.4453 -28.7812 1.8984 108
-15.5 -28.875 2.6738 118
-3.9688 -7.394500000000001 -0.6816 110
-15.5156 -28.9062 3.4433999999999996 174
-4.0195 -7.4922 -0.49219999999999997 202
-15.523399999999999 -28.9375 4.2188 250
-15.5547 -28.9844 5.0117 58
-14.2969 -26.6406 -0.3528 108
-15.5703 -29.0156 5.796900000000001 178
-13.1953 -24.375 0.3232 226
-2.9141000000000004 -5.3828 -0.9268000000000001 78
-13.1875 -24.3594 0.9653 218
-15.593800000000002 -28.7969 1.9022999999999999 23
-15.6172 -28.8438 2.6757999999999997 47
-3.9452999999999996 -7.2890999999999995 -0.6733 240
-15.656199999999998 -28.9219 3.4531 178
-4.0703 -7.519500000000001 -0.4949 44
-15.656199999999998 -28.9219 4.2266 220
-15.6875 -28.9688 5.0156 146
-14.4297 -26.6562 -0.35350000000000004 69
-15.7031 -29.0 5.8086 32
-13.1953 -24.1719 0.321 212
-13.1719 -24.125 0.958 207
-15.710899999999999 -28.7812 1.9053 7
-15.75 -28.8438 2.6816000000000004 147
-3.9512 -7.238300000000001 -0.6698999999999999 11
-15.773399999999999 -28.9062 3.4551 96
-15.781199999999998 -28.9219 4.2305 71
-3.7285000000000004 -6.828099999999999 -0.27 58
-15.898399999999999 -29.125 5.0547 73
-14.531199999999998 -26.6094 -0.3538 129
-15.9453 -29.2188 5.863300000000001 100
-13.1797 -23.9531 0.3188 42
-2.9668 -5.390599999999999 -0.9320999999999999 119
-13.156199999999998 -23.9219 0.9517 139
-15.8281 -28.7656 1.9072 147
-15.9375 -28.9688 2.6973000000000003 248
-3.9726999999999997 -7.2188 -0.6694 39
-15.898399999999999 -28.8906 3.4608999999999996 93
-15.914100000000001 -28.9219 4.2422 235
-3.7988 -6.9062 -0.2734 11
-15.976600000000001 -29.0469 5.0469 55
-14.656199999999998 -26.625 -0.35450000000000004 238
-16.0625 -29.2031 5.8711 187
-2.9473000000000003 -5.3125 -1.0645 155
-13.164100000000001 -23.7344 0.3164 116
-2.9961 -5.4023 -0.9355 120
-13.148399999999999 -23.7188 0.9453 13
-15.960899999999999 -28.7812 1.9121000000000001 60
-16.0781 -28.9844 2.7031 243
-4.0117 -7.234400000000001 -0.6718999999999999 27
-16.0312 -28.8906 3.4688 14
-16.0312 -28.9219 4.25 222
-16.1406 -29.0938 5.0664 155
-14.773399999999999 -26.6406 -0.3555 234
-16.1719 -29.1562 5.8711 169
-2.9531 -5.2773 -1.0595999999999999 106
-13.1719 -23.5312 0.3145 125
-3.0039 -5.3672 -0.9316 50
-13.164100000000001 -23.5156 0.9395 19
-16.0938 -28.7656 1.915 97
-16.2031 -28.9688 2.7089999999999996 94
-4.0469 -7.230499999999999 -0.6729 75
-16.1719 -28.8906 3.4745999999999997 57
-4.0664 -7.265599999999999 -0.4819 128
-16.1719 -28.8906 4.2539 165
-16.2812 -29.0938 5.0742 194
-14.906199999999998 -26.6406 -0.35600000000000004 194
-16.3438 -29.2031 5.894500000000001 63
-2.9901999999999997 -5.300800000000001 -1.0654000000000001 145
-13.156199999999998 -23.3281 0.3123 33
-2.9922000000000004 -5.3047 -0.9218999999999999 58
-13.164100000000001 -23.3281 0.9336 242
-16.25 -28.7969 1.9209 251
-16.3438 -28.9688 2.7148000000000003 196
-16.2969 -28.8906 3.4824 195
-16.3125 -28.9062 4.2656 240
-3.873 -6.863300000000001 -0.2734 45
-16.4688 -29.2031 5.1055 116
-13.1172 -23.25 -0.31129999999999997 165
-16.4844 -29.2031 5.9062 102
-3.0214999999999996 -5.3164 -1.0713 85
-13.1406 -23.125 0.31010000000000004 109
-3.0176 -5.3086 -0.9243000000000001 46
-13.1172 -23.0938 0.9258 45
-16.375 -28.7969 1.9247999999999998 83
-16.4844 -29.0 2.7207 7
-16.4062 -28.875 3.4863 179
-16.4375 -28.9062 4.2734 50
-16.6094 -29.2344 5.1211 231
-13.093800000000002 -23.0469 -0.3091 145
-16.5938 -29.2188 5.917999999999999 48
-3.0351999999999997 -5.300800000000001 -1.0693000000000001 96
-13.1406 -22.9531 0.30829999999999996 103
-3.0664 -5.3515999999999995 -0.9340999999999999 74
-13.1328 -22.9219 0.9209 146
-16.4844 -28.7656 1.9268 68
-16.5469 -28.8906 2.7168 193
-16.5469 -28.8906 3.4941000000000004 119
-16.5625 -28.9219 4.2812 11
-16.7188 -29.1875 5.1211 120
-13.101600000000001 -22.875 -0.3074 142
-16.7344 -29.2188 5.9297 21
-3.043 -5.269500000000001 -1.0654000000000001 7
-3.082 -5.3359000000000005 -0.9331 167
-13.1406 -22.7344 0.9155 66
-16.625 -28.7656 1.9297 139
-16.7812 -29.0469 2.7363 194
-16.6875 -28.875 3.502 209
-16.6875 -28.8906 4.2852 214
-16.8438 -29.1562 5.1289 144
-16.875 -29.2188 5.9414 99
-3.0839999999999996 -5.292999999999999 -1.0732 13
-3.0976999999999997 -5.3164 -0.9316 96
-13.1406 -22.5625 0.9102 71
-16.7656 -28.7812 1.9355000000000002 69
-16.9531 -29.1094 2.748 149
-16.8281 -28.8906 3.5077999999999996 33
-16.8281 -28.8906 4.293 64
-16.9375 -29.0781 5.125 127
-13.0781 -22.4531 -0.303 47
-16.9219 -29.0625 5.921900000000001 198
-3.0898000000000003 -5.2578 -1.0684 139
-3.1308999999999996 -5.328099999999999 -0.9359999999999999 254
-13.1406 -22.3594 0.9037999999999999 223
-13.1406 -22.375 1.5068000000000001 243
-16.9844 -28.9219 2.7363 40
-16.9688 -28.8906 3.5176 50
-16.9688 -28.8906 4.3047 195
-17.0 -28.9531 5.1133 73
-13.1094 -22.3125 -0.3018 153
-17.0312 -28.9844 5.917999999999999 144
-3.1211 -5.2734000000000005 -1.0732 243
-3.1582 -5.332000000000001 -0.9384999999999999 56
-13.1406 -22.1875 0.8984000000000001 69
-13.1328 -22.1875 1.4971 44
-17.0625 -28.8125 2.7324 49
-17.0938 -28.8594 3.5214999999999996 237
-17.1094 -28.8906 4.3125 174
-17.125 -28.9219 5.1172 204
-13.164100000000001 -22.2344 -0.3013 48
-17.1562 -28.9688 5.9297 155
-3.1367000000000003 -5.2578 -1.0723 232
