# .PCD v0.7 - Point Cloud Data file format
VERSION 0.7
FIELDS x y z intensity
SIZE 4 4 4 4
TYPE F F F F
COUNT 1 1 1 1
WIDTH 1293
HEIGHT 1
VIEWPOINT 0 0 0 1 0 0 0
POINTS 1293
DATA ascii
1.6825999999999999 -10.8828 -0.38280000000000003 29
1.7744 -11.476600000000001 1.7637 89
1.6904 -10.9297 -0.1284 219
1.7938999999999998 -11.601600000000001 2.0625 50
1.5781 -10.4531 -1.8563999999999998 70
1.6904 -11.1875 0.1315 12
1.9091999999999998 -12.6406 -1.9424000000000001 213
1.6865 -11.164100000000001 0.3926 1
2.375 -15.726600000000001 -2.041 182
1.7069999999999999 -11.3047 0.6626000000000001 115
2.252 -14.914100000000001 -1.5800999999999998 20
1.7236000000000002 -11.406199999999998 0.9390000000000001 78
2.3145 -15.3203 -1.2617 63
1.7402000000000002 -11.523399999999999 1.2197 138
1.6768 -11.093800000000002 -0.6504000000000001 192
1.749 -11.5781 1.501 218
1.6777000000000002 -11.1094 -0.3906 129
1.7675999999999998 -11.6953 1.7978999999999998 132
1.6846 -11.148399999999999 -0.131 178
1.5391 -10.4297 -1.8516 46
1.6806999999999999 -11.3906 0.1338 44
1.8603999999999998 -12.6172 -1.9375 81
1.6825999999999999 -11.414100000000001 0.4011 23
2.3164 -15.7031 -2.0371 12
1.6963 -11.5 0.6738 205
2.1445 -14.5469 -1.541 21
1.7227000000000001 -11.6797 0.9609000000000001 123
1.7393 -11.7969 1.248 157
1.6669999999999998 -11.3047 -0.6620999999999999 142
1.7480000000000002 -11.851600000000001 1.5352000000000001 71
1.6728999999999998 -11.343800000000002 -0.3987 7
1.7646000000000002 -11.960899999999999 1.8369 5
1.6777000000000002 -11.375 -0.1335 76
1.501 -10.4297 -1.8506 40
1.6688999999999998 -11.593800000000002 0.1361 244
1.8163999999999998 -12.6172 -1.9375 251
1.6747999999999998 -11.6406 0.4089 77
2.1133 -14.6797 -1.9022999999999999 219
1.6924000000000001 -11.7578 0.6884999999999999 80
2.0898 -14.5156 -1.5361000000000002 222
1.7158000000000002 -11.9219 0.98 63
2.1113 -14.6719 -1.207 72
1.7266 -12.0 1.2695 32
1.6621000000000001 -11.5547 -0.6762999999999999 188
1.7334 -12.0469 1.5596 78
1.6699000000000002 -11.601600000000001 -0.4075 21
1.7538999999999998 -12.1875 1.8711000000000002 134
1.6738 -11.6328 -0.1365 223
1.4647999999999999 -10.4375 -1.8516 18
1.7627000000000002 -12.5625 -1.9277000000000002 10
1.6747999999999998 -11.9297 0.4189 16
2.0605 -14.6875 -1.9022999999999999 153
1.6836000000000002 -12.0 0.7021 53
2.0352 -14.5 -1.5341999999999998 149
1.6982 -12.101600000000001 0.9945999999999999 175
1.7227000000000001 -12.273399999999999 1.2978999999999998 35
1.6602000000000001 -11.8281 -0.6923999999999999 86
1.7324000000000002 -12.343800000000002 1.5977000000000001 93
1.6582 -11.8125 -0.41479999999999995 153
1.6680000000000001 -11.8828 -0.1394 18
1.4268 -10.4297 -1.8496000000000001 45
1.6484 -12.0547 0.1414 80
1.7147999999999999 -12.531199999999998 -1.9228999999999998 125
1.6591999999999998 -12.1328 0.42579999999999996 166
2.0098 -14.6875 -1.9022999999999999 179
1.6806999999999999 -12.289100000000001 0.7188 200
1.9834 -14.5 -1.5332 169
1.7002000000000002 -12.4297 1.0215 123
1.7138999999999998 -12.523399999999999 1.3241999999999998 224
1.6513999999999998 -12.0703 -0.7061 94
1.7294999999999998 -12.6406 1.6357 206
1.6494 -12.0547 -0.42310000000000003 204
1.7803 -13.0156 1.9961000000000002 215
1.6611000000000002 -12.1406 -0.1423 188
1.3936000000000002 -10.4453 -1.8506 93
1.6553 -12.406199999999998 0.1454 252
1.6797 -12.593800000000002 -1.9306999999999999 189
1.6602000000000001 -12.4375 0.4365 103
1.9609 -14.6953 -1.9022999999999999 194
1.6777000000000002 -12.5703 0.7354 86
1.9385 -14.531199999999998 -1.5361000000000002 232
1.7021000000000002 -12.7578 1.0479 186
1.7178 -12.875 1.3603999999999998 237
1.6475 -12.343800000000002 -0.7222 127
1.7236000000000002 -12.9219 1.6709 188
1.6475 -12.343800000000002 -0.43310000000000004 170
1.6553 -12.406199999999998 -0.14550000000000002 233
1.3563999999999998 -10.4297 -1.8477000000000001 166
1.6318000000000001 -12.5469 -1.9228999999999998 57
1.6513999999999998 -12.6953 0.44530000000000003 206
1.9121000000000001 -14.7031 -1.9022999999999999 211
1.6728999999999998 -12.8594 0.752 209
1.9062000000000001 -14.656199999999998 -1.5488 26
1.6991999999999998 -13.0625 1.0723 106
1.9209 -14.773399999999999 -1.2129 122
1.7266 -13.273399999999999 1.4022999999999999 83
1.6396000000000002 -12.6094 -0.7373000000000001 49
1.7216999999999998 -13.2422 1.7119 211
1.6444999999999999 -12.6406 -0.4434 107
1.6494 -12.6875 -0.1487 158
10.2578 -78.875 14.023399999999999 46
1.3144999999999998 -10.4219 -1.8447 232
1.5869 -12.5781 -1.9268 77
1.6455000000000002 -13.0469 0.4575 42
1.8652000000000002 -14.789100000000001 -1.9111000000000002 162
1.6631 -13.1797 0.7705 247
1.8603999999999998 -14.75 -1.5575999999999999 182
1.6758000000000002 -13.289100000000001 1.0898 33
1.8984 -15.0469 -1.2354 45
1.6904 -13.406199999999998 1.415 157
1.6299000000000001 -12.9219 -0.7548999999999999 21
1.7109 -13.5625 1.7529 109
1.6288999999999998 -12.914100000000001 -0.4526 30
1.6377000000000002 -12.9844 -0.1521 71
1.2783 -10.4297 -1.8457 40
1.6299000000000001 -13.2969 0.1558 239
1.5352000000000001 -12.523399999999999 -1.9169999999999998 23
1.6318000000000001 -13.3047 0.46630000000000005 204
1.6494 -13.4531 0.7861 236
1.7803 -14.5156 -1.5332 175
1.6777000000000002 -13.6875 1.1220999999999999 210
1.626 -13.2578 -0.7744 244
1.7031 -13.8906 1.7949000000000002 50
1.6211000000000002 -13.226600000000001 -0.46340000000000003 175
1.6288999999999998 -13.289100000000001 -0.15560000000000002 103
1.2451 -10.4453 -1.8466999999999998 115
1.4922 -12.5078 -1.915 162
1.6318000000000001 -13.6875 0.47950000000000004 24
1.7559 -14.726600000000001 -1.9022999999999999 234
1.6494 -13.8281 0.8076000000000001 27
1.7294999999999998 -14.5 -1.5303 33
1.6611000000000002 -13.9297 1.1416 36
1.6787 -14.085899999999999 1.4863 107
1.6133000000000002 -13.531199999999998 -0.79 124
1.7002000000000002 -14.2578 1.8418 167
1.6143 -13.531199999999998 -0.47409999999999997 76
1.6230000000000002 -13.6094 -0.1594 253
1.2109 -10.4531 -1.8477000000000001 111
1.4531 -12.539100000000001 -1.9180000000000001 173
1.6063999999999998 -13.8672 0.48560000000000003 9
1.7069999999999999 -14.726600000000001 -1.9022999999999999 165
1.6377000000000002 -14.1328 0.8251999999999999 46
1.6846 -14.539100000000001 -1.5332 50
1.6602000000000001 -14.3281 1.1748 46
1.6787 -14.4844 1.5272999999999999 248
1.6103999999999998 -13.898399999999999 -0.8115000000000001 147
1.7275 -14.906199999999998 1.9247999999999998 49
1.6094 -13.8828 -0.4863 73
1.6152000000000002 -13.9375 -0.1632 255
1.1729 -10.4531 -1.8466999999999998 68
1.4102000000000001 -12.5703 -1.9228999999999998 205
1.6074000000000002 -14.3281 0.5015 69
1.6455000000000002 -14.6719 -1.8936000000000002 78
1.6288999999999998 -14.523399999999999 0.8477 22
1.6269999999999998 -14.5 -1.5293 6
1.6436000000000002 -14.648399999999999 1.2002 54
1.5937999999999999 -14.210899999999999 -0.8291 187
1.5947 -14.218800000000002 -0.4978 4
1.6006 -14.2656 -0.16699999999999998 96
1.1348 -10.4453 -1.8447 19
1.5888999999999998 -14.625 0.1711 96
1.3643 -12.5547 -1.9188999999999998 131
1.585 -14.585899999999999 0.5107 91
1.6016 -14.7422 -1.9022999999999999 122
1.6162 -14.8828 0.8682 0
1.5771000000000002 -14.5156 -1.5303 219
1.6436000000000002 -15.1328 1.2393 61
1.5819999999999999 -14.5625 -0.8495999999999999 235
1.5878999999999999 -14.6172 -0.5117 212
1.5869 -14.6094 -0.171 20
1.0977 -10.4453 -1.8447 69
1.3144999999999998 -12.5078 -1.9111000000000002 183
1.5888999999999998 -15.125 0.5293 15
1.5497999999999998 -14.75 -1.9022999999999999 112
1.6103999999999998 -15.3203 0.8936 223
1.5986000000000002 -15.2031 -1.6025 169
1.5732 -14.968800000000002 -1.2256 173
1.6688999999999998 -15.8828 1.6738 79
1.5741999999999998 -14.976600000000001 -0.8734999999999999 254
1.5693000000000001 -14.9375 -0.5225 97
1.5830000000000002 -15.0547 -0.1761 84
1.0615 -10.4453 -1.8437999999999999 143
1.2646 -12.4531 -1.9013999999999998 126
1.584 -15.593800000000002 0.5454 186
1.6035 -15.789100000000001 0.9209 14
1.5478999999999998 -15.2344 -1.6055000000000001 14
1.6133000000000002 -15.8828 1.3008000000000002 37
1.5459 -15.210899999999999 -1.2451 33
1.5635 -15.3906 -0.8975 164
1.5596 -15.351600000000001 -0.5371 238
1.5732 -15.4922 -0.1812 77
1.0264 -10.468800000000002 -1.8477000000000001 6
1.2227 -12.468800000000002 -1.9043 73
1.5566 -15.8828 0.5552 221
1.5361000000000002 -15.6719 -2.0195 135
1.5947 -16.2656 0.9481999999999999 117
1.6035 -16.3594 -1.7227000000000001 34
1.6044999999999998 -16.3594 -1.3397999999999999 189
1.5527000000000002 -15.8281 -0.9229 250
1.5488 -15.789100000000001 -0.5522 174
1.5566 -15.8828 -0.1857 25
0.9883 -10.4531 -1.8437999999999999 205
1.1787 -12.468800000000002 -1.9033000000000002 131
1.5644999999999998 -16.5469 0.5786 248
1.4794999999999998 -15.648399999999999 -2.0156 52
1.5811000000000002 -16.7344 0.9751000000000001 3
1.5478999999999998 -16.375 -1.7236000000000002 54
1.6103999999999998 -17.0312 1.3944999999999999 185
1.5518 -16.4062 -1.3428 85
1.6455000000000002 -17.4062 1.8330000000000002 5
1.54 -16.2969 -0.9492 192
1.5381 -16.2656 -0.5688 24
1.5381 -16.2812 -0.19030000000000002 87
0.9501999999999999 -10.4375 -1.8408000000000002 116
1.1377 -12.5 -1.9072 180
1.5537 -17.0625 0.5967 68
1.4238 -15.6406 -2.0156 5
1.5703 -17.2656 1.0059 193
1.9209 -21.1094 -2.2227 207
1.5253999999999999 -16.7656 -0.9765999999999999 12
1.5234 -16.7344 -0.585 197
1.5449000000000002 -16.9844 -0.1985 255
0.9146 -10.4531 -1.8428 166
1.0928 -12.4844 -1.9043 29
1.3691 -15.656199999999998 -2.0156 48
1.8477000000000001 -21.125 -2.2227 90
1.5225 -17.4062 -1.0137 81
1.5088 -17.2344 -0.6025 91
0.8779 -10.460899999999999 -1.8428 210
1.0498 -12.5 -1.9062000000000001 127
6.625 -78.875 2.7617000000000003 225
1.3144999999999998 -15.656199999999998 -2.0156 187
1.7753999999999999 -21.1406 -2.2246 254
0.8428 -10.476600000000001 -1.8457 55
1.0068000000000001 -12.5156 -1.9072 154
1.2578 -15.6406 -2.0117 145
4.3008 -53.4688 -3.1191000000000004 19
0.8070999999999999 -10.460899999999999 -1.8428 93
0.9658 -12.523399999999999 -1.9091999999999998 204
1.2041 -15.6094 -2.0078 235
5.292999999999999 -68.625 4.0039 140
1.6269999999999998 -21.0938 -2.2188 143
0.7715000000000001 -10.4531 -1.8408000000000002 11
0.9233 -12.5078 -1.9062000000000001 219
1.1504 -15.585899999999999 -2.0059 124
1.5518 -21.0312 -2.2109 84
0.7339 -10.468800000000002 -1.8437999999999999 44
0.8765000000000001 -12.5 -1.9043 40
1.0908 -15.5703 -2.002 113
0.6962999999999999 -10.460899999999999 -1.8408000000000002 76
0.8311 -12.476600000000001 -1.9003999999999999 138
1.0361 -15.5547 -2.0 2
4.582 -68.8125 4.0078 75
1.4062000000000001 -21.1094 -2.2188 120
0.6620999999999999 -10.4922 -1.8466999999999998 20
0.7866 -12.468800000000002 -1.8984 109
0.9804999999999999 -15.539100000000001 -1.9980000000000002 4
1.3241999999999998 -20.9844 -2.2051 10
0.624 -10.468800000000002 -1.8428 135
0.7456 -12.5078 -1.9043 218
0.9248000000000001 -15.5156 -1.9941 182
1.251 -21.0 -2.2051 12
0.5898 -10.4844 -1.8447 166
0.7056 -12.539100000000001 -1.9091999999999998 219
0.8740000000000001 -15.531199999999998 -1.9961000000000002 244
1.1826 -21.0312 -2.209 209
0.5547 -10.476600000000001 -1.8428 124
0.6620999999999999 -12.5078 -1.9043 14
0.8223 -15.539100000000001 -1.9961000000000002 90
1.1016 -20.7969 -2.1855 205
0.5146000000000001 -10.4922 -1.8447 55
0.6133 -12.4922 -1.9003999999999999 195
0.7626999999999999 -15.539100000000001 -1.9961000000000002 164
1.0156 -20.6875 -2.1738 100
0.4788 -10.5078 -1.8466999999999998 248
0.5718 -12.539100000000001 -1.9072 116
0.708 -15.531199999999998 -1.9941 183
0.9438 -20.7031 -2.1738 2
0.4407 -10.476600000000001 -1.8408000000000002 81
0.5268999999999999 -12.523399999999999 -1.9043 238
0.6518999999999999 -15.4922 -1.9893 94
0.8755 -20.8125 -2.1836 246
0.4043 -10.476600000000001 -1.8408000000000002 155
0.4841 -12.5469 -1.9072 201
0.5977 -15.4844 -1.9872999999999998 236
0.8022 -20.7812 -2.1816 206
0.3682 -10.4922 -1.8437999999999999 15
0.4395 -12.523399999999999 -1.9043 52
0.5435 -15.4922 -1.9883000000000002 242
0.7245999999999999 -20.6562 -2.168 244
0.332 -10.5078 -1.8466999999999998 112
0.396 -12.531199999999998 -1.9062000000000001 24
0.489 -15.476600000000001 -1.9853999999999998 129
0.6533 -20.6719 -2.168 253
0.2952 -10.5 -1.8457 12
0.3518 -12.5156 -1.9022999999999999 99
0.5806 -20.6562 -2.168 7
0.1328 -5.3984000000000005 -0.6890000000000001 179
0.5078 -20.6406 -2.166 12
0.114 -5.3984000000000005 -0.6890000000000001 241
0.0929 -5.269500000000001 -0.7968999999999999 229
0.0947 -5.3672 -0.6851 111
0.0745 -5.203099999999999 -0.7866 137
0.076 -5.3086 -0.6772 27
0.0562 -5.1055 -0.7725 124
0.057999999999999996 -5.2773 -0.6733 213
0.0069 -0.9355 -0.1576 254
0.0373 -5.0898 -0.77 50
0.0377 -5.140599999999999 -0.6557999999999999 47
0.0473 -6.453099999999999 -0.3728 98
0.0036 -0.9277 -0.1561 27
0.0195 -5.0781 -0.7676000000000001 28
0.0197 -5.136699999999999 -0.6553 62
0.0222 -5.7812 -0.4685 112
0.0246 -6.3984000000000005 -0.3696 160
0.0005 -0.9277 -0.1561 238
0.0026 -5.0547 -0.7642 183
0.0027 -5.140599999999999 -0.6557999999999999 59
0.003 -5.734400000000001 -0.4646 132
-0.0025 -0.8959999999999999 -0.1506 66
-0.0141 -5.043 -0.7626999999999999 140
-0.0143 -5.1172 -0.6528 192
-0.015700000000000002 -5.6328 -0.45649999999999996 28
-0.0058 -0.8998999999999999 -0.1514 126
-0.0326 -5.0508 -0.7637 244
-0.032799999999999996 -5.0859 -0.6484000000000001 14
-0.0364 -5.6328 -0.45649999999999996 16
-0.0403 -6.238300000000001 -0.3604 13
-0.0088 -0.8843000000000001 -0.14859999999999998 94
-0.0501 -5.0391 -0.7622 132
-0.0512 -5.144500000000001 -0.6562 15
-0.0556 -5.5938 -0.4531 131
-0.061799999999999994 -6.207000000000001 -0.35840000000000005 187
-0.0645 -6.484400000000001 -0.22469999999999998 235
-0.0121 -0.9037999999999999 -0.152 81
-0.0677 -5.0391 -0.7617 235
-0.075 -5.582000000000001 -0.4521 251
-0.0858 -6.386699999999999 -0.2212 72
-0.0148 -0.8765000000000001 -0.1471 84
-0.0852 -5.0312 -0.7612000000000001 231
-0.08710000000000001 -5.144500000000001 -0.6562 28
-0.0944 -5.574199999999999 -0.4517 253
-0.1115 -6.5859000000000005 -0.0761 124
-0.018500000000000003 -0.8998999999999999 -0.1514 142
-0.1033 -5.0156 -0.7583 65
-0.10460000000000001 -5.0781 -0.6479 177
-0.114 -5.5312 -0.4482 15
-0.1305 -6.332000000000001 -0.366 67
-0.1348 -6.542999999999999 -0.0756 216
-0.0216 -0.8959999999999999 -0.1506 163
-0.121 -5.0234 -0.7598 46
-0.122 -5.0664 -0.6459999999999999 92
-0.1333 -5.5312 -0.4482 44
-0.15259999999999999 -6.332000000000001 -0.366 193
-0.1594 -6.6172 -0.0765 63
-0.0258 -0.9351 -0.1576 51
-0.1389 -5.0391 -0.7622 115
-0.1401 -5.082 -0.6484000000000001 80
-0.1531 -5.550800000000001 -0.45 166
-0.1747 -6.332000000000001 -0.366 225
-0.2026 -7.3477 -0.25489999999999996 65
-0.1559 -5.0156 -0.7587999999999999 93
-0.15689999999999998 -5.0469 -0.644 124
-0.1711 -5.5078 -0.44630000000000003 60
-0.1937 -6.234400000000001 -0.3601 146
-0.032 -0.9351 -0.1576 84
-0.1721 -5.0273 -0.7606999999999999 107
-0.18760000000000002 -5.484400000000001 -0.4443 190
-0.2167 -6.332000000000001 -0.366 30
-0.033 -0.8798999999999999 -0.1478 90
-0.18710000000000002 -4.9844 -0.7539 69
-0.1934 -5.1484000000000005 -0.6572 119
-0.2045 -5.4453 -0.4414 148
-0.0352 -0.8481000000000001 -0.1423 84
-0.2791 -6.7148 0.07769999999999999 107
-0.2073 -4.9844 -0.7544 19
-0.21359999999999998 -5.140599999999999 -0.6562 153
-0.2257 -5.4297 -0.44020000000000004 245
-0.3037 -7.3086 -0.25370000000000004 192
-0.0375 -0.8281000000000001 -0.1388 108
-0.3013 -6.6640999999999995 0.0771 121
-0.2261 -4.9961 -0.7563 141
-0.2329 -5.1484000000000005 -0.6572 63
-0.245 -5.417999999999999 -0.43920000000000003 161
-0.3293 -7.2773 -0.2527 231
-0.0454 -0.9346 -0.1576 221
-0.3286 -6.765599999999999 0.0783 9
-0.2432 -5.0078 -0.7583 13
-0.2607 -5.3672 -0.4353 237
-0.35450000000000004 -7.300800000000001 -0.2534 174
-0.0466 -0.895 -0.1506 165
-0.3452 -6.6328 0.0768 40
-0.259 -4.9766 -0.7534000000000001 218
-0.282 -5.4140999999999995 -0.43920000000000003 42
-0.37920000000000004 -7.2852 -0.2529 184
-0.051699999999999996 -0.9340999999999999 -0.1576 96
-0.36719999999999997 -6.6328 0.0768 95
-0.2749 -4.9648 -0.752 70
-0.2776 -5.0117 -0.6401 84
-0.2993 -5.4062 -0.4385 41
-0.4028 -7.2734000000000005 -0.2527 177
-0.052300000000000006 -0.8906000000000001 -0.1499 149
-0.3909 -6.6562 0.0771 70
-0.2925 -4.9844 -0.7548999999999999 119
-0.2942 -5.0117 -0.6401 50
-0.31489999999999996 -5.363300000000001 -0.4353 81
-0.4275 -7.2812 -0.2529 74
-0.0583 -0.9336 -0.1576 228
-0.41409999999999997 -6.636699999999999 0.0768 188
-0.3098 -4.9688 -0.7524 8
-0.31420000000000003 -5.0352 -0.6436 185
-0.33520000000000005 -5.3711 -0.436 7
-0.45530000000000004 -7.300800000000001 -0.25370000000000004 213
-0.06 -0.9102 -0.1534 23
-0.43479999999999996 -6.5977 0.0764 81
-0.325 -4.9297 -0.7471 55
-0.3284 -4.9844 -0.6372 38
-0.35450000000000004 -5.3789 -0.4365 91
-0.4805 -7.2890999999999995 -0.2534 169
-0.061200000000000004 -0.8843000000000001 -0.1489 74
-0.4595 -6.636699999999999 0.07690000000000001 157
-0.34130000000000005 -4.9297 -0.7471 169
-0.3447 -4.9805 -0.6367 183
-0.3481 -5.0273 -0.5254 180
-0.3699 -5.3398 -0.4336 151
-0.5049 -7.296900000000001 -0.25370000000000004 247
-0.0641 -0.8837999999999999 -0.1489 176
-0.4783 -6.5938 0.0764 146
-0.3628 -5.0 -0.7583 79
-0.3594 -4.9531 -0.6333 146
-0.3635 -5.0117 -0.5234000000000001 248
-0.38789999999999997 -5.3477 -0.4343 117
-0.5264 -7.2539 -0.2522 247
-0.0684 -0.8955 -0.151 193
-0.5083 -6.6484000000000005 0.0771 78
-0.3845 -5.0312 -0.7626999999999999 65
-0.3801 -4.9727 -0.6362 190
-0.38060000000000005 -4.9805 -0.5205 243
-0.40549999999999997 -5.3086 -0.43119999999999997 81
-0.5557 -7.2734000000000005 -0.2529 81
-0.0703 -0.8794 -0.1482 177
-0.5288 -6.6172 0.0767 219
-0.3994 -4.9961 -0.7578 4
-0.4006 -5.0117 -0.6411 241
-0.3987 -4.9883 -0.5215 97
-0.42310000000000003 -5.292999999999999 -0.4302 105
-0.0726 -0.8715999999999999 -0.1469 68
-0.5493 -6.5977 0.0765 184
-0.4175 -5.0117 -0.7603 201
-0.4146 -4.9805 -0.6372 52
-0.415 -4.9844 -0.521 82
-0.4446 -5.3398 -0.4341 206
-0.0761 -0.8789 -0.1482 53
-0.5713 -6.5977 0.0765 189
-0.4336 -5.0078 -0.7598 230
-0.42969999999999997 -4.9609 -0.6353 126
-0.4321 -4.9883 -0.522 106
-0.4561 -5.265599999999999 -0.4282 218
-0.0815 -0.9004000000000001 -0.152 152
-0.5967 -6.5938 0.0765 154
-0.44920000000000004 -4.9648 -0.7539 98
-0.45 -4.9727 -0.6367 151
-0.4507 -4.9805 -0.521 247
-0.4829 -5.3359000000000005 -0.4341 118
-0.08529999999999999 -0.9077 -0.1534 25
-0.6206 -6.605499999999999 0.0767 246
-0.4692 -4.9922 -0.7583 234
-0.4653 -4.9492 -0.6338 110
-0.4966 -5.2812 -0.42969999999999997 230
-0.4719 -4.8398 -0.8501000000000001 134
-0.6420999999999999 -6.5859000000000005 0.0765 2
-0.4875 -5.0 -0.7593000000000001 57
-0.48100000000000004 -4.9336 -0.6318 118
-0.5166 -5.296900000000001 -0.43119999999999997 245
-0.4849 -4.8008 -0.8432999999999999 196
-0.6655 -6.5898 0.0765 165
-0.5024000000000001 -4.9727 -0.7559 189
-0.5024000000000001 -4.9727 -0.6377 115
-0.5059 -5.0078 -0.5244 99
-0.5352 -5.296900000000001 -0.43119999999999997 231
-0.6167 -6.105499999999999 -0.3542 167
-0.6724 -6.6523 -0.07730000000000001 14
-0.5 -4.7891 -0.8418000000000001 36
-0.6855 -6.5664 0.07629999999999999 163
-0.5166 -4.9492 -0.752 123
-0.519 -4.9727 -0.6377 82
-0.5215 -4.9922 -0.5229 39
-0.5537 -5.3047 -0.4321 19
-0.6372 -6.1015999999999995 -0.3542 75
-0.6909000000000001 -6.6211 -0.07690000000000001 237
-0.5181 -4.8086 -0.8456999999999999 124
-0.7109000000000001 -6.5977 0.0767 139
-0.5332 -4.9492 -0.7524 213
-5.394500000000001 -50.0938 1.7568000000000001 54
-0.5366 -4.9805 -0.6386999999999999 137
-0.5376 -4.9922 -0.5229 36
-0.5728 -5.3164 -0.43310000000000004 213
-0.6548 -6.078099999999999 -0.353 225
-0.7129000000000001 -6.6172 -0.07690000000000001 219
-0.5352 -4.8008 -0.8442000000000001 105
-0.7334 -6.582000000000001 0.0765 7
-0.5557 -4.9844 -0.7583 247
-0.5581 -5.0039 -0.6426000000000001 62
-0.5596 -5.0195 -0.5264 97
-0.5908 -5.300800000000001 -0.4321 184
-0.7387999999999999 -6.625 -0.0771 45
-0.5513 -4.793 -0.8432999999999999 5
-0.7603 -6.609400000000001 0.07690000000000001 123
-0.5722999999999999 -4.9766 -0.7573000000000001 5
-0.5761999999999999 -5.0117 -0.6436 21
-0.5752 -5.0039 -0.5249 242
-0.6069 -5.2812 -0.4304 232
-0.7554000000000001 -6.5664 -0.0764 114
-0.5664 -4.7852 -0.8423 59
-0.7807999999999999 -6.5938 0.0768 181
-0.5889 -4.9727 -0.7573000000000001 14
-0.5952000000000001 -5.0273 -0.6455 164
-6.0 -50.6875 2.9688 148
-0.5942000000000001 -5.0195 -0.5268999999999999 177
-0.6225999999999999 -5.261699999999999 -0.4292 175
-0.7787999999999999 -6.582000000000001 -0.0766 173
-0.5854 -4.8086 -0.8467 128
-0.7993000000000001 -6.5664 0.0764 86
-0.6054999999999999 -4.9727 -0.7573000000000001 185
-0.6138 -5.0391 -0.6479 114
-6.140599999999999 -50.4375 2.9531 205
-0.6118 -5.0273 -0.5278 59
-0.6479 -5.324199999999999 -0.4343 21
-0.8022 -6.5898 -0.0767 162
-0.6054999999999999 -4.8203 -0.8491 244
-0.8271 -6.5859000000000005 0.0767 65
-0.6235 -4.9648 -0.7563 167
-6.171900000000001 -49.125 1.7266 104
-0.6343 -5.0508 -0.6494 64
-5.7461 -45.75 2.6797000000000004 155
-0.6372 -5.0703 -0.5327000000000001 243
-0.665 -5.292999999999999 -0.4321 167
-0.8247 -6.5625 -0.0765 255
-0.6357 -4.9219 -0.8676999999999999 35
-0.8495999999999999 -6.578099999999999 0.0767 19
-0.6401 -4.957 -0.7559 250
-6.2422 -48.3438 1.7002000000000002 190
-0.6475 -5.0117 -0.6445000000000001 210
-5.890599999999999 -45.5938 2.6719 211
-0.6455 -5.0 -0.5254 37
-6.4765999999999995 -50.1562 4.1289 45
-0.6831 -5.2890999999999995 -0.4321 90
-0.8456999999999999 -6.550800000000001 -0.07629999999999999 177
-0.6562 -4.9531 -0.8734999999999999 48
-0.8745 -6.6015999999999995 0.077 93
-0.6567000000000001 -4.9531 -0.7559 237
-0.6646 -5.0117 -0.645 31
-6.0273 -45.4688 2.6660000000000004 9
-0.6655 -5.0195 -0.5278 52
-6.6172 -49.9062 4.1094 83
-0.7061 -5.328099999999999 -0.4353 182
-0.8676999999999999 -6.546900000000001 -0.07629999999999999 97
-0.6636 -4.8828 -0.8613 223
-0.8936 -6.574199999999999 0.0767 181
-0.6801999999999999 -5.0039 -0.7637 122
-6.484400000000001 -47.6875 1.6787 6
-0.6724 -4.9453 -0.6367 202
-6.265599999999999 -46.0938 2.7031 96
-0.6890000000000001 -5.0703 -0.5332 181
-0.7236 -5.324199999999999 -0.4353 204
-0.9312 -6.8515999999999995 -0.08 254
-0.6685 -4.7812 -0.8438 209
-0.9189 -6.574199999999999 0.0767 116
-0.6948000000000001 -4.9688 -0.7587999999999999 15
-6.230499999999999 -44.5312 1.5693000000000001 226
-0.6904 -4.9375 -0.6362 84
-6.4375 -46.0312 2.7012 250
-0.7012 -5.0156 -0.5278 249
-7.042999999999999 -50.375 4.1523 144
-0.7432 -5.3125 -0.4346 91
-0.9634 -6.890599999999999 -0.2412 226
-0.6895 -4.8086 -0.8495999999999999 31
-0.9448000000000001 -6.5898 0.077 82
-0.7104 -4.957 -0.7568 230
-6.3789 -44.5 1.5684 126
-0.7104 -4.9531 -0.6382 180
-6.480499999999999 -45.2188 2.6543 3
-0.7188 -5.0117 -0.5278 5
-0.7598 -5.300800000000001 -0.4336 176
-0.9863 -6.8789 -0.2408 238
-0.9917 -6.917999999999999 -0.0808 177
-0.7065 -4.8164 -0.8506 221
-0.9639 -6.5664 0.0767 155
-0.728 -4.9609 -0.7583 193
-0.7265999999999999 -4.9531 -0.6382 202
-6.6797 -45.5 2.6738 78
-0.7402 -5.043 -0.5307999999999999 208
-0.7773 -5.296900000000001 -0.4336 38
-1.0039 -6.8359000000000005 -0.2395 78
-0.7188 -4.7852 -0.8456999999999999 103
-0.9883 -6.578099999999999 0.07690000000000001 77
-0.7465999999999999 -4.9688 -0.7598 61
-6.6211 -44.0938 1.5547 29
-0.7451000000000001 -4.9609 -0.6396000000000001 242
-6.7461 -44.9375 2.6406 206
-0.752 -5.0078 -0.5278 199
-0.7968999999999999 -5.3047 -0.4346 126
-1.0322 -6.8711 -0.2408 242
-0.7354 -4.7773 -0.8452 156
-1.0166 -6.605499999999999 0.07719999999999999 110
-0.769 -4.9961 -0.7642 150
-6.832000000000001 -44.375 1.5663999999999998 118
-0.7666 -4.9805 -0.6431 104
-6.917999999999999 -44.9375 2.6426 5
-0.7783 -5.0547 -0.5332 80
-7.453099999999999 -48.4375 4.0 185
-0.8164 -5.3047 -0.4346 6
-1.0625 -6.9062 -0.2422 186
-0.7554000000000001 -4.7969 -0.8486 214
-1.0371 -6.5859000000000005 0.077 235
-0.7793000000000001 -4.9492 -0.7573000000000001 18
-6.925800000000001 -43.9688 1.5527000000000002 143
-0.7925 -5.0312 -0.6498999999999999 210
-0.7876000000000001 -5.0039 -0.5278 144
-7.6015999999999995 -48.2812 3.9882999999999997 64
-0.8301000000000001 -5.269500000000001 -0.4321 220
-1.1181999999999999 -7.0977 -0.2491 224
-0.772 -4.793 -0.8486 95
-1.0566 -6.5625 0.0768 7
-0.8031999999999999 -4.9883 -0.7637 190
-0.8096 -5.0234 -0.6494 165
-7.4414 -46.1875 2.7207 61
-0.8051999999999999 -5.0 -0.5278 110
-0.8534999999999999 -5.296900000000001 -0.4346 87
-6.609400000000001 -41.0312 5.3398 166
-1.1514 -7.144500000000001 -0.251 209
-0.7905 -4.8008 -0.8506 232
-1.083 -6.578099999999999 0.077 23
-0.8231999999999999 -5.0 -0.7661 249
-0.8242 -5.0078 -0.6475 43
-7.5977 -46.1562 2.7188 172
-0.8228 -4.9961 -0.5278 166
-7.5 -45.5625 3.7676 28
-0.8715999999999999 -5.292999999999999 -0.4346 223
-6.730499999999999 -40.875 5.324199999999999 200
-1.1768 -7.1484000000000005 -0.25120000000000003 235
-0.8057 -4.7891 -0.8486 225
-1.1084 -6.5898 0.07719999999999999 139
-0.8408 -4.9961 -0.7661 61
-0.8452 -5.0234 -0.6498999999999999 167
-0.8403 -4.9922 -0.5278 203
-7.6289 -45.3438 3.752 43
-0.8896 -5.2890999999999995 -0.4343 5
-1.2051 -7.1640999999999995 -0.252 225
-0.8438 -4.9102 -0.8711 17
-1.1309 -6.582000000000001 0.07719999999999999 66
-0.8604 -5.0078 -0.7681 101
-0.8628 -5.0234 -0.6498999999999999 36
-7.6914 -44.75 2.6387 84
-0.9126000000000001 -5.3125 -0.4365 133
-6.4102 -37.3125 3.9745999999999997 87
-1.2305 -7.1602 -0.252 201
-1.2959 -7.5390999999999995 -0.0886 114
-0.8472 -4.8281 -0.8569 82
-1.1543 -6.578099999999999 0.07719999999999999 48
-0.8784000000000001 -5.0078 -0.7686 150
-8.1016 -46.1875 1.6347999999999998 198
-0.8828 -5.0312 -0.6514 47
-8.2734 -47.1562 2.7812 137
-6.0664 -34.5938 2.8651999999999997 14
-0.9390000000000001 -5.3515999999999995 -0.44020000000000004 147
-6.550800000000001 -37.3438 3.9805 155
-7.1602 -40.8125 5.324199999999999 146
-1.2598 -7.1836 -0.2529 159
-0.8618000000000001 -4.8125 -0.855 83
-1.1768 -6.574199999999999 0.07719999999999999 184
-0.8945000000000001 -4.9961 -0.7676000000000001 5
-7.0586 -39.4375 1.3975 56
-0.9037999999999999 -5.0469 -0.6543000000000001 216
-6.9727 -38.9375 2.2988 31
-6.1914 -34.5938 2.8672000000000004 171
-0.9497 -5.3047 -0.4365 127
-6.6484000000000005 -37.125 3.9608999999999996 216
-1.3711000000000002 -7.6602 -0.27 100
-1.3700999999999999 -7.6523 -0.09 119
-0.9028 -4.9414 -0.8784000000000001 196
-1.2041 -6.5938 0.0775 42
-0.9131 -5.0 -0.7686 18
-7.1875 -39.3438 1.3955000000000002 187
-0.9238 -5.0586 -0.6557999999999999 228
-7.1211 -38.9688 2.3027 144
-6.2852 -34.4375 2.8555 194
-0.9761 -5.3438 -0.44020000000000004 132
-6.796900000000001 -37.2188 3.9707 163
-7.3164 -40.0625 5.234400000000001 218
-1.416 -7.7539 -0.2734 102
-1.3984 -7.6562 -0.0901 132
-0.9136 -4.9062 -0.8721 176
-1.2305 -6.609400000000001 0.07769999999999999 81
-0.9336 -5.0117 -0.7709999999999999 9
-7.609400000000001 -40.8438 1.4491999999999998 136
-0.9395 -5.0469 -0.6548 62
-7.2890999999999995 -39.125 2.3125 225
-6.5703 -35.2812 2.9276999999999997 133
-0.9912000000000001 -5.324199999999999 -0.4385 34
-6.9062 -37.0938 3.9608999999999996 52
-1.4277000000000002 -7.6640999999999995 -0.2705 141
-1.3525 -7.261699999999999 -0.08539999999999999 34
-0.9146 -4.8164 -0.8569 55
-1.252 -6.5898 0.0776 141
-0.9531000000000001 -5.0195 -0.7729 10
-0.9570000000000001 -5.0391 -0.6543000000000001 118
-6.984400000000001 -36.7812 2.1758 50
-6.6836 -35.2188 2.9238 70
-1.0098 -5.3203 -0.4385 191
-6.953099999999999 -36.625 3.9141000000000004 24
-7.5312 -39.6562 5.1875 218
-0.9253 -4.7812 -0.8515999999999999 115
-1.2734 -6.582000000000001 0.0775 134
-0.9727 -5.0273 -0.7744 92
-0.9751000000000001 -5.0391 -0.6548 51
-6.7578 -34.9375 2.9023000000000003 232
-1.0264 -5.3047 -0.4375 203
-7.2422 -37.4375 4.0039 144
-1.165 -6.0234000000000005 -0.3542 62
-7.7188 -39.9062 5.2227 177
-0.9492 -4.8242 -0.8599 103
-1.2969 -6.5898 0.0776 176
-0.9883 -5.0234 -0.7739 23
-8.2578 -41.9688 1.4922 197
-0.9926999999999999 -5.0469 -0.6557999999999999 115
-7.082000000000001 -36.0 2.1309 73
-1.0518 -5.3477 -0.4414 242
-0.9643999999999999 -4.8203 -0.8589 118
-1.0039 -5.0156 -0.7734000000000001 213
-8.3906 -41.9062 1.4912 26
-1.0059 -5.0234 -0.6537999999999999 112
-7.4062 -37.0 2.1934 12
-0.9941 -4.9648 -0.5278 238
-1.0664 -5.328099999999999 -0.44020000000000004 65
-7.3984000000000005 -36.9688 3.957 216
-1.3319999999999999 -6.6523 -0.0784 91
-0.9814 -4.8086 -0.8579000000000001 106
-1.0283 -5.0352 -0.7768999999999999 66
-1.0244 -5.0156 -0.6533 213
-8.8594 -43.375 2.5742000000000003 36
-1.0908 -5.3438 -0.44189999999999996 150
-7.5664 -37.0625 3.9707 96
-7.605499999999999 -37.25 4.8828 58
-0.9976 -4.8008 -0.8569 95
-1.0518 -5.0625 -0.7817000000000001 39
-8.9453 -43.0625 1.5332 197
-1.0508 -5.0586 -0.6592 160
-7.046900000000001 -33.9062 2.0117 156
-1.0996 -5.2890999999999995 -0.4375 14
-7.0664 -34.0 3.6464999999999996 93
-7.769500000000001 -37.375 4.9062 216
-1.0205 -4.832 -0.8633 206
-9.9375 -47.0312 0.5615 20
-1.0723 -5.0742 -0.7842 115
-8.4688 -40.0625 1.4287 61
-1.0752 -5.0859 -0.6631 48
-7.175800000000001 -33.9688 2.0176 228
-1.0674 -5.0508 -0.5381 101
-7.796900000000001 -36.9062 3.0781 160
-1.1504 -5.4453 -0.4509 252
-7.1797 -33.9688 3.6464999999999996 219
-7.9648 -37.6875 4.9531 133
-1.3799000000000001 -6.5352 -0.07719999999999999 88
-1.0361 -4.8242 -0.8628 147
-1.0879 -5.0664 -0.7831999999999999 39
-8.6016 -40.0625 1.4287 8
-1.0859 -5.0547 -0.6597 151
-7.269500000000001 -33.8438 2.0117 143
-7.2890999999999995 -33.9375 2.832 40
-1.1553 -5.3789 -0.4458 111
-3.5254000000000003 -16.4219 -0.1954 49
-1.0537 -4.8203 -0.8628 21
-1.0937999999999999 -5.0039 -0.7744 67
-1.0742 -4.9141 -0.6411 63
-7.3711 -33.7188 2.0059 200
-7.4023 -33.875 2.8281 207
-1.1816 -5.4062 -0.4482 76
-3.5858999999999996 -16.4062 -0.1954 39
-1.0674 -4.8047 -0.8604 151
-1.0918 -4.9141 -0.7612000000000001 17
-9.4844 -42.6875 1.5253999999999999 121
-1.0879 -4.8984 -0.6396000000000001 31
-7.480499999999999 -33.6562 2.0039 45
-7.390599999999999 -33.25 2.7793 172
-1.2002 -5.4023 -0.4482 69
-7.8359000000000005 -35.25 3.7910000000000004 225
-7.5390999999999995 -33.9375 4.4648 207
-3.6211 -16.2969 -0.1942 191
-1.0879 -4.8164 -0.8633 117
-8.8984 -39.4062 0.4714 63
-1.1123 -4.9219 -0.7626999999999999 80
-9.625 -42.625 1.5244 244
-1.1220999999999999 -4.9688 -0.6494 141
-7.546900000000001 -33.4062 1.9893 189
-7.4961 -33.1875 2.7754000000000003 86
-1.2197 -5.3984000000000005 -0.4482 162
-7.640599999999999 -33.8438 4.457 55
-1.4561000000000002 -6.4453 -0.2289 39
-3.6757999999999997 -16.2656 -0.1942 98
-1.1045 -4.8086 -0.8628 142
-1.1367 -4.9492 -0.7681 20
-9.3203 -40.5938 2.4199 244
-7.613300000000001 -33.1562 2.7754000000000003 58
-1.2383 -5.394500000000001 -0.4482 134
-9.1016 -39.625 4.2695 215
-7.7812 -33.875 4.4688 133
-3.7344 -16.2656 -0.1942 135
-1.1133 -4.7773 -0.8579000000000001 109
-1.1748 -5.0391 -0.7827 235
-1.166 -5.0 -0.6553 235
-8.0 -34.3438 2.0488 88
-1.2695 -5.449199999999999 -0.4531 146
-7.8789 -33.8125 3.6426 229
-1.4502000000000002 -6.2188 -0.3689 11
-7.886699999999999 -33.8438 4.4648 114
-3.7870999999999997 -16.25 -0.1942 42
-1.1396 -4.8164 -0.8652 129
-1.1729 -4.957 -0.7705 109
-1.1738 -4.9609 -0.6504000000000001 25
-8.25 -34.875 2.084 48
-7.9062 -33.4062 2.8007999999999997 223
-1.3203 -5.578099999999999 -0.4646 65
-8.8203 -37.2812 4.0234 70
-1.4775 -6.2461 -0.37079999999999996 174
-7.988300000000001 -33.75 4.457 62
-3.8398000000000003 -16.2344 -0.1942 151
-1.1523 -4.793 -0.8618000000000001 250
-1.1982 -4.9844 -0.7754000000000001 211
-1.2061 -5.0156 -0.6577 48
-8.4453 -35.125 2.0996 17
-7.9414 -33.0312 2.7714999999999996 137
-1.3574000000000002 -5.644500000000001 -0.4705 124
-9.0 -37.4062 4.0391 142
-8.2891 -34.4688 4.5547 178
-3.9043 -16.2344 -0.1943 125
-1.2187999999999999 -4.9883 -0.7768999999999999 181
-8.9531 -36.6875 1.3174000000000001 196
-10.5547 -43.2188 2.5858999999999996 211
-8.0156 -32.8438 2.7577999999999996 7
-1.3721 -5.6211 -0.46880000000000005 10
-1.541 -6.3125 -0.37549999999999994 205
-8.6562 -35.4688 4.6914 224
-3.9629000000000003 -16.2344 -0.1945 53
-14.2969 -57.5938 0.6929000000000001 30
-1.2402 -4.9961 -0.7787999999999999 80
-9.0312 -36.375 1.3075999999999999 149
-1.2725 -5.125 -0.6738 150
-8.5 -34.25 2.0508 225
-8.1406 -32.7812 2.7558999999999996 252
-1.3955000000000002 -5.6211 -0.46950000000000003 199
-1.5644999999999998 -6.3047 -0.37520000000000003 41
-14.3828 -57.9375 7.675800000000001 30
-4.0312 -16.25 -0.1948 131
-14.539100000000001 -57.6562 0.6943 172
-1.2588 -4.9961 -0.7787999999999999 44
-11.335899999999999 -44.9688 1.6181999999999999 47
-1.29 -5.1172 -0.6733 107
-9.0234 -35.7812 2.1445 197
-8.2812 -32.8438 2.7637 202
-1.4188999999999998 -5.6289 -0.4705 248
-9.8281 -39.0 4.2227 183
-9.0781 -36.0 4.7695 67
-13.9922 -55.5 8.7188 204
-4.1016 -16.2656 -0.19519999999999998 97
-13.9922 -55.5 10.0859 206
-1.2734 -4.9922 -0.7787999999999999 201
-1.2891 -5.0508 -0.665 38
-10.0312 -39.2812 2.3555 217
-1.4306999999999999 -5.605499999999999 -0.46880000000000005 69
-8.9219 -34.9688 4.6367 128
-13.914100000000001 -54.5312 8.5703 107
-4.1562 -16.2812 -0.1957 17
-13.9219 -54.5312 9.9219 88
-1.3193000000000001 -5.0977 -0.9209 33
-1.2938999999999998 -5.0 -0.7812 177
-11.343800000000002 -43.8438 1.5791 23
-1.3086000000000002 -5.0547 -0.6659999999999999 70
-13.9922 -54.0625 3.2461 233
-1.4736000000000002 -5.6914 -0.47659999999999997 153
-8.6797 -33.5312 3.6367000000000003 8
-9.2578 -35.7812 4.7461 225
-13.8828 -53.625 8.4453 3
-4.2148 -16.2812 -0.19579999999999997 22
-13.8906 -53.6875 9.7734 150
-1.3271000000000002 -5.0469 -0.9126000000000001 186
-1.3174000000000001 -5.0078 -0.7831999999999999 223
-11.4922 -43.6875 1.5762 145
-14.0469 -53.375 3.2089999999999996 2
-3.7539 -14.2656 -1.2012 37
-8.9297 -33.9375 3.6836 253
-13.9375 -52.9688 7.0390999999999995 127
-13.898399999999999 -52.8125 8.3203 202
-4.2969 -16.3281 -0.19649999999999998 59
-13.8828 -52.75 9.6094 232
-1.3506 -5.0586 -0.9155 159
-9.7734 -36.5938 0.4421 169
-1.3291 -4.9766 -0.7787999999999999 177
-8.9219 -33.4375 1.2061 106
-1.3535 -5.0703 -0.6694 198
-9.0391 -33.875 2.0371 86
-3.793 -14.2031 -1.1973 1
-8.75 -32.7812 3.5605 192
-13.9219 -52.125 6.9375 190
-13.9453 -52.2188 8.2344 237
-4.375 -16.3906 -0.1974 192
-13.9453 -52.2188 9.5234 254
-1.3652000000000002 -5.0547 -0.9155 97
-14.0156 -51.875 0.6274000000000001 242
-1.3516 -5.0039 -0.7837000000000001 18
-9.0469 -33.5 1.21 40
-1.3847999999999998 -5.125 -0.6772 162
-9.0625 -33.5625 2.0195 139
-3.8418 -14.218800000000002 -1.1992 254
-8.8516 -32.7812 3.5625 141
-14.0781 -52.0938 6.9375 193
-14.101600000000001 -52.1875 8.2344 248
-10.2109 -37.8125 -0.457 190
-14.1172 -52.25 9.5312 195
-1.3691 -5.0039 -0.7842 135
-9.125 -33.3438 1.2051 38
-1.3955000000000002 -5.0977 -0.6743000000000001 40
-9.2578 -33.8125 2.0371 248
-10.3828 -37.9062 3.2089999999999996 188
-3.9023000000000003 -14.2578 -1.2031 50
-9.2812 -33.9062 3.6914 106
-9.8359 -35.9062 4.7852 81
-14.289100000000001 -52.1875 8.2422 213
-10.1953 -37.25 -0.4507 153
-14.2969 -52.2188 9.5391 51
-1.3916 -5.0078 -0.7856000000000001 182
-9.2344 -33.2188 1.2021 92
-1.4102000000000001 -5.0742 -0.6718999999999999 79
-10.625 -38.25 2.3066 91
-3.9629000000000003 -14.2578 -1.2051 42
-10.0312 -36.0938 4.8164 31
-14.460899999999999 -52.0625 8.2344 209
-10.406199999999998 -37.4375 -0.4536 133
-14.460899999999999 -52.0312 9.5156 249
-10.7969 -38.3438 0.46509999999999996 218
-1.415 -5.0234 -0.7896 54
-9.3516 -33.2188 1.2031 6
-1.4141 -5.0195 -0.6655 225
-9.6719 -34.3438 2.9101999999999997 66
-4.0156 -14.25 -1.2061 234
-10.0391 -35.6562 4.7578 15
-13.7969 -48.9688 7.75 30
-13.664100000000001 -48.5 -0.5884 8
-13.789100000000001 -48.9375 8.9609 120
-1.4180000000000001 -4.9727 -0.9043000000000001 246
-1.4316 -5.0195 -0.7896 243
-10.8906 -38.1875 1.3847999999999998 54
-1.4394999999999998 -5.0469 -0.6694 120
-10.7578 -37.7188 2.2793 57
-4.0625 -14.2422 -1.2061 25
-10.664100000000001 -37.375 4.082 60
-13.7422 -48.1875 6.4414 196
-13.781199999999998 -48.3125 7.6562 176
-13.8047 -48.4062 -0.5874 201
-13.7578 -48.25 8.8359 110
-1.4434 -4.9961 -0.9097 111
-1.4512 -5.0234 -0.7909999999999999 14
-9.7578 -33.7812 1.2266 63
-1.4727000000000001 -5.0977 -0.6772 182
-13.8594 -48.0 2.9043 199
-4.1172 -14.2578 -1.208 231
-13.773399999999999 -47.6875 6.3789 144
-13.781199999999998 -47.7188 7.5703 9
-13.789100000000001 -47.75 -0.5801 153
-13.7344 -47.5625 8.7188 97
-1.46 -4.9844 -0.9081999999999999 112
-1.4756 -5.0391 -0.7939 77
-10.976600000000001 -37.4688 2.2695 182
-4.0859 -13.9453 -1.5225 47
-4.1797 -14.273399999999999 -1.2109 53
-9.8125 -33.5 3.6641000000000004 173
-10.398399999999999 -35.4688 4.75 183
-13.7656 -46.9688 -0.5718 205
-13.7344 -46.875 8.6016 62
-1.5352000000000001 -5.171900000000001 -0.8164 236
-1.5830000000000002 -5.332000000000001 -0.71 18
-11.085899999999999 -37.3438 2.2637 75
-9.8516 -33.2188 2.8262 243
-4.2344 -14.2656 -1.2119 211
-11.2969 -38.0625 4.168 229
-10.5469 -35.5312 4.7617 117
-13.718800000000002 -46.2188 7.3438 135
-13.726600000000001 -46.25 -0.5635 160
-13.710899999999999 -46.2188 8.4922 68
-11.25 -37.4688 0.4568 54
-3.5762 -11.906199999999998 -1.8896000000000002 168
-10.1719 -33.875 2.0547 185
-4.2773 -14.2422 -1.2109 222
-10.0547 -33.5 3.6719 223
-13.726600000000001 -45.7188 6.1328 113
-13.718800000000002 -45.6875 7.269500000000001 113
-13.7344 -45.75 -0.5576 40
-13.6719 -45.5312 8.375 213
-3.0176 -9.9297 -1.8232 190
-3.623 -11.9297 -1.8944999999999999 160
-11.0703 -36.4375 1.3281 63
-10.5625 -34.75 2.1113 110
-4.2461 -13.976600000000001 -1.5303 30
-10.523399999999999 -34.6562 2.9531 207
-4.3398 -14.289100000000001 -1.2158 204
-10.2031 -33.5938 3.6855 165
-13.3828 -44.0312 5.9140999999999995 132
-13.3906 -44.0625 7.015599999999999 164
-13.75 -45.25 -0.5522 160
-13.3828 -44.0625 8.1094 109
-3.0645 -9.9531 -1.8281 24
-3.6660000000000004 -11.898399999999999 -1.8925999999999998 254
-11.1797 -36.2812 1.3241999999999998 204
-10.6953 -34.7188 2.1113 229
-4.3945 -14.273399999999999 -1.2158 252
-13.4531 -43.6875 4.8008 66
-13.4375 -43.625 5.8672 16
-4.8359 -15.7031 -0.5718 179
-13.4219 -43.5938 6.9453 108
-13.9453 -45.2812 -0.5532 137
-13.406199999999998 -43.5312 8.0234 37
-3.1016000000000004 -9.9453 -1.8291 219
-3.7129000000000003 -11.906199999999998 -1.8944999999999999 23
-13.4922 -43.25 1.5811000000000002 222
-13.5078 -43.3125 2.6367000000000003 10
-10.8594 -34.8438 2.9766000000000004 235
-13.4297 -43.0625 5.796900000000001 82
-13.7578 -44.125 -1.6122999999999998 229
-13.406199999999998 -43.0 6.859400000000001 46
-13.6172 -43.6562 -0.5342 91
-13.398399999999999 -42.9688 7.925800000000001 231
-3.1327999999999996 -9.9219 -1.8271000000000002 187
-2.918 -9.2422 -1.4707 113
-13.4844 -42.6875 1.5615 122
-2.9629000000000003 -9.375 -1.2598 56
-11.335899999999999 -35.875 2.1875 145
-10.9531 -34.6562 2.9668 148
-13.468800000000002 -42.625 4.6953 61
-13.414100000000001 -42.4688 5.7227 32
-13.710899999999999 -43.4062 -1.5878999999999999 105
-13.3906 -42.4062 6.7734000000000005 127
-13.6797 -43.3125 -0.5303 144
-13.3828 -42.375 7.828099999999999 63
-2.9043 -9.0781 -1.6738 56
-9.4062 -29.4219 0.3604 222
-2.9433999999999996 -9.2109 -1.4678 247
-13.4844 -42.1875 1.5449000000000002 138
-2.9043 -9.0859 -1.2217 102
-13.468800000000002 -42.125 2.5702999999999996 11
-11.0703 -34.625 2.9648000000000003 173
-4.5469 -14.226600000000001 -0.8662000000000001 141
-13.398399999999999 -41.9062 5.6562 174
-13.8125 -43.1875 -1.5819999999999999 154
-13.3906 -41.875 6.699199999999999 206
-13.8125 -43.2188 -0.5297999999999999 135
-13.375 -41.8438 7.738300000000001 22
-2.918 -9.0312 -1.666 20
-9.5234 -29.4531 0.3611 219
-2.9473000000000003 -9.1172 -1.4541 94
-13.460899999999999 -41.6562 1.5263999999999998 38
-2.9141000000000004 -9.0156 -1.2139 23
-13.476600000000001 -41.6875 2.5469 191
-11.0781 -34.2812 2.9395 230
-13.406199999999998 -41.4688 4.5781 237
-4.6016 -14.2344 -0.8676999999999999 230
-13.3672 -41.375 5.5859000000000005 56
-13.9375 -43.125 -1.5811000000000002 173
-13.3672 -41.375 6.6211 73
-13.968800000000002 -43.2188 -0.5303 41
-13.3125 -41.1875 7.625 87
-2.9414 -9.0 -1.6621000000000001 42
-9.6172 -29.4375 0.3611 81
-2.9629000000000003 -9.0703 -1.4482 88
-13.406199999999998 -41.0 1.5049000000000001 28
-2.9141000000000004 -8.9141 -1.2012 130
-13.3906 -40.9688 2.5039 143
-11.2656 -34.4688 2.957 41
-13.351600000000001 -40.8438 4.5117 127
-4.668 -14.273399999999999 -0.8711 71
-13.351600000000001 -40.8438 5.5234000000000005 36
-14.1094 -43.1875 -1.584 99
-13.3672 -40.9062 6.5547 3
-14.7969 -45.2812 -0.5562 73
-13.3828 -40.9375 7.5898 227
-2.9043 -8.7734 -1.6221 133
-13.4531 -40.625 1.4922 6
-2.9355 -8.8672 -1.1963 139
-13.476600000000001 -40.6875 2.4922 56
-13.5 -40.7812 3.5039 84
-13.5078 -40.8125 4.5117 20
-4.7422 -14.3281 -0.8755 222
-13.5156 -40.8125 5.5273 135
-13.539100000000001 -40.9062 6.5625 2
-13.601600000000001 -41.0938 -0.5054 151
-13.5469 -40.9062 7.5938 63
-2.9160000000000004 -8.7031 -1.6113 114
-2.9316000000000004 -8.75 -1.4003999999999999 131
-13.6094 -40.625 1.4941 140
-2.9551 -8.8203 -1.1914 7
-13.6328 -40.6875 2.4941 41
-13.648399999999999 -40.75 3.5058999999999996 243
-13.625 -40.6875 4.5039 77
-13.593800000000002 -40.5625 -2.4863 171
-13.5703 -40.5 5.4922 113
-13.6328 -40.6875 -1.4961000000000002 140
-13.5781 -40.5312 6.511699999999999 9
-13.601600000000001 -40.5938 -0.49979999999999997 88
-13.6406 -40.7188 7.5625 61
-2.9414 -8.6875 -1.6094 58
-2.9531 -8.7188 -1.3975 97
-13.7578 -40.625 1.4961000000000002 185
-13.7344 -40.5625 2.4883 60
-13.6172 -40.2188 3.4648000000000003 56
-12.085899999999999 -35.6875 3.957 107
-13.5469 -40.0 -2.4551 80
-13.664100000000001 -40.3438 -1.4853999999999998 168
-13.5625 -40.0312 6.4375 60
-13.664100000000001 -40.3438 -0.49729999999999996 185
-2.9707 -8.6797 -1.6103999999999998 19
-12.0078 -35.0625 2.1543 79
-13.601600000000001 -39.7188 3.4257999999999997 247
-13.523399999999999 -39.5 -2.4277 106
-13.8125 -40.3438 -1.4872999999999998 67
-13.539100000000001 -39.5312 6.3672 92
-13.8125 -40.3438 -0.4978 205
-13.5078 -39.4688 7.3477 210
-3.0117000000000003 -8.6875 -1.6133000000000002 246
-12.6719 -36.5625 0.4514 47
-13.5703 -39.125 1.4443000000000001 204
-12.1172 -34.9375 2.1504 154
-13.6094 -39.25 3.3887 152
-3.1172000000000004 -8.9922 -0.7734000000000001 211
-13.5781 -39.1562 4.3516 198
-13.5547 -39.0938 -2.4062 20
-13.5547 -39.125 5.3203 37
-13.5703 -39.1562 -1.4453 228
-13.5469 -39.0625 6.300800000000001 180
-13.5547 -39.0938 -0.4832 61
-13.4922 -38.9375 7.2578 56
-3.0507999999999997 -8.7031 -1.6181999999999999 229
-12.7969 -36.5 0.4514 65
-13.5547 -38.6562 1.4287 184
-13.601600000000001 -38.8125 2.3906 235
-13.585899999999999 -38.75 3.3516000000000004 188
-3.5449 -10.1094 -0.8715999999999999 126
-13.523399999999999 -38.5938 4.293 176
-13.5469 -38.6562 -2.3809 14
-13.5547 -38.6562 5.261699999999999 114
-13.5625 -38.6875 -1.4297 221
-13.523399999999999 -38.5625 6.2265999999999995 34
-13.5547 -38.6562 -0.4783 250
-13.523399999999999 -38.5938 7.203099999999999 8
-3.0742000000000003 -8.6719 -1.6152000000000002 216
-12.875 -36.3438 0.45 46
-13.539100000000001 -38.1875 1.4131 11
-13.6328 -38.5 2.373 196
-13.5625 -38.2812 3.3125 122
-3.5645 -10.0625 -0.8682 231
-13.5078 -38.125 4.2461 145
-13.523399999999999 -38.1875 -2.3535 17
-13.593800000000002 -38.3438 -1.4188999999999998 62
-13.5156 -38.125 6.1640999999999995 179
-13.5781 -38.3125 -0.4744 250
-13.468800000000002 -38.0 7.1015999999999995 46
-3.125 -8.7266 -1.6269999999999998 167
-12.9922 -36.2812 0.45 122
-13.539100000000001 -37.8125 1.4003999999999999 26
-13.726600000000001 -38.3438 2.3672 12
-13.539100000000001 -37.8125 3.2773000000000003 228
-3.6191000000000004 -10.1094 -0.8734999999999999 85
-13.5 -37.7188 4.2031 86
-13.5156 -37.75 -2.3301 213
-13.5 -37.7188 6.1015999999999995 85
-13.4453 -37.5312 7.0234000000000005 186
-3.5547000000000004 -9.8125 -1.8330000000000002 27
-13.1094 -36.1875 0.44920000000000004 143
-2.9492000000000003 -8.1328 -1.3135 247
-13.539100000000001 -37.375 1.3857 170
-13.5547 -37.4062 3.2461 25
-3.6543 -10.0859 -0.8726 53
-13.4922 -37.2188 4.1562 169
-13.5156 -37.3125 -2.3066 163
-13.5 -37.25 5.0938 223
-13.4453 -37.0938 6.949199999999999 170
-3.5858999999999996 -9.7891 -1.8311000000000002 9
-13.2422 -36.125 0.44920000000000004 67
-13.5156 -36.875 1.3700999999999999 11
-13.5547 -37.0 2.291 163
-13.539100000000001 -36.9688 3.2129000000000003 150
-3.6816000000000004 -10.0469 -0.8706 59
-13.468800000000002 -36.7812 4.1133 175
-13.5078 -36.875 -2.2812 213
-13.5703 -37.0312 5.0703 56
-13.5078 -36.875 -1.3691 81
-13.5 -36.8438 -0.45799999999999996 118
-9.2188 -25.1562 4.7188 9
-3.2168 -8.6875 -1.6269999999999998 56
-13.351600000000001 -36.0625 0.4487 144
-13.4844 -36.4375 1.3544999999999998 225
-13.531199999999998 -36.5625 2.2656 213
-13.5 -36.4688 3.1738 242
-3.7207 -10.0547 -0.8721 168
-13.4531 -36.3438 4.0703 165
-13.5 -36.4688 -2.2598 15
-9.2891 -25.1094 3.4375 212
-13.4844 -36.4375 -1.3555000000000001 107
-13.4844 -36.4375 -0.4534 222
-13.4531 -36.3438 6.828099999999999 143
-3.2245999999999997 -8.625 -1.6162 10
-13.476600000000001 -36.0625 0.44920000000000004 124
-13.4922 -36.0938 1.3437999999999999 222
-13.5156 -36.1562 2.2441 18
-13.5 -36.0938 3.1445 59
-13.476600000000001 -36.0312 4.0391 31
-13.476600000000001 -36.0312 -2.2363 61
-13.5078 -36.125 4.9531 183
-13.476600000000001 -36.0625 -1.3418 21
-13.4375 -35.9375 5.8438 180
-13.4531 -36.0 -0.4485 90
-13.4375 -35.9375 6.761699999999999 240
-3.2031 -8.4766 -1.5897999999999999 221
-13.5078 -35.7188 0.4456 52
-13.476600000000001 -35.6562 1.3291 162
-13.5156 -35.75 2.2207 205
-13.5 -35.7188 3.1151999999999997 246
-13.523399999999999 -35.75 4.0156 247
-13.523399999999999 -35.7812 -2.2227 93
-9.4609 -25.0156 3.4355 129
-13.4844 -35.6562 -1.3291 237
-13.539100000000001 -35.8125 5.832000000000001 9
-13.460899999999999 -35.625 -0.4443 122
-13.5156 -35.75 6.734400000000001 251
-3.1973000000000003 -8.3672 -1.5722999999999998 140
-9.5312 -24.9375 0.31129999999999997 6
-13.5625 -35.5 1.3252000000000002 175
-13.601600000000001 -35.5938 2.2148 214
-13.625 -35.6562 3.1151999999999997 121
-9.5469 -24.9844 3.4336 229
-13.5469 -35.4375 -1.3232 231
-13.6797 -35.8125 5.8359000000000005 83
-13.5547 -35.4688 -0.44310000000000005 213
-13.460899999999999 -35.25 6.644500000000001 224
-9.6484 -25.0 0.3125 189
-9.6328 -24.9688 1.5537 161
-2.9276999999999997 -7.5859000000000005 -0.8501000000000001 215
-9.6406 -24.9688 2.1836 85
-9.6406 -24.9844 2.8086 88
-9.6328 -24.9531 3.4355 49
-13.6953 -35.5 -1.3262 197
-9.7109 -25.1562 4.1055 131
-9.5781 -24.8281 -0.3103 217
-13.476600000000001 -34.9062 6.5938 25
-2.9824 -7.6562 -1.4413999999999998 98
-9.6953 -24.875 0.31129999999999997 236
-9.6797 -24.8281 0.9292 238
-9.7031 -24.9062 1.5527000000000002 61
-9.7188 -24.9375 2.1836 143
-9.6953 -24.875 2.8026999999999997 136
-9.7266 -24.9688 3.4414 139
-9.6797 -24.8281 -0.9292 25
-13.9531 -35.8125 5.8515999999999995 82
-9.6484 -24.75 -0.3098 131
-13.4453 -34.5 6.519500000000001 28
-14.0469 -35.6562 2.2266 206
-14.0547 -35.6562 3.127 199
-9.8438 -24.9844 3.4492000000000003 227
-14.031199999999998 -35.5938 5.828099999999999 72
-13.976600000000001 -35.4688 -0.4451 170
-13.4531 -34.125 6.4609000000000005 81
-2.9608999999999996 -7.4336 -1.4033000000000002 215
-14.093800000000002 -35.4062 2.2148 166
-14.0703 -35.3438 3.1035000000000004 186
-3.0254000000000003 -7.6015999999999995 -0.6646 240
-9.9531 -25.0 3.4551 58
-14.039100000000001 -35.25 -0.4429 1
-13.4531 -33.7812 6.4023 4
-13.539100000000001 -33.6875 1.2656 115
-14.0703 -35.0 2.1914 103
-14.039100000000001 -34.9375 3.0723000000000003 175
-3.0117000000000003 -7.4961 -0.6562 120
-13.5156 -33.625 3.8047000000000004 187
-10.0547 -25.0156 4.1055 172
-14.023399999999999 -34.9062 -0.439 226
-10.0703 -25.0469 4.75 209
-14.0625 -34.6562 0.4363 228
-13.5156 -33.3125 1.2539 183
-14.1328 -34.8125 2.1836 119
-14.039100000000001 -34.5938 3.0449 130
-13.476600000000001 -33.2188 3.7617000000000003 220
-10.1406 -24.9844 3.4629000000000003 0
-14.0703 -34.6562 -0.4365 17
-13.343800000000002 -32.875 6.25 124
-2.9688 -7.234400000000001 -1.3721 40
