# .PCD v0.7 - Point Cloud Data file format
VERSION 0.7
FIELDS x y z intensity
SIZE 4 4 4 4
TYPE F F F F
COUNT 1 1 1 1
WIDTH 1223
HEIGHT 1
VIEWPOINT 0 0 0 1 0 0 0
POINTS 1223
DATA ascii
-6.5078 -4.4102 -0.6386999999999999 188
-12.6328 -8.5547 1.5986000000000002 230
-12.718800000000002 -8.6172 -0.8911 164
-12.6875 -8.5938 1.9658000000000002 72
-12.9219 -8.7578 -0.5435 118
-12.601600000000001 -8.5391 2.3145 96
-12.914100000000001 -8.75 -0.1815 236
-12.9922 -8.8047 2.7598000000000003 137
-12.835899999999999 -8.6328 0.17989999999999998 18
-12.9922 -8.7344 0.5449 125
-6.269500000000001 -4.2148 -0.9662999999999999 19
-13.023399999999999 -8.7578 0.9106000000000001 184
-12.710899999999999 -8.5469 1.2470999999999999 12
-12.648399999999999 -8.5078 1.5977000000000001 31
-12.710899999999999 -8.5469 -0.8887 44
-12.6875 -8.5312 1.9609 177
-12.789100000000001 -8.6016 -0.5361 11
-12.593800000000002 -8.4688 2.3066 188
-12.8672 -8.6484 -0.1804 2
-12.9922 -8.7344 2.752 203
-12.968800000000002 -8.6562 0.1814 142
-13.0078 -8.6797 0.5444 125
-6.2578 -4.1758 -0.9623999999999999 219
-13.023399999999999 -8.6953 0.9081999999999999 37
-12.718800000000002 -8.4922 1.2451 71
-6.363300000000001 -4.2461 -0.6211 162
-12.6406 -8.4375 1.5928 142
-12.718800000000002 -8.4922 -0.8872 117
-12.6953 -8.4766 1.9580000000000002 138
-12.906199999999998 -8.6172 -0.54 174
-12.585899999999999 -8.3984 2.3008 194
-12.906199999999998 -8.6094 -0.1805 50
-13.0 -8.6719 2.748 183
-12.8203 -8.4922 0.179 161
-12.9531 -8.5781 0.5405 60
-6.2578 -4.1445 -0.96 37
-13.023399999999999 -8.625 0.9062 38
-12.710899999999999 -8.4219 1.2422 231
-12.601600000000001 -8.3438 1.584 116
-12.718800000000002 -8.4219 -0.8848 101
-12.6875 -8.4062 1.9531 135
-12.851600000000001 -8.5156 -0.5366 77
-12.585899999999999 -8.3359 2.2969 114
-12.7422 -8.4375 -0.1779 56
-12.9922 -8.6094 2.7401999999999997 8
-12.9297 -8.5 0.1801 109
-13.0156 -8.5547 0.542 107
-6.261699999999999 -4.1172 -0.9584999999999999 247
-13.023399999999999 -8.5625 0.9043000000000001 189
-6.300800000000001 -4.1406 -0.7881 94
-12.718800000000002 -8.3594 1.2393 99
-12.664100000000001 -8.3281 1.5888999999999998 113
-12.726600000000001 -8.3672 -0.8833 89
-12.664100000000001 -8.3281 1.9443000000000001 138
-12.9219 -8.4922 -0.5381 1
-12.6406 -8.3047 2.3008 198
-12.9297 -8.5 -0.1801 74
-12.976600000000001 -8.5312 2.7305 162
-12.960899999999999 -8.4531 0.1801 155
-12.9844 -8.4688 0.5396 99
-6.261699999999999 -4.0859 -0.9561 140
-13.0078 -8.4844 0.9009 74
-6.265599999999999 -4.0898 -0.7817000000000001 242
-12.6953 -8.2812 1.2344 180
-6.3359000000000005 -4.1328 -0.6143 119
-12.664100000000001 -8.2578 1.584 64
-6.4102 -4.1797 -0.4426 51
-12.648399999999999 -8.25 1.9375 52
-12.8906 -8.4141 -0.5356000000000001 30
-12.6797 -8.2734 2.3027 9
-12.7344 -8.3047 -0.1769 111
-12.968800000000002 -8.4609 2.7226999999999997 95
-12.8906 -8.3516 0.1787 15
-3.7382999999999997 -2.4219 -0.6729 144
-13.0 -8.4219 0.5390999999999999 248
-6.261699999999999 -4.0547 -0.9541 120
-13.0078 -8.4219 0.8989 186
-6.265599999999999 -4.0586 -0.7798 199
-12.6953 -8.2266 1.2324 11
-6.3359000000000005 -4.1055 -0.6133 58
-12.6797 -8.2109 1.584 107
-6.4140999999999995 -4.1523 -0.44189999999999996 161
-12.648399999999999 -8.1953 1.9325999999999999 49
-12.7344 -8.25 -0.5278 91
-12.6797 -8.2109 2.2969 150
-12.906199999999998 -8.3594 -0.179 149
-12.843800000000002 -8.3125 2.6895 187
-12.960899999999999 -8.3281 0.17920000000000003 68
-3.7461 -2.4082 -0.6729 63
-12.9922 -8.3516 0.5376 244
-6.2422 -4.0117 -0.9487000000000001 93
-13.0078 -8.3594 0.897 55
-6.269500000000001 -4.0312 -0.7787999999999999 61
-12.7031 -8.1641 1.2295 21
-6.3125 -4.0586 -0.6093999999999999 62
-12.656199999999998 -8.1406 1.5771000000000002 252
-6.4140999999999995 -4.125 -0.4412 251
-12.6406 -8.125 1.9277000000000002 2
-6.5625 -4.2188 -0.2705 206
-12.6875 -8.1562 2.293 8
-12.914100000000001 -8.3047 -0.17859999999999998 79
-12.6953 -8.1641 2.6543 28
-12.8828 -8.2188 0.1777 154
-12.9453 -8.2578 0.5342 174
-6.230499999999999 -3.9745999999999997 -0.9453 59
-12.8594 -8.2031 0.8848 125
-6.2734000000000005 -4.0 -0.7773 69
-12.710899999999999 -8.1094 1.2275 91
-6.3125 -4.0273 -0.6079 36
-12.664100000000001 -8.0781 1.5741999999999998 150
-6.386699999999999 -4.0742 -0.43799999999999994 89
-12.6406 -8.0625 1.9228999999999998 123
-6.5547 -4.1797 -0.2695 109
-12.6719 -8.0859 2.2852 52
-12.8672 -8.2031 -0.1776 206
-12.6797 -8.0859 2.6445 107
-12.7969 -8.0938 0.1761 46
-3.7637 -2.3828 -0.6729 3
-12.773399999999999 -8.0859 0.5264 119
-6.230499999999999 -3.9433999999999996 -0.9429000000000001 154
-12.710899999999999 -8.0469 0.8726 221
-6.2539 -3.9589999999999996 -0.7734000000000001 98
-12.7031 -8.0391 1.2246 233
-6.324199999999999 -4.0 -0.6074 36
-12.710899999999999 -8.0469 1.5762 85
-6.3789 -4.0391 -0.4365 123
-12.6172 -7.984400000000001 1.915 84
-6.546900000000001 -4.1445 -0.2688 111
-12.523399999999999 -7.9297 2.2539 200
-12.726600000000001 -8.0547 -0.1752 99
-12.085899999999999 -7.6484000000000005 2.5156 196
-12.710899999999999 -7.984400000000001 0.1747 142
-12.718800000000002 -7.988300000000001 0.5225 36
-6.2265999999999995 -3.9101999999999997 -0.9399 55
-12.7031 -7.9765999999999995 0.8701000000000001 148
-6.261699999999999 -3.9316000000000004 -0.7725 114
-12.6953 -7.9727 1.2207 146
-6.3125 -3.9648000000000003 -0.6054999999999999 12
-12.601600000000001 -7.9102 1.5586000000000002 242
-6.3828 -4.0078 -0.43579999999999997 208
-12.0781 -7.5859000000000005 1.8291 143
-6.5234000000000005 -4.0977 -0.2671 155
-12.093800000000002 -7.5977 2.1719 232
-12.7031 -7.9765999999999995 -0.1744 86
-12.101600000000001 -7.5977 2.5117 160
-12.7344 -7.9336 0.1746 62
-12.7031 -7.917999999999999 0.521 100
-6.2227 -3.8789 -0.938 243
-12.710899999999999 -7.917999999999999 0.8687 186
-6.2578 -3.8983999999999996 -0.77 108
-12.1328 -7.5625 1.1641 49
-6.3125 -3.9336 -0.604 145
-6.386699999999999 -3.9785000000000004 -0.4351 191
-11.9922 -7.4727 1.8115 180
-6.519500000000001 -4.0625 -0.2666 52
-12.6875 -7.9062 2.2734 143
-12.7031 -7.9140999999999995 -0.1741 163
-12.6875 -7.9102 2.6289 85
-12.7344 -7.875 0.17420000000000002 216
-12.6953 -7.8515999999999995 0.5195000000000001 250
-6.207000000000001 -3.8398000000000003 -0.9336 180
-12.6953 -7.8515999999999995 0.8656999999999999 140
-6.2578 -3.8711 -0.769 42
-12.6875 -7.8477 1.2148 8
-6.296900000000001 -3.8926 -0.6011 61
-12.656199999999998 -7.824199999999999 1.5586000000000002 165
-6.3789 -3.9433999999999996 -0.4336 71
-11.9375 -7.3828 1.8008000000000002 110
-6.515599999999999 -4.0273 -0.2656 151
-12.6797 -7.8398 2.2656 31
-12.6875 -7.8438 -0.17350000000000002 29
-12.6875 -7.8438 2.623 80
-12.7344 -7.8125 0.17379999999999998 172
-12.6953 -7.7890999999999995 0.5181 163
-6.207000000000001 -3.8086 -0.9316 63
-12.710899999999999 -7.796900000000001 0.8647 194
-6.25 -3.8358999999999996 -0.7661 99
-12.6953 -7.792999999999999 1.2129 244
-6.3086 -3.8711 -0.6011 128
-12.6797 -7.7812 1.5586000000000002 248
-6.3711 -3.9101999999999997 -0.4324 36
-11.9453 -7.328099999999999 1.7969 131
-6.5078 -3.9922000000000004 -0.2646 86
-12.6719 -7.7734000000000005 2.2598 30
-12.6875 -7.7812 -0.17309999999999998 181
-12.6797 -7.7773 2.6151999999999997 81
-12.6953 -7.7265999999999995 0.1729 214
-12.7031 -7.730499999999999 0.5176 180
-6.199199999999999 -3.7733999999999996 -0.9281999999999999 23
-12.6953 -7.730499999999999 0.8623000000000001 33
-6.25 -3.8047000000000004 -0.7642 148
-12.7031 -7.730499999999999 1.2109 66
-6.296900000000001 -3.8339999999999996 -0.5986 32
-12.6719 -7.7148 1.5547 166
-6.375 -3.8789 -0.4314 107
-11.9375 -7.265599999999999 1.7919999999999998 44
-6.511699999999999 -3.9648000000000003 -0.2644 11
-12.601600000000001 -7.671900000000001 2.2441 201
-12.6797 -7.7188 -0.1726 130
-12.531199999999998 -7.6289 2.5801 93
-12.6875 -7.6640999999999995 0.1725 163
-12.6953 -7.667999999999999 0.5161 96
-6.203099999999999 -3.7461 -0.9268000000000001 164
-12.6953 -7.667999999999999 0.8604 137
-6.230499999999999 -3.7637 -0.7606999999999999 179
-12.664100000000001 -7.6523 1.2051 25
-6.3047 -3.8086 -0.5981000000000001 135
-12.5547 -7.582000000000001 1.5371000000000001 163
-11.9297 -7.203099999999999 1.7871000000000001 43
-6.484400000000001 -3.918 -0.2627 201
-12.601600000000001 -7.609400000000001 2.2383 77
-12.6797 -7.6562 -0.1724 48
-12.601600000000001 -7.613300000000001 2.5879000000000003 120
-12.7031 -7.613300000000001 0.1722 148
-12.6953 -7.605499999999999 0.5151 142
-6.207000000000001 -3.7188 -0.9253 162
-12.6953 -7.605499999999999 0.8584 251
-6.2422 -3.7401999999999997 -0.7603 190
-12.648399999999999 -7.578099999999999 1.2002 130
-6.2890999999999995 -3.7695 -0.5952000000000001 106
-12.593800000000002 -7.546900000000001 1.5391 236
-11.9453 -7.1562 1.7852000000000001 90
-6.480499999999999 -3.8827999999999996 -0.262 28
-12.5625 -7.5234000000000005 2.2266 54
-12.6875 -7.6015999999999995 -0.172 220
-12.6797 -7.5977 2.5976999999999997 149
-12.7031 -7.550800000000001 0.17190000000000003 159
-12.6875 -7.542999999999999 0.5136999999999999 101
-6.1953 -3.6816000000000004 -0.9214 185
-12.7031 -7.550800000000001 0.8569 158
-6.238300000000001 -3.7089999999999996 -0.7583 145
-12.6875 -7.542999999999999 1.2021 64
-6.2890999999999995 -3.7382999999999997 -0.5938 87
-12.656199999999998 -7.5234000000000005 1.5430000000000001 70
-11.9453 -7.1015999999999995 1.7822 191
-6.4688 -3.8457 -0.261 185
-12.1328 -7.2109000000000005 2.1465 33
-12.6719 -7.5352 -0.17149999999999999 0
-12.164100000000001 -7.230499999999999 2.4883 251
-12.726600000000001 -7.5078 0.17190000000000003 136
-12.6797 -7.480499999999999 0.5122 135
-6.1875 -3.6504000000000003 -0.9189 139
-12.6953 -7.488300000000001 0.855 155
-6.238300000000001 -3.6816000000000004 -0.7568 45
-12.6875 -7.488300000000001 1.2002 187
-6.2852 -3.7089999999999996 -0.5922999999999999 119
-12.664100000000001 -7.4727 1.541 107
-11.9297 -7.0352 1.7753999999999999 34
-6.4609000000000005 -3.8125 -0.26030000000000003 72
-12.1172 -7.1484000000000005 2.1387 222
-12.6719 -7.4765999999999995 -0.1711 209
-12.148399999999999 -7.167999999999999 2.4805 241
-12.7031 -7.4414 0.17129999999999998 238
-12.6953 -7.4297 0.5117 227
-6.1797 -3.6191000000000004 -0.9159999999999999 224
-12.6797 -7.425800000000001 0.8525 176
-6.234400000000001 -3.6504000000000003 -0.7548999999999999 121
-12.6953 -7.4336 1.1982 56
-6.300800000000001 -3.6895 -0.5928 88
-12.6719 -7.417999999999999 1.5381 188
-11.898399999999999 -6.9688 1.7686000000000002 251
-6.4609000000000005 -3.7832 -0.2595 103
-12.1172 -7.0938 2.1348 238
-12.664100000000001 -7.417999999999999 -0.17079999999999998 26
-12.1406 -7.109400000000001 2.4746 22
-12.6953 -7.3711 0.17079999999999998 93
-12.6953 -7.3711 0.5107 209
-6.1914 -3.5938 -0.9155 212
-12.6875 -7.3672 0.8511 75
-6.230499999999999 -3.6172000000000004 -0.7524 109
-12.6797 -7.359400000000001 1.1934 170
-6.300800000000001 -3.6582 -0.5913 104
-12.6719 -7.355499999999999 1.5352000000000001 233
-11.914100000000001 -6.9140999999999995 1.7666 78
-6.4609000000000005 -3.75 -0.259 146
-12.1172 -7.0390999999999995 2.1309 46
-12.664100000000001 -7.3515999999999995 -0.1704 158
-12.148399999999999 -7.050800000000001 2.4688 11
-12.6875 -7.3086 0.1704 162
-4.0312 -2.3223 -0.7031000000000001 49
-12.6797 -7.3047 0.5093 31
-6.1914 -3.5664 -0.9140999999999999 121
-12.6875 -7.3086 0.8491 97
-6.234400000000001 -3.5918 -0.752 204
-12.6875 -7.3047 1.1924 121
-6.300800000000001 -3.6289 -0.5903 100
-12.5625 -7.234400000000001 1.5194999999999999 209
-11.914100000000001 -6.863300000000001 1.7637 79
-6.453099999999999 -3.7168 -0.2583 64
-12.1094 -6.9727 2.125 74
-12.6719 -7.296900000000001 -0.17 6
-12.156199999999998 -7.0 2.4668 140
-12.6875 -7.2461 0.1699 60
-4.0391 -2.3086 -0.7031000000000001 36
-12.6797 -7.2422 0.5078 53
-6.1797 -3.5312 -0.9102 147
-12.6875 -7.25 0.8477 167
-6.234400000000001 -3.5605 -0.75 234
-12.6719 -7.238300000000001 1.1885 1
-6.292999999999999 -3.5938 -0.5884 194
-12.289100000000001 -7.019500000000001 1.4824000000000002 57
-11.9219 -6.8125 1.7607 244
-6.453099999999999 -3.6875 -0.25780000000000003 166
-12.093800000000002 -6.9062 2.1172 214
-12.656199999999998 -7.230499999999999 -0.1696 231
-12.156199999999998 -6.9453 2.4609 91
-12.6953 -7.1953 0.1698 11
-4.1094 -2.3281 -0.7139 75
-12.6719 -7.1797 0.5068 130
-6.1797 -3.502 -0.9081999999999999 235
-12.6797 -7.1875 0.8452 251
-6.238300000000001 -3.5370999999999997 -0.7490000000000001 244
-12.6875 -7.1914 1.1875 23
-6.292999999999999 -3.5664 -0.5874 231
-12.281199999999998 -6.9609000000000005 1.4794999999999998 197
-11.9297 -6.7578 1.7578 168
-6.4453 -3.6523000000000003 -0.2568 45
-12.093800000000002 -6.855499999999999 2.1133 186
-12.648399999999999 -7.167999999999999 -0.16920000000000002 72
-12.156199999999998 -6.886699999999999 2.4551 215
-12.7031 -7.140599999999999 0.1696 135
-12.6875 -7.1289 0.5063 201
-6.1875 -3.4785000000000004 -0.9077 219
-12.6719 -7.125 0.8432999999999999 6
-6.230499999999999 -3.502 -0.7465999999999999 135
-12.6797 -7.125 1.1845999999999999 37
-6.300800000000001 -3.5410000000000004 -0.5864 115
-12.289100000000001 -6.9062 1.4775 111
-11.914100000000001 -6.6953 1.7519999999999998 70
-6.4453 -3.623 -0.2563 116
-12.101600000000001 -6.800800000000001 2.1094 205
-12.6406 -7.105499999999999 -0.16870000000000002 200
-12.1328 -6.8203 2.4473 36
-12.6875 -7.074199999999999 0.1689 175
-12.6875 -7.074199999999999 0.5054 72
-6.199199999999999 -3.4551 -0.9072 77
-12.6719 -7.0625 0.8412999999999999 242
-6.2227 -3.4688 -0.7441 85
-12.656199999999998 -7.0586 1.1797 21
-6.296900000000001 -3.5098000000000003 -0.585 154
-12.273399999999999 -6.8438 1.4727000000000001 233
-11.898399999999999 -6.636699999999999 1.7471 156
-6.4414 -3.5898000000000003 -0.2556 49
-12.101600000000001 -6.7461 2.1055 61
-12.648399999999999 -7.050800000000001 -0.1685 89
-12.1406 -6.765599999999999 2.4434 247
-12.7031 -7.0234000000000005 0.16879999999999998 177
-12.6797 -7.0078 0.5039 201
-6.1953 -3.4257999999999997 -0.9048 231
-12.6797 -7.0078 0.8403 102
-6.2227 -3.4414 -0.7426999999999999 81
-12.664100000000001 -7.0 1.1777 17
-6.2890999999999995 -3.4785000000000004 -0.5835 95
-12.289100000000001 -6.796900000000001 1.4716999999999998 95
-11.906199999999998 -6.582000000000001 1.7450999999999999 94
-6.4336 -3.5566000000000004 -0.25489999999999996 168
-12.085899999999999 -6.6836 2.0996 37
-12.664100000000001 -7.0039 -0.16829999999999998 12
-12.148399999999999 -6.7148 2.4395 39
-12.6953 -6.9609000000000005 0.1685 213
-12.664100000000001 -6.9453 0.5024000000000001 55
-6.1953 -3.3983999999999996 -0.9033 94
-12.6797 -6.953099999999999 0.8384 239
-6.2265999999999995 -3.4141000000000004 -0.7417 72
-12.523399999999999 -6.8672 1.1631 254
-6.2852 -3.4473000000000003 -0.5820000000000001 110
-12.3047 -6.7461 1.4707 141
-11.898399999999999 -6.5234000000000005 1.7402000000000002 167
-6.449199999999999 -3.5351999999999997 -0.25489999999999996 14
-12.0781 -6.625 2.0938 218
-12.648399999999999 -6.9375 -0.1678 146
-12.1406 -6.6562 2.4336 1
-12.6953 -6.9102 0.16820000000000002 180
-12.6719 -6.894500000000001 0.502 209
-6.1875 -3.3651999999999997 -0.9004000000000001 78
-12.664100000000001 -6.890599999999999 0.8359000000000001 210
-6.230499999999999 -3.3906 -0.7406999999999999 104
-12.406199999999998 -6.75 1.1504 7
-6.2852 -3.4199 -0.5806 137
-12.2969 -6.6914 1.4668 35
-11.914100000000001 -6.484400000000001 1.7393 95
-6.453099999999999 -3.5117000000000003 -0.25489999999999996 92
-12.0703 -6.5664 2.0898 215
-12.6406 -6.8789 -0.1674 184
-12.148399999999999 -6.609400000000001 2.4297 87
-12.6094 -6.8086 0.16670000000000001 98
-12.5 -6.7461 0.4941 76
-6.1914 -3.3418 -0.8994 138
-12.476600000000001 -6.738300000000001 0.8223 131
-6.238300000000001 -3.3672000000000004 -0.7402 237
-12.4297 -6.7109000000000005 1.1504 110
-6.300800000000001 -3.4023000000000003 -0.5815 53
-12.3281 -6.6562 1.4678 112
-11.906199999999998 -6.425800000000001 1.7344 14
-6.4688 -3.4901999999999997 -0.25489999999999996 1
-12.101600000000001 -6.5312 2.0898 225
-12.4375 -6.7109000000000005 -0.1643 111
-12.1719 -6.5703 2.4316 244
-12.468800000000002 -6.671900000000001 0.1646 6
-12.476600000000001 -6.675800000000001 0.4924 61
-6.1914 -3.3125 -0.8979 2
-12.468800000000002 -6.671900000000001 0.8198000000000001 224
-6.238300000000001 -3.3379000000000003 -0.7393000000000001 223
-12.4297 -6.6523 1.1475 108
-6.300800000000001 -3.3711 -0.5801 190
-12.3594 -6.613300000000001 1.4687999999999999 100
-11.8828 -6.355499999999999 1.7275 43
-12.1797 -6.515599999999999 2.0996 219
-12.4297 -6.6523 -0.16390000000000002 156
-12.2031 -6.5273 2.4316 210
-3.9766000000000004 -2.1094 -0.7861 94
-12.5 -6.6328 0.1646 152
-6.1797 -3.2793 -1.0605 217
-12.468800000000002 -6.613300000000001 0.491 163
-6.203099999999999 -3.2910000000000004 -0.8979 175
-12.476600000000001 -6.6211 0.8193 197
-6.238300000000001 -3.3105 -0.7378 60
-12.4453 -6.6015999999999995 1.1465 134
-6.300800000000001 -3.3438 -0.5791 108
-12.375 -6.5664 1.4678 225
-6.4765999999999995 -3.4375 -0.4241 111
-11.8828 -6.3047 1.7246000000000001 190
-12.1719 -6.457000000000001 2.0938 124
-12.4453 -6.605499999999999 -0.16390000000000002 96
-12.210899999999999 -6.480499999999999 2.4297 171
-3.9961 -2.1035 -0.7890999999999999 187
-12.5078 -6.582000000000001 0.16440000000000002 80
-6.1914 -3.2577999999999996 -1.0605 113
-12.468800000000002 -6.5586 0.4902 182
-6.1914 -3.2558999999999996 -0.894 247
-12.523399999999999 -6.5859000000000005 0.8203 70
-6.238300000000001 -3.2812 -0.7363 30
-12.4531 -6.550800000000001 1.1455 14
-6.3438 -3.3379000000000003 -0.5820000000000001 213
-12.375 -6.5078 1.4647999999999999 51
-6.488300000000001 -3.4141000000000004 -0.4241 152
-11.8828 -6.2539 1.7216999999999998 129
-12.164100000000001 -6.3984000000000005 2.0879 37
-12.460899999999999 -6.5547 -0.1638 115
-12.210899999999999 -6.425800000000001 2.4258 252
-4.0234 -2.0977 -0.7925 120
-12.5469 -6.546900000000001 0.1646 206
-6.203099999999999 -3.2363 -1.0605 126
-12.5078 -6.5273 0.491 166
-6.1797 -3.2245999999999997 -0.8911 249
-12.5469 -6.542999999999999 0.8203 53
-6.2422 -3.2558999999999996 -0.7354 182
-12.4922 -6.515599999999999 1.1475 75
-6.3203 -3.2969 -0.5786 41
-12.398399999999999 -6.4648 1.4647999999999999 3
-11.875 -6.1953 1.7178 109
-12.164100000000001 -6.3477 2.0859 109
-12.468800000000002 -6.5039 -0.1636 175
-12.2031 -6.363300000000001 2.418 245
-4.0625 -2.1035 -0.7993000000000001 79
-12.5703 -6.5078 0.1646 101
-6.199199999999999 -3.2089999999999996 -1.0576 147
-12.5625 -6.5039 0.49219999999999997 223
-6.1836 -3.2012 -0.8901 232
-12.6094 -6.5273 0.8231999999999999 213
-6.2227 -3.2207 -0.7319 74
-12.531199999999998 -6.488300000000001 1.1494 246
-12.398399999999999 -6.417999999999999 1.4619 240
-11.8672 -6.140599999999999 1.7128999999999999 27
-12.1719 -6.300800000000001 2.084 105
-12.523399999999999 -6.484400000000001 -0.1641 51
-12.1875 -6.3086 2.4121 70
-4.1875 -2.1504 -0.8228 202
-12.6406 -6.4922 0.1653 17
-6.199199999999999 -3.1836 -1.0556999999999999 47
-12.648399999999999 -6.4922 0.4946 166
-6.1914 -3.1776999999999997 -0.8896 129
-12.664100000000001 -6.5039 0.8256999999999999 37
-6.2148 -3.1914 -0.7295 31
-12.593800000000002 -6.4648 1.1523 252
-12.3594 -6.3477 1.4561000000000002 4
-11.8672 -6.0898 1.71 31
-12.1719 -6.25 2.0801 11
-12.6172 -6.4765999999999995 -0.1649 227
-8.4062 -4.3164 1.6582 21
-4.1992 -2.1367 -0.8237000000000001 73
-12.656199999999998 -6.4375 0.16519999999999999 22
-6.1953 -3.1523000000000003 -1.0537 51
-12.656199999999998 -6.4414 0.4941 199
-6.1914 -3.1504000000000003 -0.8881999999999999 109
-12.6719 -6.449199999999999 0.8247 81
-6.2188 -3.1641000000000004 -0.7290000000000001 163
-12.656199999999998 -6.4414 1.1562000000000001 39
-12.375 -6.296900000000001 1.4541 166
-11.875 -6.042999999999999 1.7080000000000002 125
-12.164100000000001 -6.1914 2.0762 141
-12.656199999999998 -6.4375 -0.16519999999999999 76
-8.4062 -4.2773 1.6562000000000001 77
-4.2148 -2.127 -0.8251999999999999 82
-12.6953 -6.4062 0.1654 79
-6.1914 -3.123 -1.0508 223
-12.6875 -6.4023 0.4946 175
-6.1875 -3.1211 -0.8856999999999999 97
-12.7656 -6.4375 0.8291 171
-6.230499999999999 -3.1445 -0.7290000000000001 183
-12.7656 -6.4414 1.1641 104
-12.3594 -6.234400000000001 1.4502000000000002 35
-11.8828 -5.9922 1.7061000000000002 79
-6.4688 -3.2637 -0.25120000000000003 14
-12.164100000000001 -6.136699999999999 2.0703 34
-12.6719 -6.394500000000001 -0.165 212
-7.953099999999999 -4.0117 1.5635 67
-4.2617 -2.1309 -0.8325 194
-12.835899999999999 -6.417999999999999 0.16699999999999998 67
-6.203099999999999 -3.0995999999999997 -1.0508 98
-12.7969 -6.3984000000000005 0.4978 122
-6.1797 -3.0879000000000003 -0.8828 25
-12.8594 -6.4297 0.8340000000000001 174
-6.2265999999999995 -3.1113 -0.7271 141
-12.843800000000002 -6.417999999999999 1.1689 169
-12.3672 -6.1836 1.4482 87
-11.8828 -5.9414 1.7031 148
-12.148399999999999 -6.074199999999999 2.0645 152
-12.781199999999998 -6.386699999999999 -0.1661 225
-7.957000000000001 -3.9785000000000004 1.5615 144
-12.9219 -6.4023 0.1677 52
-6.203099999999999 -3.0742000000000003 -1.0488 178
-12.906199999999998 -6.394500000000001 0.501 36
-6.1836 -3.0625 -0.8818 27
-12.9531 -6.417999999999999 0.8384 189
-6.2109000000000005 -3.0762 -0.7236 171
-13.023399999999999 -6.453099999999999 1.1836 54
-12.3828 -6.136699999999999 1.4482 68
-11.8906 -5.894500000000001 1.7021000000000002 116
-12.164100000000001 -6.0273 2.0645 144
-12.898399999999999 -6.390599999999999 -0.1674 60
-7.9765999999999995 -3.9512 1.5625 173
-6.199199999999999 -3.0469 -1.2109 27
-13.0 -6.390599999999999 0.1686 26
-6.1953 -3.0449 -1.0459 186
-13.023399999999999 -6.3984000000000005 0.5049 246
-6.175800000000001 -3.0351999999999997 -0.8798999999999999 179
-13.0703 -6.421900000000001 0.8442000000000001 113
-6.207000000000001 -3.0507999999999997 -0.7227 151
-13.125 -6.449199999999999 1.1914 98
-12.4219 -6.1015999999999995 1.4502000000000002 227
-11.960899999999999 -5.875 1.7080000000000002 169
-12.156199999999998 -5.9727 2.0586 69
-13.0156 -6.394500000000001 -0.16870000000000002 120
-8.5078 -4.1836 1.665 43
-6.1875 -3.0137 -1.2061 185
-13.1094 -6.390599999999999 0.1697 246
-6.1875 -3.0156 -1.043 47
-13.125 -6.3984000000000005 0.5083 34
-6.1875 -3.0156 -0.8798999999999999 146
-13.1953 -6.4297 0.8511 169
-6.2109000000000005 -3.0273000000000003 -0.7217 93
-13.2344 -6.449199999999999 1.1982 94
-12.406199999999998 -6.042999999999999 1.4453 188
-12.0 -5.8477 1.7119 55
-12.1406 -5.917999999999999 2.0527 150
-13.1172 -6.394500000000001 -0.1698 11
-8.6719 -4.2266 1.6943000000000001 119
-6.1836 -2.9844 -1.2031 60
-13.2578 -6.3984000000000005 0.17129999999999998 199
-6.1836 -2.9844 -1.041 1
-13.2344 -6.390599999999999 0.5117 25
-6.1797 -2.9844 -0.8774 126
-13.2969 -6.417999999999999 0.856 123
-6.2109000000000005 -2.998 -0.7202 245
-13.335899999999999 -6.4375 1.2061 97
-12.375 -5.9727 1.4394999999999998 171
-12.0547 -5.8203 1.7168 8
-12.093800000000002 -5.8398 2.041 179
-13.226600000000001 -6.386699999999999 -0.1709 35
-8.8672 -4.2812 1.7294999999999998 184
-6.1836 -2.9589999999999996 -1.2012 56
-13.335899999999999 -6.3828 0.172 176
-6.1875 -2.9608999999999996 -1.0391 61
-13.351600000000001 -6.386699999999999 0.5151 254
-6.1797 -2.957 -0.8759999999999999 85
-13.406199999999998 -6.4140999999999995 0.8623000000000001 86
-6.2188 -2.9745999999999997 -0.7197 176
-13.4531 -6.4336 1.2139 225
-12.3906 -5.9297 1.4385 21
-12.101600000000001 -5.7890999999999995 1.7197 213
-11.976600000000001 -5.730499999999999 2.0176 14
-13.3125 -6.3711 -0.1718 94
-8.9375 -4.2773 1.7393 74
-6.1836 -2.9297000000000004 -1.1992 96
-13.460899999999999 -6.3789 0.1732 197
-6.1914 -2.9336 -1.0381 130
-13.4531 -6.3789 0.5181 216
-6.1797 -2.9297000000000004 -0.8745 119
-13.5078 -6.4023 0.8672 157
-6.199199999999999 -2.9395 -0.7168000000000001 232
-13.5781 -6.4336 1.2236 38
-12.3672 -5.859400000000001 1.4336000000000002 149
-7.9336 -3.7617000000000003 1.124 56
-8.6641 -4.1094 1.4561000000000002 103
-13.4375 -6.3711 -0.17300000000000001 22
-12.1797 -5.7734000000000005 2.3691 127
-6.1875 -2.9062 -1.1973 116
-13.5625 -6.3711 0.1743 6
-6.1914 -2.9082 -1.0361 144
-13.5781 -6.3789 0.522 121
-6.1836 -2.9043 -0.8734999999999999 227
-13.585899999999999 -6.3828 0.8706 209
-6.207000000000001 -2.9141000000000004 -0.7158 120
-13.5781 -6.3789 1.2217 57
-12.3828 -5.8164 1.4336000000000002 125
-7.859400000000001 -3.6914 1.1113 239
-8.3984 -3.9433999999999996 1.4082 119
-13.5469 -6.363300000000001 -0.1741 57
-8.5625 -4.0195 1.6602000000000001 91
-6.1914 -2.8848000000000003 -1.1973 51
-13.585899999999999 -6.328099999999999 0.1744 117
-6.1797 -2.8789 -1.0332 178
-13.5781 -6.328099999999999 0.5215 119
-6.1914 -2.8848000000000003 -0.873 0
-13.5781 -6.328099999999999 0.8691 21
-6.2109000000000005 -2.8926 -0.7153 45
-13.5625 -6.3203 1.2187999999999999 49
-12.3906 -5.769500000000001 1.4316 92
-7.8672 -3.6641000000000004 1.1113 200
-8.3984 -3.9120999999999997 1.4062000000000001 178
-13.5625 -6.3203 -0.1741 151
-8.0469 -3.75 1.5586000000000002 182
-6.1875 -2.8574 -1.1943000000000001 128
-13.593800000000002 -6.2812 0.17420000000000002 1
-6.1836 -2.8555 -1.0322 242
-13.5625 -6.265599999999999 0.52 213
-6.1836 -2.8555 -0.8706 238
-13.5703 -6.269500000000001 0.8672 82
-6.2148 -2.8711 -0.7148 65
-13.5625 -6.261699999999999 1.2168 190
-12.3828 -5.7188 1.4297 209
-7.9140999999999995 -3.6543 1.1152 92
-11.843800000000002 -5.4727 1.9834 79
-13.5547 -6.261699999999999 -0.17370000000000002 143
-8.0391 -3.7129000000000003 1.5547 5
-6.1836 -2.8262 -1.1914 49
-13.593800000000002 -6.2148 0.174 241
-6.1953 -2.832 -1.0322 184
-13.5703 -6.199199999999999 0.519 85
-6.175800000000001 -2.8223000000000003 -0.8682 159
-13.5703 -6.203099999999999 0.8656999999999999 75
-6.2188 -2.8418 -0.7143999999999999 212
-13.5625 -6.199199999999999 1.2148 50
-12.398399999999999 -5.6640999999999995 1.4277000000000002 85
-7.9765999999999995 -3.6445 1.123 57
-11.8828 -5.4297 1.9853999999999998 93
-13.5469 -6.1914 -0.17329999999999998 179
-8.0703 -3.6855 1.5566 36
-6.1797 -2.7969 -1.1885 129
-13.6094 -6.1602 0.17379999999999998 51
-6.1953 -2.8047000000000004 -1.0303 235
-13.5703 -6.144500000000001 0.5186 153
-6.167999999999999 -2.793 -0.8656999999999999 105
-13.5547 -6.136699999999999 0.8633 174
-6.2109000000000005 -2.8105 -0.7119 24
-13.5703 -6.144500000000001 1.2129 160
-12.398399999999999 -5.609400000000001 1.4258000000000002 50
-8.3281 -3.7695 1.1709 8
-8.8125 -3.9863 1.4678 56
-13.5469 -6.1328 -0.17300000000000001 208
-12.156199999999998 -5.5039 2.3457 15
-6.1836 -2.7733999999999996 -1.1875 160
-13.5781 -6.0938 0.1732 128
-6.1875 -2.7754000000000003 -1.0273 7
-13.5703 -6.0859000000000005 0.5176 246
-6.1797 -2.7733999999999996 -0.8656999999999999 215
-13.5625 -6.0859000000000005 0.8623000000000001 214
-6.203099999999999 -2.7812 -0.71 228
-13.5703 -6.0898 1.2109 226
-12.406199999999998 -5.5664 1.4247999999999998 127
-8.1016 -3.6327999999999996 1.1367 155
-8.6016 -3.8574 1.4306999999999999 24
-13.5547 -6.082000000000001 -0.1729 125
-8.1406 -3.6543 1.5663999999999998 112
-6.1875 -2.75 -1.1865 120
-13.5781 -6.0352 0.1729 16
-6.1836 -2.748 -1.0254 124
-13.5625 -6.0273 0.5166 33
-6.1836 -2.748 -0.8647 138
-13.5781 -6.0352 0.8618000000000001 237
-6.2227 -2.7656 -0.7114 180
-13.5547 -6.0234000000000005 1.208 226
-12.406199999999998 -5.511699999999999 1.4219 15
-8.2969 -3.6855 1.1621 231
-11.8906 -5.2812 1.9775 92
-13.5469 -6.019500000000001 -0.1725 132
-8.125 -3.6113 1.5605000000000002 192
-6.1914 -2.7285000000000004 -1.1855 136
-13.5781 -5.984400000000001 0.1726 173
-6.1836 -2.7245999999999997 -1.0234 144
-13.5547 -5.9727 0.5156000000000001 161
-6.167999999999999 -2.7188 -0.8613 97
-13.5703 -5.980499999999999 0.8604 212
-6.2188 -2.7401999999999997 -0.7095 197
-13.5625 -5.9765999999999995 1.207 164
-12.3906 -5.4609000000000005 1.4188999999999998 93
-8.2812 -3.6504000000000003 1.1592 113
-8.6719 -3.8202999999999996 1.4385 54
-13.539100000000001 -5.9648 -0.1721 68
-12.1953 -5.375 2.3418 169
-6.175800000000001 -2.6973000000000003 -1.1806999999999999 81
-13.585899999999999 -5.9297 0.1724 172
-6.1914 -2.7031 -1.0234 48
-13.5469 -5.9140999999999995 0.5146000000000001 227
-6.167999999999999 -2.6933999999999996 -0.8604 230
-13.5547 -5.917999999999999 0.8579000000000001 152
-6.2227 -2.7168 -0.7090000000000001 66
-13.585899999999999 -5.9336 1.207 150
-12.398399999999999 -5.4140999999999995 1.4169999999999998 15
-8.1719 -3.5683999999999996 1.1416 95
-11.8906 -5.1914 1.9716999999999998 111
-13.5469 -5.9140999999999995 -0.172 171
-12.1797 -5.3203 2.3359 126
-6.1797 -2.6719 -1.1797 252
-13.585899999999999 -5.875 0.1722 8
-6.199199999999999 -2.6797000000000004 -1.0234 105
-13.585899999999999 -5.8711 0.5151 66
-6.1640999999999995 -2.6660000000000004 -0.8584 161
-13.6094 -5.8828 0.8599 19
-6.2227 -2.6895 -0.708 229
-13.6328 -5.894500000000001 1.21 249
-12.398399999999999 -5.359400000000001 1.415 134
-8.2188 -3.5526999999999997 1.1465 45
-8.9688 -3.8789 1.4844 91
-13.5547 -5.859400000000001 -0.1718 190
-12.164100000000001 -5.2578 2.3301 148
-6.175800000000001 -2.6445 -1.1768 97
-13.593800000000002 -5.8203 0.172 133
-6.1797 -2.6464999999999996 -1.0186 61
-13.648399999999999 -5.8438 0.5166 156
-6.175800000000001 -2.6445 -0.8589 12
-13.648399999999999 -5.8438 0.8608 118
-6.2109000000000005 -2.6582 -0.7056 164
-13.648399999999999 -5.8438 1.209 243
-12.3906 -5.3047 1.4121000000000001 127
-8.3047 -3.5566000000000004 1.1572 131
-8.8594 -3.7949 1.4638999999999998 200
-13.5547 -5.800800000000001 -0.17149999999999999 25
-8.7812 -3.7617000000000003 1.6777000000000002 91
-6.1797 -2.6211 -1.1768 194
-13.601600000000001 -5.765599999999999 0.17190000000000003 83
-6.1797 -2.6191000000000004 -1.0166 86
-13.664100000000001 -5.796900000000001 0.5166 4
-6.1836 -2.6211 -0.8584 243
-13.664100000000001 -5.792999999999999 0.8608 253
-6.2188 -2.6367000000000003 -0.7051000000000001 113
-13.6406 -5.7852 1.2061 243
-12.406199999999998 -5.2578 1.4111000000000002 126
-8.5625 -3.6289 1.1904000000000001 245
-8.8438 -3.752 1.459 22
-13.5547 -5.7461 -0.17129999999999998 123
-12.1797 -5.1640999999999995 2.3262 230
-6.1836 -2.5976999999999997 -1.1748 20
-13.6094 -5.7148 0.1716 239
-6.175800000000001 -2.5938 -1.0146 166
-13.656199999999998 -5.734400000000001 0.5156000000000001 169
-6.175800000000001 -2.5938 -0.8564 183
-13.6719 -5.7422 0.8604 52
-6.2148 -2.6094 -0.7041 23
-13.648399999999999 -5.730499999999999 1.2061 119
-12.3906 -5.203099999999999 1.4082 133
-8.3203 -3.4941000000000004 1.1553 221
-8.7109 -3.6582 1.4336000000000002 11
-13.531199999999998 -5.6836 -0.17079999999999998 12
-12.1797 -5.1133 2.3223 130
-6.171900000000001 -2.5664 -1.1709 55
-13.6094 -5.6562 0.17149999999999999 118
-6.1875 -2.5723000000000003 -1.0156 20
-13.656199999999998 -5.675800000000001 0.5146000000000001 0
-6.167999999999999 -2.5625 -0.8534999999999999 232
-13.6719 -5.6836 0.8589 24
-6.2265999999999995 -2.5879000000000003 -0.7041 12
-13.656199999999998 -5.675800000000001 1.2051 55
-12.3828 -5.1484000000000005 1.4053 79
-8.375 -3.4805 1.1611 98
-11.851600000000001 -4.9258 1.9512 72
-13.5156 -5.6172 -0.1703 91
-12.1719 -5.0586 2.3164 60
-6.167999999999999 -2.5391 -1.1689 5
-13.593800000000002 -5.5977 0.171 35
-6.1836 -2.5449 -1.0127 142
-13.6797 -5.6289 0.5146000000000001 9
-6.171900000000001 -2.541 -0.853 233
-13.6719 -5.6289 0.8573999999999999 71
-6.207000000000001 -2.5547 -0.7012 227
-12.3828 -5.0977 1.4033000000000002 89
-12.226600000000001 -5.0352 1.6953 185
-8.7344 -3.5938 1.4336000000000002 74
-13.523399999999999 -5.5664 -0.1702 121
-12.1328 -4.9922 2.3066 234
-6.167999999999999 -2.5156 -1.167 31
-12.5156 -5.1055 0.15710000000000002 83
-6.1797 -2.5195 -1.0107 43
-12.4219 -5.0664 0.4668 252
-6.175800000000001 -2.5195 -0.8525 145
-12.398399999999999 -5.0586 0.7764 156
-6.203099999999999 -2.5312 -0.6997 112
-12.4219 -5.0664 1.0928 19
-12.3828 -5.0508 1.4013999999999998 41
-12.218800000000002 -4.9844 1.6913999999999998 180
-8.7656 -3.5762 1.4375 73
-12.398399999999999 -5.0586 -0.1558 32
-12.1328 -4.9492 2.3027 42
-6.175800000000001 -2.4941 -1.167 227
-12.4844 -5.043 0.1565 72
-6.1602 -2.4902 -1.0068000000000001 18
-12.398399999999999 -5.0117 0.4653 188
-6.1797 -2.4961 -0.8515999999999999 12
-12.414100000000001 -5.0156 0.7764 162
-6.207000000000001 -2.5078 -0.6992 201
-12.3906 -5.0078 1.0879 239
-12.398399999999999 -5.0078 1.4003999999999999 67
-12.218800000000002 -4.9375 1.6894999999999998 111
-11.8828 -4.8008 1.9472999999999998 124
-12.3828 -5.0039 -0.1553 69
-9.0078 -3.6406 1.7061000000000002 93
-6.1797 -2.4668 -1.166 177
-12.406199999999998 -4.957 0.15539999999999998 44
-6.171900000000001 -2.4648 -1.0068000000000001 42
-12.3906 -4.9492 0.46409999999999996 24
-6.1797 -2.4688 -0.8506 211
-12.414100000000001 -4.957 0.7748999999999999 233
-6.2148 -2.4824 -0.6987000000000001 246
-12.414100000000001 -4.957 1.0879 217
-12.3828 -4.9453 1.3965 26
-8.3594 -3.3398000000000003 1.1523 190
-11.875 -4.7422 1.9434 19
-12.3828 -4.9453 -0.155 53
-12.1328 -4.8477 2.2969 243
-6.171900000000001 -2.4395 -1.1631 238
-12.4375 -4.9141 0.15539999999999998 226
-6.175800000000001 -2.4414 -1.0059 201
-12.406199999999998 -4.9023 0.4639 198
-6.171900000000001 -2.4375 -0.8481000000000001 218
-12.4375 -4.9141 0.7754000000000001 216
-6.2227 -2.459 -0.6981999999999999 240
-12.4453 -4.918 1.0889 142
-12.375 -4.8867 1.3936000000000002 2
-12.226600000000001 -4.832 1.6855000000000002 92
-8.9062 -3.5176 1.4531 140
-12.3906 -4.8945 -0.1549 160
-12.1172 -4.7891 2.291 30
-6.167999999999999 -2.416 -1.1611 224
-12.476600000000001 -4.8867 0.1558 190
-6.175800000000001 -2.4199 -1.0049 211
-12.4375 -4.8711 0.4648 178
-6.175800000000001 -2.418 -0.8477 10
-12.4531 -4.8789 0.7759 134
-6.2148 -2.4336 -0.6968000000000001 64
-12.5156 -4.9023 1.0937999999999999 22
-12.3906 -4.8516 1.3936000000000002 68
-12.210899999999999 -4.7852 1.6816 127
-11.843800000000002 -4.6406 1.9325999999999999 52
-12.398399999999999 -4.8555 -0.1548 222
-8.8828 -3.4805 1.6747999999999998 110
-6.171900000000001 -2.3945 -1.1602 124
-12.476600000000001 -4.8398 0.15560000000000002 210
-6.171900000000001 -2.3945 -1.0029000000000001 36
-12.4922 -4.8438 0.4661 4
-6.1797 -2.3965 -0.8472 80
-12.5078 -4.8516 0.7778 30
-6.207000000000001 -2.4082 -0.6953 74
-12.5469 -4.8672 1.0957 8
-12.3828 -4.8047 1.3916 135
-12.210899999999999 -4.7344 1.6787 139
-11.851600000000001 -4.5977 1.9316 197
-12.4375 -4.8242 -0.1552 134
-12.1094 -4.6992 2.2832 103
-6.1797 -2.3711 -1.1592 198
-12.6172 -4.8398 0.15710000000000002 211
-6.167999999999999 -2.3672 -1.001 88
-12.5469 -4.8125 0.4675 62
-6.175800000000001 -2.3691 -0.8456999999999999 7
-12.6094 -4.8359 0.7831999999999999 162
-6.2188 -2.3848 -0.6953 193
-13.523399999999999 -5.1875 1.1797 85
-9.0078 -3.457 1.0098 53
-8.8672 -3.4023000000000003 1.2158 86
-11.835899999999999 -4.543 1.9268 146
-12.5156 -4.8008 -0.1559 107
-12.1172 -4.6484 2.2812 232
-6.1797 -2.3457 -1.1582 227
-13.539100000000001 -5.140599999999999 0.1685 227
-6.171900000000001 -2.3438 -1.0 161
-13.531199999999998 -5.136699999999999 0.5034000000000001 45
-6.171900000000001 -2.3438 -0.8438 203
-13.539100000000001 -5.140599999999999 0.8398 3
-6.2227 -2.3613 -0.6948000000000001 201
-13.539100000000001 -5.140599999999999 1.1787 57
-8.9922 -3.4141000000000004 1.0059 79
-8.875 -3.3691000000000004 1.2158 101
-11.8281 -4.4883 1.9228999999999998 130
-10.0156 -3.8026999999999997 1.8818000000000001 213
-6.171900000000001 -2.3184 -1.1553 212
-13.5547 -5.0898 0.1685 139
-6.1875 -2.3242 -1.001 50
-13.523399999999999 -5.0781 0.5029 255
-6.1640999999999995 -2.3145 -0.8418000000000001 55
-13.539100000000001 -5.082 0.8389 82
-6.2265999999999995 -2.3379 -0.6943 40
-13.539100000000001 -5.082 1.1777 38
-8.9844 -3.373 1.0039 57
-8.8984 -3.3418 1.2178 239
-8.8438 -3.3223000000000003 1.4346 148
-13.5156 -5.0742 -0.1678 131
-12.101600000000001 -4.543 2.2715 31
-6.167999999999999 -2.291 -1.1523 11
-13.5625 -5.0391 0.16820000000000002 213
-6.1875 -2.2988 -1.0 223
-13.539100000000001 -5.0312 0.5029 215
-6.167999999999999 -2.291 -0.8408 188
-13.531199999999998 -5.0273 0.8373999999999999 237
-6.2188 -2.3105 -0.6929000000000001 43
-13.5469 -5.0312 1.1768 17
-8.9844 -3.3379000000000003 1.0029000000000001 101
-12.0469 -4.4766 1.6475 6
-8.8438 -3.2870999999999997 1.4325999999999999 12
-13.5 -5.0156 -0.1675 35
-12.1172 -4.5 2.2715 50
-6.167999999999999 -2.2676 -1.1514 209
-13.531199999999998 -4.9727 0.16760000000000003 175
-6.175800000000001 -2.2715 -0.9971 112
-13.531199999999998 -4.9766 0.502 50
-6.175800000000001 -2.2715 -0.8408 133
-13.531199999999998 -4.9766 0.8364 235
-6.2109000000000005 -2.2832 -0.6909000000000001 179
-13.539100000000001 -4.9805 1.1748 164
-8.9922 -3.3066000000000004 1.002 18
-12.0547 -4.4297 1.6465 168
-8.8672 -3.2598000000000003 1.4336000000000002 12
-13.5 -4.9648 -0.1672 106
-12.093800000000002 -4.4453 2.2637 5
-6.1836 -2.25 -1.1523 247
-13.5469 -4.9297 0.16760000000000003 185
-6.167999999999999 -2.2441 -0.9945999999999999 216
-13.5156 -4.9219 0.5005 240
-6.171900000000001 -2.2461 -0.8393999999999999 247
-13.539100000000001 -4.9258 0.8354 71
-6.2227 -2.2656 -0.6914 142
-13.523399999999999 -4.9219 1.1719 63
-9.0156 -3.2812 1.0039 41
-12.1172 -4.4102 1.6533000000000002 249
-11.843800000000002 -4.3086 1.915 197
-13.5 -4.9141 -0.1671 175
-12.101600000000001 -4.4023 2.2637 57
-6.175800000000001 -2.2227 -1.1494 11
-13.5469 -4.875 0.1675 127
-6.171900000000001 -2.2207 -0.9937 153
-13.5156 -4.8633 0.49979999999999997 34
-6.175800000000001 -2.2227 -0.8389 228
-13.531199999999998 -4.8672 0.8340000000000001 65
-6.230499999999999 -2.2422 -0.6914 24
-13.5156 -4.8633 1.1689 10
-9.0156 -3.2441000000000004 1.0029000000000001 234
-12.2031 -4.3906 1.6631 44
-13.5 -4.8594 -0.16690000000000002 225
-8.8984 -3.2012 1.6591999999999998 140
-6.1640999999999995 -2.1934 -1.1465 147
-13.5469 -4.8203 0.1672 30
-6.1797 -2.1992 -0.9937 255
-13.523399999999999 -4.8125 0.4993 125
-6.175800000000001 -2.1973 -0.8373999999999999 240
-13.523399999999999 -4.8125 0.8325 121
-6.238300000000001 -2.2188 -0.6909000000000001 242
-13.523399999999999 -4.8125 1.1689 159
-9.0312 -3.2129000000000003 1.0029000000000001 176
-12.210899999999999 -4.3438 1.6611000000000002 15
-11.8125 -4.2031 1.9062000000000001 179
-13.4922 -4.8008 -0.1666 245
-8.8828 -3.1620999999999997 1.6553 250
-6.1640999999999995 -2.1699 -1.1445 99
-13.531199999999998 -4.7656 0.16690000000000002 182
-6.1797 -2.1758 -0.9926999999999999 150
-13.539100000000001 -4.7656 0.4993 76
-6.1875 -2.1777 -0.8379000000000001 221
-13.5156 -4.7578 0.8311 248
-6.234400000000001 -2.1953 -0.6899 155
-13.5156 -4.7578 1.167 43
-9.0703 -3.1952999999999996 1.0068000000000001 205
-12.1953 -4.2969 1.6582 125
-11.8281 -4.1641 1.9062000000000001 131
-13.5 -4.7539 -0.16649999999999998 199
-8.8984 -3.1327999999999996 1.6562000000000001 247
-6.1602 -2.1465 -1.1426 39
-13.523399999999999 -4.7109 0.16649999999999998 251
-6.175800000000001 -2.1523 -0.9906999999999999 123
-13.531199999999998 -4.7148 0.4985 114
-6.1914 -2.1582 -0.8379000000000001 226
-13.5156 -4.707 0.8301000000000001 78
-6.230499999999999 -2.1719 -0.6890000000000001 189
-13.523399999999999 -4.7148 1.166 153
-12.3672 -4.3086 1.3721 85
-12.1797 -4.2422 1.6533000000000002 112
-11.8281 -4.1211 1.9043 27
-13.5156 -4.7109 -0.16649999999999998 115
-8.8984 -3.0995999999999997 1.6543 91
-6.167999999999999 -2.123 -1.1426 53
-13.531199999999998 -4.6562 0.16649999999999998 87
-6.1640999999999995 -2.1211 -0.9878 65
-13.5156 -4.6523 0.49729999999999996 97
-6.1797 -2.127 -0.835 11
-13.531199999999998 -4.6562 0.8301000000000001 229
-6.234400000000001 -2.1445 -0.688 170
-9.1016 -3.1308999999999996 0.7822 96
-12.3672 -4.2539 1.3700999999999999 61
-9.2969 -3.2012 1.2598 87
-8.5312 -2.9355 1.3691 182
-13.5156 -4.6523 -0.1663 132
-8.2656 -2.8457 1.5341999999999998 138
-6.175800000000001 -2.1016 -1.1426 136
-13.585899999999999 -4.625 0.16699999999999998 200
-6.1640999999999995 -2.0977 -0.9868000000000001 225
-13.593800000000002 -4.625 0.49979999999999997 44
-6.171900000000001 -2.0996 -0.833 221
-13.664100000000001 -4.6484 0.8369 138
-6.230499999999999 -2.1191 -0.687 16
-9.0938 -3.0957 0.7812 217
-9.25 -3.1464999999999996 1.0225 219
-9.3359 -3.1757999999999997 1.2627 19
-9.6406 -3.2812 1.5469 97
-13.539100000000001 -4.6055 -0.1664 201
-8.0781 -2.748 1.4971 129
-6.1602 -2.0723 -1.1387 206
-13.7422 -4.6211 0.1686 8
-6.175800000000001 -2.0762 -0.9868000000000001 74
-13.710899999999999 -4.6133 0.5034000000000001 167
-6.1640999999999995 -2.0742 -0.8311 199
-13.9531 -4.6914 0.8534999999999999 61
-6.2422 -2.0996 -0.688 61
-9.1016 -3.0605 0.7803 243
-9.2188 -3.1016000000000004 1.0176 216
-12.1953 -4.1016 1.6494 113
-9.5312 -3.2051 1.5272999999999999 35
-13.6953 -4.6055 -0.1681 41
-8.0859 -2.7188 1.4971 166
-6.1523 -2.0449 -1.1357 127
-13.960899999999999 -4.6406 0.1711 133
-6.1836 -2.0547 -0.9868000000000001 22
-14.0781 -4.6797 0.5161 179
-6.1640999999999995 -2.0488 -0.8301000000000001 135
-14.164100000000001 -4.707 0.8656999999999999 230
-6.230499999999999 -2.0703 -0.6851 114
-9.1094 -3.0293 0.7803 127
-9.2266 -3.0683999999999996 1.0176 139
-12.2031 -4.0586 1.6484 168
-8.0469 -2.6757999999999997 1.2861000000000002 138
-14.031199999999998 -4.6641 -0.172 89
-8.1172 -2.6992000000000003 1.5019999999999998 107
-6.1602 -2.0234 -1.1357 55
-14.218800000000002 -4.6719 0.17420000000000002 35
-6.175800000000001 -2.0293 -0.9843999999999999 110
-14.2422 -4.6797 0.5215 72
-6.167999999999999 -2.0273 -0.8295999999999999 33
-14.3047 -4.6992 0.8734999999999999 194
-6.2265999999999995 -2.0469 -0.6840999999999999 185
-9.1172 -2.9941000000000004 0.7798 23
-12.351600000000001 -4.0586 1.3622999999999998 84
-12.1953 -4.0078 1.6455000000000002 125
-8.1016 -2.6620999999999997 1.2938999999999998 47
-14.218800000000002 -4.6719 -0.1741 199
-12.085899999999999 -3.9726999999999997 2.2363 247
-6.1602 -2.0 -1.1348 103
-14.414100000000001 -4.6797 0.17629999999999998 230
-6.1523 -1.9980000000000002 -0.98 74
-14.375 -4.668 0.5259 202
-6.171900000000001 -2.0039 -0.8291 9
-9.1406 -2.9688 0.5566 96
-6.238300000000001 -2.0254 -0.6846 223
-9.1328 -2.9668 0.7807999999999999 45
-12.3594 -4.0156 1.3613 167
-12.1875 -3.957 1.6425999999999998 125
-8.7969 -2.8574 1.4043 140
-14.3281 -4.6523 -0.1753 108
-12.085899999999999 -3.9257999999999997 2.2344 131
-6.1640999999999995 -1.9785 -1.1338 149
-14.5781 -4.6797 0.1782 41
-6.1602 -1.9775 -0.98 154
-14.539100000000001 -4.668 0.5312 80
-6.167999999999999 -1.9794999999999998 -0.8276 52
-9.125 -2.9297000000000004 0.5552 141
-6.238300000000001 -2.0039 -0.6840999999999999 130
-14.75 -4.7344 1.2617 109
-12.351600000000001 -3.9648000000000003 1.3584 48
-12.1953 -3.9141000000000004 1.6416 210
-6.488300000000001 -2.082 -0.2361 163
-8.8672 -2.8476999999999997 1.4131 110
-14.531199999999998 -4.6641 -0.1776 70
-8.9141 -2.8632999999999997 1.6436000000000002 132
-6.1523 -1.9531 -1.1309 107
-14.7344 -4.6758 0.17980000000000002 237
-6.1640999999999995 -1.9561000000000002 -0.9795 200
-9.1016 -2.8887 0.33149999999999996 246
-6.1640999999999995 -1.9561000000000002 -0.8262 40
-9.1328 -2.9004000000000003 0.5552 136
-6.2461 -1.9824000000000002 -0.6840999999999999 92
-14.835899999999999 -4.707 1.2676 159
-12.343800000000002 -3.918 1.3563999999999998 107
-12.1953 -3.8711 1.6396000000000002 56
-6.4375 -2.043 -0.23399999999999999 172
-14.656199999999998 -4.6523 -0.179 232
-12.0703 -3.8301 2.2246 60
-6.144500000000001 -1.9247999999999998 -1.1279000000000001 200
-6.167999999999999 -1.9325999999999999 -0.9795 46
-9.0859 -2.8457 0.3308 28
-6.167999999999999 -1.9325999999999999 -0.8262 20
-9.0859 -2.8457 0.5513 68
-6.2265999999999995 -1.9502000000000002 -0.6812 169
-15.0469 -4.7109 1.2841999999999998 232
-12.3594 -3.8711 1.3563999999999998 88
-12.148399999999999 -3.8047000000000004 1.6328 80
-6.4414 -2.0176 -0.2339 151
-14.8203 -4.6406 -0.1808 156
-12.0703 -3.7812 2.2227 179
-6.1562 -1.9043 -1.1289 67
-9.0547 -2.8026999999999997 0.11 173
-6.1602 -1.9062000000000001 -0.9771 146
-9.0859 -2.8105 0.33030000000000004 250
-6.171900000000001 -1.9091999999999998 -0.8256999999999999 102
-9.0938 -2.8145 0.5513 181
-6.230499999999999 -1.9277000000000002 -0.6807 251
-15.218800000000002 -4.707 1.2978999999999998 134
-12.351600000000001 -3.8202999999999996 1.3544999999999998 123
-12.1094 -3.7461 1.625 190
-6.425800000000001 -1.9872999999999998 -0.233 27
-9.0312 -2.7949 -0.1097 168
-12.0781 -3.7363 2.2207 141
-6.1602 -1.8828 -1.1279000000000001 217
-9.0469 -2.7656 0.1097 84
-6.1562 -1.8818000000000001 -0.9745999999999999 207
-9.0703 -2.7733999999999996 0.3296 166
-6.1797 -1.8887 -0.8256999999999999 74
-9.1094 -2.7851999999999997 0.5518 160
-6.238300000000001 -1.9072 -0.6807 176
-9.1016 -2.7832 0.7739 102
-7.6914 -2.3516 -0.6533 75
-12.335899999999999 -3.7714999999999996 1.3506 177
-7.7734000000000005 -2.377 -0.4702 183
-12.1406 -3.7129000000000003 1.6279 82
-6.4062 -1.959 -0.2322 17
-8.9141 -2.7245999999999997 1.4141 81
-9.0234 -2.7598000000000003 -0.1094 33
-12.085899999999999 -3.6952999999999996 2.2207 107
-6.167999999999999 -1.8633000000000002 -1.1289 70
-9.0312 -2.7285000000000004 0.1094 49
-6.167999999999999 -1.8633000000000002 -0.9756 136
-9.0859 -2.7441000000000004 0.3296 21
-6.167999999999999 -1.8643 -0.8237000000000001 250
-9.1094 -2.7539 0.5513 171
-6.234400000000001 -1.8838 -0.6801999999999999 65
-9.1094 -2.752 0.7734000000000001 74
-7.6836 -2.3203 -0.6518999999999999 42
-12.343800000000002 -3.7285000000000004 1.3506 243
-12.1719 -3.6757999999999997 1.6299000000000001 53
-6.4102 -1.9365 -0.2321 153
-8.9297 -2.6973000000000003 1.416 115
-9.0234 -2.7266000000000004 -0.1094 18
-12.085899999999999 -3.6523000000000003 2.2188 83
-6.1562 -1.834 -1.125 114
-9.0625 -2.6992000000000003 0.1097 127
-6.1640999999999995 -1.8369 -0.9745999999999999 55
-9.1328 -2.7207 0.3308 73
-6.1602 -1.8359 -0.8212999999999999 116
-9.1406 -2.7226999999999997 0.5522 89
-6.2461 -1.8613 -0.6807 174
-9.125 -2.7168 0.7739 18
-9.0625 -2.7012 0.9893000000000001 127
-12.1875 -3.6308999999999996 1.6299000000000001 152
-6.425800000000001 -1.915 -0.2324 64
-11.8281 -3.5254000000000003 1.876 106
-9.0391 -2.6933999999999996 -0.1094 225
-12.085899999999999 -3.5995999999999997 2.2148 212
-6.1484000000000005 -1.8086000000000002 -1.123 80
-9.0547 -2.6620999999999997 0.1094 209
-6.175800000000001 -1.8163999999999998 -0.9751000000000001 5
-15.4297 -4.5391 0.5600999999999999 42
-6.167999999999999 -1.8144999999999998 -0.8212999999999999 6
-15.4297 -4.5391 0.9331 99
-6.238300000000001 -1.835 -0.6792 13
-9.1484 -2.6895 0.7748999999999999 49
-9.0781 -2.6699 0.9902 95
-12.1719 -3.582 1.6269999999999998 91
-6.4336 -1.8925999999999998 -0.2324 12
-11.8047 -3.4707 1.8691 174
-9.0781 -2.6699 -0.10980000000000001 188
-12.0625 -3.5469 2.209 226
-6.1562 -1.7881 -1.123 67
-9.0938 -2.6426 0.1099 240
-6.1640999999999995 -1.79 -0.9722 189
-6.171900000000001 -1.7930000000000001 -0.8208 172
-6.2227 -1.8075999999999999 -0.6762999999999999 84
-9.1719 -2.6641000000000004 0.7764 1
-9.0859 -2.6387 0.9893000000000001 43
-12.156199999999998 -3.5312 1.6230000000000002 136
-6.4297 -1.8681999999999999 -0.2321 169
-11.8125 -3.4316000000000004 1.8691 123
-9.1094 -2.6464999999999996 -0.11 73
-12.085899999999999 -3.5117000000000003 2.2109 153
-6.167999999999999 -1.7694999999999999 -1.124 6
-9.1484 -2.625 0.1104 156
-6.1640999999999995 -1.7686000000000002 -0.9717 4
-6.175800000000001 -1.7725 -0.8208 46
-6.230499999999999 -1.7871000000000001 -0.6762999999999999 123
-15.4453 -4.4297 1.3086000000000002 75
-12.3594 -3.5469 1.3466999999999998 51
-8.9609 -2.5723000000000003 1.1943000000000001 236
-6.4453 -1.8486000000000002 -0.2323 174
-8.8906 -2.5527 1.4043 64
-15.5469 -4.4609 -0.1882 91
-12.085899999999999 -3.4668 2.209 230
-6.171900000000001 -1.7461000000000002 -1.123 82
-6.171900000000001 -1.7461000000000002 -0.9717 65
-6.167999999999999 -1.7450999999999999 -0.8188 98
-6.234400000000001 -1.7646000000000002 -0.6762999999999999 50
-15.4375 -4.3711 1.3066 142
-9.2812 -2.627 1.0098 39
-8.9609 -2.5371 1.1924 18
-6.488300000000001 -1.8359 -0.2336 7
-8.9219 -2.5234 1.4072 165
-15.4297 -4.3672 -0.1866 39
-12.093800000000002 -3.4238 2.209 47
-6.1562 -1.7197 -1.1201 131
-6.175800000000001 -1.7246000000000001 -0.9712000000000001 158
