# .PCD v0.7 - Point Cloud Data file format
VERSION 0.7
FIELDS x y z intensity
SIZE 4 4 4 4
TYPE F F F F
COUNT 1 1 1 1
WIDTH 1229
HEIGHT 1
VIEWPOINT 0 0 0 1 0 0 0
POINTS 1229
DATA ascii
12.781199999999998 -0.6187 -1.042 199
12.523399999999999 -0.606 1.3135 84
12.726600000000001 -0.6157 -0.7387999999999999 84
12.664100000000001 -0.6128 1.625 96
12.656199999999998 -0.6123 -0.4407 219
12.6797 -0.6138 1.9297 64
12.625 -0.6108 -0.1469 145
9.7188 -0.4702 1.709 210
9.3984 -0.4875 -1.6513999999999998 127
12.7031 -0.6592 0.1478 20
10.6797 -0.5542 -1.625 113
12.625 -0.6553 0.4397 150
12.4844 -0.6479 -1.6035 41
12.601600000000001 -0.6537999999999999 0.7314 185
12.593800000000002 -0.6533 -1.3213 67
12.601600000000001 -0.6537999999999999 1.0273 249
12.7969 -0.6640999999999999 -1.043 15
12.5078 -0.6489 1.3115 34
12.8281 -0.6655 -0.7445999999999999 115
12.664100000000001 -0.6572 1.626 83
12.8203 -0.665 -0.4465 153
12.6797 -0.6577 1.9287 198
12.7969 -0.6640999999999999 -0.1489 197
9.7109 -0.5039 1.7080000000000002 66
9.4141 -0.5195000000000001 -1.6553 36
12.8906 -0.7119 0.1501 14
10.6953 -0.5903 -1.6269999999999998 38
12.7969 -0.7065 0.4458 133
12.5078 -0.6904 -1.6063999999999998 7
12.593800000000002 -0.6953 0.731 79
12.601600000000001 -0.6958 -1.3222999999999998 117
12.6172 -0.6968000000000001 1.0283 174
12.6797 -0.7001999999999999 -1.0342 193
12.523399999999999 -0.6914 1.3135 51
12.6875 -0.7001999999999999 -0.7363 220
12.656199999999998 -0.6987000000000001 1.625 159
12.773399999999999 -0.7051000000000001 -0.4448 204
12.6875 -0.7001999999999999 1.9306999999999999 1
12.7969 -0.7065 -0.1489 154
13.0781 -0.7222 2.3027 8
9.4062 -0.5503 -1.6533000000000002 127
12.8906 -0.7544 0.1501 230
10.6953 -0.626 -1.6279 242
12.8203 -0.7505 0.4468 88
12.5156 -0.7323999999999999 -1.6063999999999998 27
12.585899999999999 -0.7368000000000001 0.731 63
12.585899999999999 -0.7368000000000001 -1.3213 52
12.601600000000001 -0.7373000000000001 1.0273 114
12.7969 -0.7490000000000001 -1.0439 223
12.5156 -0.7329000000000001 1.3135 190
12.8125 -0.75 -0.7441 151
12.664100000000001 -0.7412000000000001 1.626 44
12.7656 -0.7471 -0.4448 3
12.6797 -0.7422 1.9306999999999999 56
12.6953 -0.7432 -0.1478 138
13.0469 -0.7637 2.2969 55
9.4219 -0.5859000000000001 -1.6572 239
12.7344 -0.7925 0.1483 12
10.6875 -0.6646 -1.626 88
12.6406 -0.7861 0.4404 2
12.531199999999998 -0.7798 -1.6094 147
12.593800000000002 -0.7837000000000001 0.7314 223
12.601600000000001 -0.7837000000000001 -1.3222999999999998 167
12.593800000000002 -0.7831999999999999 1.0273 32
12.7969 -0.7959 -1.0439 32
12.531199999999998 -0.7798 1.3154 27
12.8203 -0.7974 -0.7445999999999999 45
12.656199999999998 -0.7870999999999999 1.626 227
12.8203 -0.7974 -0.4468 135
12.6719 -0.7886 1.9297 152
12.789100000000001 -0.7959 -0.1489 184
12.9375 -0.8051999999999999 2.2793 22
9.4062 -0.6177 -1.6543 225
12.8828 -0.8467 0.1501 15
10.6797 -0.7017 -1.625 205
12.789100000000001 -0.8403 0.4458 168
12.539100000000001 -0.8242 -1.6113 68
12.593800000000002 -0.8276 0.7319 209
12.593800000000002 -0.8276 -1.3222999999999998 162
12.593800000000002 -0.8276 1.0273 11
12.75 -0.8379000000000001 -1.04 206
12.5156 -0.8228 1.3135 151
12.718800000000002 -0.8359000000000001 -0.7393000000000001 30
12.664100000000001 -0.8320000000000001 1.6269999999999998 190
12.6797 -0.8334999999999999 -0.44189999999999996 246
12.6797 -0.8334999999999999 1.9316 46
12.6719 -0.8325 -0.1476 27
12.9219 -0.8495999999999999 2.2773 51
9.3984 -0.6504000000000001 -1.6533000000000002 239
12.7031 -0.8794 0.1481 151
10.7031 -0.7412000000000001 -1.6299000000000001 195
12.773399999999999 -0.8843000000000001 0.44530000000000003 160
12.531199999999998 -0.8672 -1.6103999999999998 132
12.585899999999999 -0.8711 0.7314 116
12.601600000000001 -0.8721 -1.3232 96
12.585899999999999 -0.8711 1.0273 162
12.773399999999999 -0.8843000000000001 -1.042 188
12.5078 -0.8656999999999999 1.3135 237
12.7969 -0.8856999999999999 -0.7437 188
12.664100000000001 -0.8765000000000001 1.6269999999999998 174
12.851600000000001 -0.8896 -0.44799999999999995 14
12.6797 -0.8779 1.9316 202
12.7344 -0.8813 -0.1484 162
12.898399999999999 -0.8931 2.2734 153
9.375 -0.6816 -1.6494 44
12.8828 -0.9365000000000001 0.1501 226
10.726600000000001 -0.7798 -1.6328 79
12.718800000000002 -0.9253 0.4436 145
12.539100000000001 -0.9116 -1.6113 193
12.5781 -0.915 0.731 84
12.6094 -0.9175 -1.3241999999999998 147
12.593800000000002 -0.9159999999999999 1.0283 248
12.710899999999999 -0.9248000000000001 -1.0371 57
12.5078 -0.9097 1.3135 54
12.6797 -0.9224 -0.7373000000000001 4
12.648399999999999 -0.9198999999999999 1.626 93
12.8281 -0.9331 -0.4473 56
12.6797 -0.9224 1.9325999999999999 146
12.7656 -0.9287000000000001 -0.14880000000000002 147
12.906199999999998 -0.9390000000000001 2.2754 177
9.375 -0.7134 -1.6513999999999998 187
12.875 -0.9795 0.1501 251
10.718800000000002 -0.8154 -1.6328 252
12.7969 -0.9731000000000001 0.44630000000000003 183
12.5469 -0.9545999999999999 -1.6133000000000002 28
12.5781 -0.9570000000000001 0.7314 191
12.593800000000002 -0.958 -1.3232 34
12.5781 -0.9570000000000001 1.0273 96
12.789100000000001 -0.9731000000000001 -1.0439 197
12.531199999999998 -0.9531000000000001 1.3163999999999998 50
12.7969 -0.9731000000000001 -0.7441 246
12.648399999999999 -0.9619 1.626 2
12.6719 -0.9639 -0.44189999999999996 255
12.6875 -0.9648 1.9336000000000002 3
12.664100000000001 -0.9634 -0.1476 7
12.898399999999999 -0.9814 2.2734 98
9.3906 -0.7456 -1.6533000000000002 13
12.7031 -1.0088 0.1481 119
10.710899999999999 -0.8506 -1.6328 158
12.6406 -1.0039 0.4412 117
12.5547 -0.9971 -1.6143 161
12.593800000000002 -1.0 0.7323999999999999 144
12.601600000000001 -1.001 -1.3241999999999998 55
12.585899999999999 -0.9995 1.0273 140
12.8125 -1.0166 -1.0459 14
12.523399999999999 -0.9941 1.3154 1
12.8047 -1.0166 -0.7445999999999999 19
12.6406 -1.0039 1.626 55
12.843800000000002 -1.0195 -0.44799999999999995 75
12.6797 -1.0068000000000001 1.9325999999999999 29
12.789100000000001 -1.0156 -0.1492 118
12.914100000000001 -1.0254 2.2773 117
9.2266 -0.7670999999999999 -1.626 212
12.8672 -1.0693000000000001 0.1501 178
10.726600000000001 -0.8911 -1.6338 15
12.7656 -1.0605 0.44530000000000003 221
12.539100000000001 -1.042 -1.6133000000000002 3
12.593800000000002 -1.0469 0.7329000000000001 199
12.6094 -1.0479 -1.3252000000000002 76
12.585899999999999 -1.0459 1.0283 238
12.6953 -1.0547 -1.0371 217
12.5156 -1.04 1.3154 59
12.6797 -1.0537 -0.7378 172
12.664100000000001 -1.0527 1.6288999999999998 48
12.7031 -1.0556999999999999 -0.4434 97
12.664100000000001 -1.0518 1.9306999999999999 3
12.773399999999999 -1.0615 -0.1489 131
12.906199999999998 -1.0723 2.2773 128
8.7578 -0.7587999999999999 -1.5430000000000001 1
12.718800000000002 -1.1016 0.1484 6
10.7422 -0.9307 -1.6377000000000002 107
12.789100000000001 -1.1074 0.4465 102
12.539100000000001 -1.0859 -1.6133000000000002 204
12.585899999999999 -1.0898 0.7323999999999999 232
12.6094 -1.0928 -1.3262 28
12.585899999999999 -1.0898 1.0283 88
12.789100000000001 -1.1074 -1.0449 184
12.4922 -1.082 1.3135 208
12.789100000000001 -1.1074 -0.7441 1
12.664100000000001 -1.0967 1.6288999999999998 80
12.7969 -1.1084 -0.4468 75
12.6719 -1.0977 1.9325999999999999 18
12.656199999999998 -1.0957 -0.1477 222
12.898399999999999 -1.1172 2.2754 39
8.6797 -0.7822 -1.5283000000000002 104
12.789100000000001 -1.1523 0.1492 30
10.7578 -0.9692000000000001 -1.6406 201
12.6406 -1.1396 0.4414 47
12.5469 -1.1309 -1.6152000000000002 86
12.5781 -1.1338 0.7319 245
12.6172 -1.1367 -1.3271000000000002 196
12.585899999999999 -1.1338 1.0283 71
12.781199999999998 -1.1523 -1.0449 133
12.5156 -1.1279000000000001 1.3154 225
12.789100000000001 -1.1523 -0.7445999999999999 25
12.648399999999999 -1.1406 1.6288999999999998 164
12.843800000000002 -1.1582 -0.4487 120
12.6719 -1.1426 1.9336000000000002 202
12.789100000000001 -1.1523 -0.1493 195
12.898399999999999 -1.1621 2.2754 116
8.6719 -0.812 -1.5283000000000002 167
12.8594 -1.2041 0.1501 82
10.75 -1.0068000000000001 -1.6396000000000002 171
12.8047 -1.1992 0.4473 121
12.5547 -1.1758 -1.6162 220
12.5781 -1.1777 0.7323999999999999 215
12.593800000000002 -1.1797 -1.3252000000000002 141
12.585899999999999 -1.1787 1.0283 79
12.726600000000001 -1.1924 -1.041 130
12.5156 -1.1719 1.3163999999999998 128
12.710899999999999 -1.1904000000000001 -0.7402 168
12.6328 -1.1836 1.6269999999999998 154
12.6953 -1.1895 -0.4436 3
12.6719 -1.1865 1.9346 71
12.6406 -1.1836 -0.1476 126
12.8906 -1.207 2.2754 142
8.6953 -0.8447 -1.5332 153
12.726600000000001 -1.2363 0.14859999999999998 197
10.7344 -1.043 -1.6377000000000002 166
12.710899999999999 -1.2354 0.4443 37
12.5703 -1.2217 -1.6191 238
12.5781 -1.2227 0.7329000000000001 165
12.585899999999999 -1.2227 -1.3241999999999998 65
12.5781 -1.2217 1.0283 84
12.6953 -1.2334 -1.0381 106
12.523399999999999 -1.2168 1.3174000000000001 8
12.726600000000001 -1.2373 -0.7417 132
12.6406 -1.2275 1.6279 36
12.726600000000001 -1.2373 -0.4448 220
12.664100000000001 -1.2305 1.9336000000000002 87
12.726600000000001 -1.2363 -0.1487 170
12.898399999999999 -1.2529000000000001 2.2773 219
8.6953 -0.8759999999999999 -1.5341999999999998 223
12.726600000000001 -1.2812000000000001 0.1487 205
10.75 -1.083 -1.6416 141
12.718800000000002 -1.2803 0.4446 209
12.539100000000001 -1.2627 -1.6162 18
12.585899999999999 -1.2676 0.7334 39
12.5781 -1.2666 -1.3241999999999998 80
12.5781 -1.2666 1.0293 63
12.5781 -1.2666 -1.0283 27
12.5156 -1.2598 1.3174000000000001 111
12.593800000000002 -1.2676 -0.7339 17
12.656199999999998 -1.2744 1.6309 74
12.6094 -1.2695 -0.4407 223
12.656199999999998 -1.2744 1.9325999999999999 227
12.625 -1.2715 -0.1475 140
12.8906 -1.2978999999999998 2.2773 247
8.7031 -0.9067000000000001 -1.5352000000000001 127
12.6406 -1.3174000000000001 0.1477 197
10.75 -1.1211 -1.6416 218
12.664100000000001 -1.3203 0.4429 92
12.539100000000001 -1.3075999999999999 -1.6162 241
12.5781 -1.3105000000000002 0.7329000000000001 31
12.5781 -1.3105000000000002 -1.3241999999999998 119
12.5781 -1.3105000000000002 1.0293 124
12.5781 -1.3105000000000002 -1.0293 228
12.5 -1.3027000000000002 1.3163999999999998 102
12.5703 -1.3105000000000002 -0.7329000000000001 79
12.656199999999998 -1.3193000000000001 1.6318000000000001 206
12.593800000000002 -1.3125 -0.44020000000000004 87
12.656199999999998 -1.3193000000000001 1.9336000000000002 112
12.5547 -1.3086000000000002 -0.1467 37
12.8047 -1.334 2.2617 201
9.3672 -1.0088 -1.6533000000000002 202
12.5703 -1.3544999999999998 0.147 8
10.773399999999999 -1.1611 -1.6455000000000002 253
12.5781 -1.3555000000000001 0.4399 17
12.539100000000001 -1.3516 -1.6172 37
12.5625 -1.3535 0.7329000000000001 120
12.5703 -1.3544999999999998 -1.3241999999999998 177
12.5781 -1.3555000000000001 1.0303 189
12.5781 -1.3555000000000001 -1.0303 79
12.5078 -1.3477000000000001 1.3174000000000001 25
12.5547 -1.3525 -0.7319 15
12.648399999999999 -1.3622999999999998 1.6309 212
12.585899999999999 -1.3563999999999998 -0.44020000000000004 249
12.6719 -1.3652000000000002 1.9365 123
12.5625 -1.3544999999999998 -0.1469 169
12.7656 -1.375 2.2559 228
9.4062 -1.0469 -1.6611000000000002 35
12.5625 -1.3984 0.147 20
10.7578 -1.1973 -1.6444999999999999 104
12.5781 -1.3994 0.44020000000000004 108
12.531199999999998 -1.3944999999999999 -1.6172 14
12.5625 -1.3984 0.7329000000000001 250
12.5625 -1.3984 -1.3241999999999998 45
12.5781 -1.3994 1.0303 243
12.5781 -1.3994 -1.0303 253
12.5 -1.3906 1.3174000000000001 24
12.5703 -1.3994 -0.7334 34
12.6406 -1.4062000000000001 1.6299000000000001 73
12.5781 -1.4003999999999999 -0.44020000000000004 151
12.6797 -1.4111000000000002 1.9385 175
12.5703 -1.3984 -0.147 192
12.781199999999998 -1.4219 2.2598 43
9.4297 -1.083 -1.6669999999999998 72
12.5703 -1.4434 0.1471 23
10.7656 -1.2363 -1.6455000000000002 7
12.5703 -1.4434 0.44020000000000004 174
12.5547 -1.4413999999999998 -1.6200999999999999 216
12.5703 -1.4434 0.7334 171
12.5625 -1.4424000000000001 -1.3252000000000002 94
12.5703 -1.4434 1.0303 178
12.5703 -1.4434 -1.0303 162
12.5078 -1.4365 1.3193000000000001 133
12.5703 -1.4434 -0.7334 119
12.6406 -1.4512 1.6309 67
12.5625 -1.4424000000000001 -0.4397 148
12.664100000000001 -1.4541 1.9365 133
12.5781 -1.4434 -0.1471 223
12.8125 -1.4707 2.2656 154
9.4375 -1.1143 -1.6688999999999998 154
12.585899999999999 -1.4853999999999998 0.14730000000000001 142
10.781199999999998 -1.2725 -1.6494 57
12.5703 -1.4834 0.44020000000000004 153
12.539100000000001 -1.4794999999999998 -1.6191 220
12.585899999999999 -1.4853999999999998 0.7343999999999999 189
12.5703 -1.4834 -1.3262 139
12.5625 -1.4824000000000002 1.0293 183
12.5625 -1.4824000000000002 -1.0293 167
12.5 -1.4746000000000001 1.3184 85
12.5781 -1.4844 -0.7343999999999999 215
12.6406 -1.4922 1.6318000000000001 242
12.593800000000002 -1.4853999999999998 -0.4409 30
12.664100000000001 -1.4941 1.9385 149
12.5625 -1.4824000000000002 -0.1471 126
12.8906 -1.5215 2.2812 64
9.4297 -1.1445 -1.6680000000000001 113
12.5781 -1.5263999999999998 0.14730000000000001 182
10.781199999999998 -1.3086000000000002 -1.6494 32
12.5625 -1.5253999999999999 0.44020000000000004 237
12.531199999999998 -1.5205000000000002 -1.6181999999999999 53
12.5781 -1.5263999999999998 0.7343999999999999 162
12.5781 -1.5263999999999998 -1.3271000000000002 239
12.5781 -1.5263999999999998 1.0312000000000001 91
12.5625 -1.5253999999999999 -1.0303 164
12.5 -1.5175999999999998 1.3193000000000001 14
12.5703 -1.5253999999999999 -0.7339 60
12.648399999999999 -1.5352000000000001 1.6338 67
12.5781 -1.5272999999999999 -0.4407 199
12.664100000000001 -1.5371000000000001 1.9385 28
12.5547 -1.5234 -0.147 71
9.4141 -1.1777 -1.665 149
12.5781 -1.5732 0.14730000000000001 195
10.781199999999998 -1.3486000000000002 -1.6503999999999999 10
12.5781 -1.5732 0.4409 85
12.531199999999998 -1.5674000000000001 -1.6181999999999999 193
12.5703 -1.5722999999999998 0.7343999999999999 144
12.5625 -1.5713 -1.3262 13
12.5781 -1.5741999999999998 1.0322 88
12.5781 -1.5732 -1.0312000000000001 9
12.4922 -1.5635 1.3193000000000001 13
12.5547 -1.5703 -0.7334 124
12.6406 -1.5811000000000002 1.6338 206
12.585899999999999 -1.5741999999999998 -0.4412 135
12.664100000000001 -1.584 1.9394999999999998 84
12.5625 -1.5713 -0.1471 212
12.914100000000001 -1.6152000000000002 2.2871 51
9.4297 -1.2129 -1.6688999999999998 194
12.5625 -1.6152000000000002 0.1472 138
10.781199999999998 -1.3866999999999998 -1.6513999999999998 124
12.5781 -1.6181999999999999 0.4409 98
12.539100000000001 -1.6133000000000002 -1.6211000000000002 37
12.5625 -1.6162 0.7343999999999999 249
12.5547 -1.6152000000000002 -1.3262 75
12.5625 -1.6162 1.0312000000000001 74
12.5703 -1.6172 -1.0322 82
12.5078 -1.6084 1.3203 6
12.5625 -1.6162 -0.7343999999999999 226
12.6328 -1.625 1.6328 21
12.585899999999999 -1.6181999999999999 -0.4412 11
12.664100000000001 -1.6288999999999998 1.9404 247
12.5781 -1.6172 -0.14730000000000001 175
12.9219 -1.6621000000000001 2.291 18
9.4531 -1.249 -1.6738 205
12.5781 -1.6621000000000001 0.1475 56
10.773399999999999 -1.4247999999999998 -1.6513999999999998 47
12.5703 -1.6611000000000002 0.4409 19
12.5469 -1.6591999999999998 -1.6230000000000002 69
12.5703 -1.6611000000000002 0.7349 133
12.5625 -1.6602000000000001 -1.3271000000000002 185
12.5625 -1.6602000000000001 1.0312000000000001 215
12.5625 -1.6602000000000001 -1.0312000000000001 218
12.4922 -1.6513999999999998 1.3203 87
12.5703 -1.6621000000000001 -0.7354 189
12.6406 -1.6709 1.6347999999999998 239
12.5625 -1.6602000000000001 -0.4407 255
12.656199999999998 -1.6728999999999998 1.9394999999999998 254
12.5625 -1.6611000000000002 -0.14730000000000001 201
12.906199999999998 -1.7061000000000002 2.2891 152
9.4531 -1.2832 -1.6747999999999998 114
12.5703 -1.7061000000000002 0.1475 233
10.781199999999998 -1.4628999999999999 -1.6522999999999999 228
12.5625 -1.7050999999999998 0.4409 107
12.523399999999999 -1.7002000000000002 -1.6200999999999999 118
12.5703 -1.7061000000000002 0.7354 121
12.5703 -1.7061000000000002 -1.3291 201
12.5703 -1.7061000000000002 1.0322 142
12.5625 -1.7050999999999998 -1.0312000000000001 53
12.4922 -1.6963 1.3203 211
12.5703 -1.7069999999999999 -0.7354 191
12.656199999999998 -1.7178 1.6366999999999998 3
12.5703 -1.7061000000000002 -0.4412 124
12.6406 -1.7158000000000002 1.9385 141
12.5547 -1.7050999999999998 -0.14730000000000001 247
12.914100000000001 -1.7529 2.2891 47
9.4609 -1.3193000000000001 -1.6768 206
12.5781 -1.7549000000000001 0.1477 28
10.789100000000001 -1.5049000000000001 -1.6543 244
12.5625 -1.7519999999999998 0.4412 127
12.523399999999999 -1.7461000000000002 -1.6211000000000002 210
12.5547 -1.751 0.7349 251
12.5703 -1.7538999999999998 -1.3300999999999998 51
12.5703 -1.7538999999999998 1.0332 114
12.5625 -1.7519999999999998 -1.0322 120
12.4844 -1.7412 1.3203 112
12.5625 -1.7519999999999998 -0.7354 152
12.648399999999999 -1.7646000000000002 1.6377000000000002 88
12.5625 -1.7519999999999998 -0.4412 73
12.625 -1.7607 1.9375 120
12.5469 -1.75 -0.1472 21
12.898399999999999 -1.7988 2.2891 208
9.4375 -1.3506 -1.6738 215
12.5703 -1.7978999999999998 0.1476 62
10.8047 -1.5449000000000002 -1.6572 92
12.5703 -1.7978999999999998 0.44170000000000004 95
12.5078 -1.7891 -1.6200999999999999 195
12.5547 -1.7949000000000002 0.7349 183
12.5625 -1.7978999999999998 -1.3300999999999998 160
12.5781 -1.7988 1.0342 119
12.5625 -1.7969 -1.0332 254
12.4844 -1.7861000000000002 1.3213 165
12.5469 -1.7949000000000002 -0.7349 205
12.6406 -1.8086000000000002 1.6377000000000002 2
12.5625 -1.7969 -0.4414 53
12.6328 -1.8066 1.9394999999999998 85
12.5547 -1.7959 -0.1475 154
12.898399999999999 -1.8447 2.291 58
9.4453 -1.3818000000000001 -1.6768 4
12.5469 -1.835 0.14730000000000001 178
10.773399999999999 -1.5762 -1.6543 109
12.5781 -1.8397999999999999 0.4421 64
12.539100000000001 -1.834 -1.625 154
12.5625 -1.8378999999999999 0.7363 250
12.5469 -1.835 -1.3281 252
12.5625 -1.8369 1.0332 93
12.5625 -1.8369 -1.0332 174
12.5 -1.8281 1.3232 140
12.5469 -1.835 -0.7354 110
12.625 -1.8466999999999998 1.6357 144
12.5547 -1.8359 -0.4412 15
12.625 -1.8466999999999998 1.9394999999999998 114
12.5625 -1.8369 -0.1476 26
12.906199999999998 -1.8877000000000002 2.293 223
9.4688 -1.4169999999999998 -1.6806999999999999 191
12.5625 -1.8799000000000001 0.1477 245
10.773399999999999 -1.6113 -1.6543 166
12.5625 -1.8799000000000001 0.44189999999999996 88
12.531199999999998 -1.875 -1.625 63
12.5703 -1.8809 0.7368000000000001 25
12.5625 -1.8799000000000001 -1.3311000000000002 47
12.5469 -1.8769999999999998 1.0322 243
12.5547 -1.8779 -1.0332 129
12.5 -1.8700999999999999 1.3241999999999998 29
12.5625 -1.8799000000000001 -0.7363 26
12.648399999999999 -1.8925999999999998 1.6396000000000002 1
12.5469 -1.8769999999999998 -0.4412 39
12.625 -1.8887 1.9394999999999998 178
12.5703 -1.8809 -0.1477 248
12.898399999999999 -1.9306999999999999 2.293 190
9.4609 -1.4512 -1.6806999999999999 220
12.5625 -1.9268 0.1477 133
10.773399999999999 -1.6522999999999999 -1.6562000000000001 88
12.5547 -1.9247999999999998 0.44170000000000004 193
12.539100000000001 -1.9228999999999998 -1.626 156
12.5703 -1.9277000000000002 0.7373000000000001 203
12.5703 -1.9277000000000002 -1.3319999999999999 54
12.5625 -1.9268 1.0352 101
12.5469 -1.9247999999999998 -1.0332 118
12.4844 -1.9141 1.3222999999999998 32
12.5625 -1.9268 -0.7368000000000001 47
12.648399999999999 -1.9404 1.6406 155
12.5547 -1.9247999999999998 -0.44170000000000004 246
12.6094 -1.9346 1.9394999999999998 109
12.5547 -1.9258000000000002 -0.1476 93
12.898399999999999 -1.9775 2.293 242
9.4688 -1.4853999999999998 -1.6825999999999999 161
12.5781 -1.9736000000000002 0.1479 192
10.8047 -1.6953 -1.6611000000000002 145
12.5547 -1.9707 0.4421 151
12.531199999999998 -1.9668 -1.626 114
12.5625 -1.9716999999999998 0.7373000000000001 145
12.5625 -1.9716999999999998 -1.3319999999999999 15
12.5625 -1.9727000000000001 1.0352 119
12.5469 -1.9687999999999999 -1.0332 244
12.468800000000002 -1.9569999999999999 1.3222999999999998 134
12.5469 -1.9687999999999999 -0.7363 55
12.656199999999998 -1.9863 1.6425999999999998 95
12.5547 -1.9707 -0.4421 246
12.6172 -1.9805000000000001 1.9413999999999998 217
12.531199999999998 -1.9668 -0.1475 33
12.906199999999998 -2.0254 2.2949 47
9.4531 -1.5166 -1.6797 115
12.5703 -2.0176 0.1481 198
10.8047 -1.7344 -1.6621000000000001 92
12.5625 -2.0156 0.4424 70
12.5469 -2.0137 -1.6288999999999998 127
12.5469 -2.0137 0.7368000000000001 54
12.5625 -2.0176 -1.3330000000000002 141
12.5781 -2.0195 1.0371 109
12.5469 -2.0137 -1.0342 219
12.4844 -2.0039 1.3241999999999998 97
12.539100000000001 -2.0117 -0.7358 206
12.648399999999999 -2.0293 1.6416 52
12.5703 -2.0176 -0.4429 181
12.625 -2.0273 1.9434 202
12.5547 -2.0156 -0.1478 193
12.9375 -2.0762 2.3027 217
9.4688 -1.5537 -1.6836000000000002 159
12.5469 -2.0586 0.1478 27
10.7969 -1.7715 -1.6621000000000001 210
12.5781 -2.0645 0.4434 187
12.5469 -2.0586 -1.6299000000000001 116
12.5547 -2.0605 0.7378 216
12.5547 -2.0605 -1.3330000000000002 154
12.5625 -2.0625 1.0361 199
12.5469 -2.0586 -1.0352 202
12.5 -2.0508 1.3262 32
12.539100000000001 -2.0586 -0.7368000000000001 82
12.6172 -2.0703 1.6396000000000002 161
12.5625 -2.0625 -0.4429 122
12.6172 -2.0703 1.9434 116
12.5625 -2.0625 -0.1479 140
12.968800000000002 -2.127 2.3086 217
9.4688 -1.5888999999999998 -1.6855000000000002 111
12.5547 -2.1055 0.1479 15
10.8047 -1.8115 -1.6641 251
12.5547 -2.1055 0.4429 227
12.5547 -2.1055 -1.6318000000000001 157
12.5625 -2.1055 0.7383 85
12.5547 -2.1055 -1.3330000000000002 37
12.5547 -2.1055 1.0361 65
12.539100000000001 -2.1035 -1.0352 113
12.4844 -2.0938 1.3262 212
12.5469 -2.1035 -0.7373000000000001 55
12.648399999999999 -2.1211 1.6444999999999999 119
12.5547 -2.1055 -0.4426 71
12.6172 -2.1152 1.9443000000000001 87
12.539100000000001 -2.1035 -0.1478 1
12.8906 -2.1621 2.2988 82
9.5 -1.6279 -1.6924000000000001 41
12.5625 -2.1523 0.1481 234
10.8125 -1.8516 -1.666 137
12.5469 -2.1484 0.4426 154
12.539100000000001 -2.1484 -1.6309 189
12.5547 -2.1504 0.7383 126
12.5625 -2.1523 -1.335 105
12.5547 -2.1504 1.0371 134
12.531199999999998 -2.1465 -1.0352 96
12.4922 -2.1387 1.3271000000000002 236
12.5469 -2.1484 -0.7378 155
12.6328 -2.1641 1.6436000000000002 80
12.5547 -2.1504 -0.4429 197
12.593800000000002 -2.1582 1.9424000000000001 23
12.531199999999998 -2.1465 -0.1478 89
12.8906 -2.209 2.2988 190
9.4766 -1.6611000000000002 -1.6894999999999998 150
12.5625 -2.2012 0.1483 234
10.8047 -1.8936000000000002 -1.666 143
12.5469 -2.1992 0.4429 96
12.539100000000001 -2.1973 -1.6318000000000001 5
12.5547 -2.1992 0.7387999999999999 166
12.5703 -2.2031 -1.3369 101
12.5703 -2.2031 1.0391 220
12.531199999999998 -2.1973 -1.0361 224
12.4844 -2.1875 1.3271000000000002 239
12.539100000000001 -2.1973 -0.7378 75
12.648399999999999 -2.2168 1.6465 253
12.5703 -2.2031 -0.44380000000000003 72
12.6094 -2.209 1.9453 35
12.531199999999998 -2.1953 -0.1478 195
12.8906 -2.2598 2.3008 238
8.2734 -1.4813999999999998 -1.4746000000000001 47
12.5469 -2.2461 0.1482 86
10.8281 -1.9394999999999998 -1.6709 94
12.5547 -2.248 0.4436 187
12.5469 -2.2461 -1.6338 148
12.5547 -2.2461 0.7393000000000001 164
12.5547 -2.248 -1.3359 192
12.5703 -2.25 1.0391 124
12.5469 -2.2461 -1.0381 94
12.4844 -2.2344 1.3281 16
12.523399999999999 -2.2422 -0.7378 231
12.6172 -2.2598 1.6436000000000002 9
12.5625 -2.25 -0.44380000000000003 112
12.6172 -2.2578 1.9472999999999998 197
12.5469 -2.2461 -0.1481 34
12.8828 -2.3066 2.2988 225
8.2422 -1.5 -1.4697 234
12.5469 -2.2852 0.1482 168
8.25 -1.5029 -1.2725 119
12.5547 -2.2871 0.44380000000000003 234
12.539100000000001 -2.2832 0.7387999999999999 121
12.5469 -2.2852 -1.3359 140
12.5547 -2.2852 1.0391 3
12.5469 -2.2832 -1.0381 90
12.4922 -2.2754 1.3300999999999998 118
12.523399999999999 -2.2812 -0.7383 99
12.6172 -2.2969 1.6444999999999999 136
12.5703 -2.2891 -0.4443 33
12.6172 -2.2969 1.9491999999999998 203
12.5547 -2.2852 -0.1483 107
12.8828 -2.3457 2.3027 225
8.2344 -1.5272999999999999 -1.4697 68
12.5547 -2.3301 0.1484 243
8.2578 -1.5322 -1.2744 248
12.5469 -2.3281 0.44380000000000003 9
8.2734 -1.5341999999999998 -1.0771 243
12.5547 -2.3301 0.7402 193
8.2734 -1.5352000000000001 -0.8798999999999999 72
12.5469 -2.3281 1.0391 80
12.5547 -2.3301 -1.0391 223
12.4922 -2.3184 1.3311000000000002 22
12.539100000000001 -2.3262 -0.7397 34
12.6328 -2.3438 1.6475 15
12.5469 -2.3281 -0.44380000000000003 160
12.6094 -2.3398 1.9491999999999998 74
12.5547 -2.3281 -0.1484 21
12.914100000000001 -2.3965 2.3086 64
9.4844 -1.7959 -1.6943000000000001 94
12.539100000000001 -2.375 0.1483 1
10.8203 -2.0488 -1.6728999999999998 45
12.539100000000001 -2.375 0.44380000000000003 14
12.539100000000001 -2.373 -1.6357 4
12.5547 -2.377 0.7406999999999999 159
12.5547 -2.377 -1.3388999999999998 60
12.5469 -2.375 1.04 122
8.2812 -1.5684 -0.6851 203
12.4844 -2.3633 1.3311000000000002 68
8.2969 -1.5703 -0.4885 90
12.625 -2.3906 1.6475 236
12.6172 -2.3887 1.9512 52
12.5469 -2.375 -0.1484 150
12.9375 -2.4492 2.3145 69
9.4844 -1.8300999999999998 -1.6953 38
12.5703 -2.4258 0.14880000000000002 216
10.8281 -2.0898 -1.6747999999999998 170
12.531199999999998 -2.418 0.44409999999999994 17
12.539100000000001 -2.418 -1.6366999999999998 159
12.5469 -2.4199 0.7406999999999999 128
12.5547 -2.4219 -1.3388999999999998 156
12.5547 -2.4219 1.041 9
12.5547 -2.4219 -1.041 14
12.4844 -2.4102 1.3319999999999999 78
8.2969 -1.6016 -0.489 14
12.6172 -2.4336 1.6475 116
8.3281 -1.6063999999999998 -0.2944 155
12.601600000000001 -2.4316 1.9502000000000002 119
8.2969 -1.6006 -0.098 7
12.906199999999998 -2.4902 2.3105 92
9.4844 -1.8652000000000002 -1.6972999999999998 45
8.3516 -1.6436000000000002 0.0986 140
10.851600000000001 -2.1348 -1.6797 80
12.539100000000001 -2.4668 0.4446 65
12.531199999999998 -2.4668 -1.6377000000000002 138
12.5469 -2.4688 0.7412000000000001 118
12.6406 -2.4863 -1.3486000000000002 209
12.5703 -2.4727 1.043 186
12.5547 -2.4688 -1.041 244
12.4844 -2.4551 1.3319999999999999 238
12.5547 -2.4707 -0.7417 170
12.6172 -2.4824 1.6484 11
12.5781 -2.4746 -0.4458 189
12.6172 -2.4824 1.9541 195
8.3125 -1.6357 -0.09820000000000001 33
9.5 -1.9033000000000002 -1.7002000000000002 38
8.3203 -1.6680000000000001 0.0984 124
10.8203 -2.168 -1.6768 70
8.3438 -1.6709 0.2952 3
12.5469 -2.5137 -1.6396000000000002 15
8.3594 -1.6738 0.4932 51
12.656199999999998 -2.5352 -1.3525 101
12.5469 -2.5137 1.042 59
12.710899999999999 -2.5469 -1.0547 250
12.476600000000001 -2.5 1.3330000000000002 186
12.6719 -2.5391 -0.7495 172
12.6094 -2.5273 1.6494 156
12.6172 -2.5293 -0.44780000000000003 172
12.625 -2.5293 1.9569999999999999 64
12.7578 -2.5566 2.2871 22
9.5156 -1.9404 -1.7050999999999998 27
12.601600000000001 -2.5702999999999996 0.1495 206
10.8281 -2.209 -1.6787 194
8.3203 -1.6972999999999998 0.29469999999999996 188
12.539100000000001 -2.5566 -1.6406 215
8.3438 -1.7021000000000002 0.4927 65
12.664100000000001 -2.5839999999999996 -1.3535 99
8.3438 -1.7021000000000002 0.6919 148
12.75 -2.5995999999999997 -1.0586 184
8.3906 -1.7119 0.8955 148
12.7656 -2.6035000000000004 -0.7554000000000001 99
12.6094 -2.5723000000000003 1.6503999999999999 39
12.7344 -2.5976999999999997 -0.4521 69
12.6094 -2.5723000000000003 1.9561000000000002 37
12.75 -2.6016000000000004 -0.1512 123
12.7578 -2.6035000000000004 2.2891 46
9.5078 -1.9746000000000001 -1.7050999999999998 190
12.75 -2.6483999999999996 0.1514 120
10.843800000000002 -2.25 -1.6816 167
12.656199999999998 -2.6289 0.4497 248
12.531199999999998 -2.6016000000000004 -1.6406 161
12.5547 -2.6055 0.7432 138
12.6797 -2.6327999999999996 -1.3563999999999998 17
8.3281 -1.7285 0.6909000000000001 170
12.7578 -2.6483999999999996 -1.0605 47
8.375 -1.7393 0.8945000000000001 108
12.6953 -2.6367000000000003 -0.752 224
8.3828 -1.7402000000000002 1.0957 89
12.718800000000002 -2.6406 -0.45189999999999997 92
12.601600000000001 -2.6172000000000004 1.9561000000000002 249
12.6719 -2.6308999999999996 -0.15039999999999998 162
12.7656 -2.6504000000000003 2.293 105
9.5 -2.0039 -1.7041 14
10.8281 -2.2871 -1.6816 224
12.7031 -2.6816000000000004 0.4517 23
12.523399999999999 -2.6445 -1.6416 28
12.539100000000001 -2.6483999999999996 0.7432 253
12.6797 -2.6757999999999997 -1.3574000000000002 99
12.5469 -2.6483999999999996 1.0439 157
12.7578 -2.6933999999999996 -1.0615 197
12.468800000000002 -2.6308999999999996 1.334 98
12.7422 -2.6895 -0.7548999999999999 105
8.3359 -1.7588 1.0898 242
12.7656 -2.6952999999999996 -0.4539 235
12.601600000000001 -2.6601999999999997 1.9580000000000002 14
12.7422 -2.6895 -0.1514 238
12.8203 -2.7051 2.3027 121
9.5 -2.0391 -1.7061000000000002 45
10.8203 -2.3223 -1.6816 126
12.710899999999999 -2.7266000000000004 0.4521 100
12.523399999999999 -2.6875 -1.6425999999999998 172
12.531199999999998 -2.6875 0.7426999999999999 104
12.6719 -2.7188 -1.3574000000000002 142
12.539100000000001 -2.6914 1.0439 193
12.6875 -2.7207 -1.0556999999999999 147
12.476600000000001 -2.6776999999999997 1.3369 115
12.7031 -2.7266000000000004 -0.7534000000000001 30
12.6172 -2.707 1.6553 2
12.75 -2.7363 -0.4536 108
12.6172 -2.707 1.9609 171
12.7344 -2.7324 -0.1515 55
12.843800000000002 -2.7558999999999996 2.3086 118
9.5156 -2.0762 -1.71 203
12.8125 -2.7949 0.1525 167
10.843800000000002 -2.3652 -1.6855000000000002 181
12.75 -2.7832 0.4539 92
12.531199999999998 -2.7344 -1.6444999999999999 63
12.539100000000001 -2.7363 0.7437 84
12.664100000000001 -2.7637 -1.3574000000000002 68
12.5156 -2.7324 1.043 18
12.75 -2.7832 -1.0625 90
12.4922 -2.7245999999999997 1.3388999999999998 226
12.726600000000001 -2.7773000000000003 -0.7554000000000001 5
12.6172 -2.7539 1.6562000000000001 18
12.7656 -2.7851999999999997 -0.4546 4
12.6172 -2.752 1.9619 226
12.726600000000001 -2.7773000000000003 -0.1515 25
12.8594 -2.8066000000000004 2.3145 4
9.5156 -2.1094 -1.7119 159
10.835899999999999 -2.4023 -1.6865 151
12.7344 -2.8223000000000003 0.4536 21
12.539100000000001 -2.7812 -1.6465 3
12.5469 -2.7812 0.7451000000000001 214
12.6797 -2.8105 -1.3603999999999998 154
12.5 -2.7714999999999996 1.042 149
12.710899999999999 -2.8183999999999996 -1.0595999999999999 147
12.4844 -2.7676 1.3388999999999998 243
12.718800000000002 -2.8202999999999996 -0.7554000000000001 161
12.6172 -2.7969 1.6562000000000001 209
12.781199999999998 -2.8339999999999996 -0.45530000000000004 22
12.6172 -2.7969 1.9638999999999998 21
12.726600000000001 -2.8223000000000003 -0.1516 108
12.9219 -2.8651999999999997 2.3262 67
9.5078 -2.1445 -1.7109 104
12.789100000000001 -2.8848000000000003 0.1525 85
10.843800000000002 -2.4473 -1.6894999999999998 89
12.7344 -2.873 0.45409999999999995 63
12.531199999999998 -2.8262 -1.6465 141
12.5469 -2.8301 0.7456 124
12.6719 -2.8574 -1.3603999999999998 85
12.5078 -2.8223000000000003 1.0439 193
12.773399999999999 -2.8808999999999996 -1.0664 22
12.4844 -2.8145 1.3397999999999999 216
12.7578 -2.877 -0.7583 95
12.625 -2.8476999999999997 1.6591999999999998 42
12.6953 -2.8632999999999997 -0.4526 168
12.593800000000002 -2.8398000000000003 1.9619 4
12.7031 -2.8651999999999997 -0.1514 153
12.8906 -2.9062 2.3223 204
9.5156 -2.1816 -1.7138999999999998 95
12.781199999999998 -2.9297000000000004 0.1525 228
10.843800000000002 -2.4844 -1.6894999999999998 2
12.7578 -2.9238 0.45530000000000004 248
12.523399999999999 -2.8711 -1.6475 180
12.539100000000001 -2.875 0.7461 23
12.6797 -2.9062 -1.3633000000000002 109
12.5078 -2.8672000000000004 1.0449 249
12.7422 -2.9199 -1.0645 183
12.460899999999999 -2.8555 1.3388999999999998 36
12.7578 -2.9238 -0.7587999999999999 41
12.6172 -2.8926 1.6602000000000001 218
12.7969 -2.9316000000000004 -0.45649999999999996 155
12.6094 -2.8887 1.9658000000000002 105
12.7969 -2.9316000000000004 -0.15259999999999999 35
12.875 -2.9512 2.3203 212
9.4922 -2.2109 -1.7119 224
12.8047 -2.9824 0.1528 143
10.8594 -2.5293 -1.6934 190
12.710899999999999 -2.9608999999999996 0.45409999999999995 241
12.523399999999999 -2.918 -1.6494 174
12.523399999999999 -2.918 0.7456 136
12.6719 -2.9512 -1.3622999999999998 239
12.5078 -2.9141000000000004 1.0459 47
12.7422 -2.9668 -1.0645 236
12.468800000000002 -2.9043 1.3408000000000002 143
12.6953 -2.9551 -0.7554000000000001 50
12.6172 -2.9375 1.6611000000000002 93
12.7344 -2.9648000000000003 -0.4548 232
12.601600000000001 -2.9355 1.9668 195
12.726600000000001 -2.9648000000000003 -0.1519 3
12.851600000000001 -2.9941000000000004 2.3203 54
9.5156 -2.252 -1.7168 108
12.8594 -3.0410000000000004 0.1536 43
10.8672 -2.5702999999999996 -1.6963 11
12.7969 -3.0273000000000003 0.4575 146
12.523399999999999 -2.9629000000000003 -1.6503999999999999 51
12.531199999999998 -2.9648000000000003 0.7465999999999999 162
12.664100000000001 -2.9961 -1.3633000000000002 100
12.5 -2.957 1.0459 253
12.773399999999999 -3.0214999999999996 -1.0684 85
12.476600000000001 -2.9531 1.3428 183
12.7422 -3.0156 -0.7593000000000001 138
12.6094 -2.9824 1.6611000000000002 88
12.7422 -3.0137 -0.4556 198
12.593800000000002 -2.9805 1.9668 180
12.7344 -3.0117000000000003 -0.1521 182
12.8672 -3.0449 2.3242 101
9.5234 -2.2871 -1.7197 235
10.843800000000002 -2.6055 -1.6943000000000001 136
12.7578 -3.0645 0.45630000000000004 70
12.523399999999999 -3.0098000000000003 -1.6513999999999998 36
12.531199999999998 -3.0117000000000003 0.7476 156
12.664100000000001 -3.043 -1.3643 138
12.4922 -3.002 1.0459 20
12.6953 -3.0507999999999997 -1.0635 183
12.476600000000001 -2.998 1.3437999999999999 39
12.718800000000002 -3.0566000000000004 -0.7587999999999999 56
12.6094 -3.0293 1.6621000000000001 213
12.7422 -3.0625 -0.4558 2
12.593800000000002 -3.0254000000000003 1.9678 222
12.75 -3.0625 -0.1523 78
12.8672 -3.0918 2.3262 124
9.5234 -2.3223 -1.7207 72
10.8672 -2.6504000000000003 -1.6991999999999998 130
12.726600000000001 -3.1055 0.4558 186
12.523399999999999 -3.0547000000000004 -1.6522999999999999 105
12.539100000000001 -3.0586 0.748 81
12.664100000000001 -3.0879000000000003 -1.3652000000000002 82
12.5 -3.0488 1.0469 147
12.718800000000002 -3.1016000000000004 -1.0654000000000001 197
12.460899999999999 -3.0391000000000004 1.3428 96
12.773399999999999 -3.1151999999999997 -0.7622 109
12.6094 -3.0762 1.6641 165
12.7344 -3.1055 -0.4558 2
12.585899999999999 -3.0702999999999996 1.9687999999999999 92
12.7422 -3.1094 -0.1525 111
12.8672 -3.1387 2.3281 161
9.5156 -2.3574 -1.7207 137
12.8281 -3.1757999999999997 0.1536 196
10.8672 -2.6914 -1.7012 224
12.781199999999998 -3.1660000000000004 0.45799999999999996 184
12.5156 -3.0995999999999997 -1.6522999999999999 183
12.523399999999999 -3.1016000000000004 0.748 60
12.6719 -3.1367000000000003 -1.3672 248
12.5 -3.0957 1.0479 63
12.7031 -3.1445 -1.0654000000000001 213
12.4531 -3.0858999999999996 1.3437999999999999 32
12.75 -3.1582 -0.7617 188
12.625 -3.125 1.6669999999999998 186
12.7656 -3.1620999999999997 -0.4575 151
12.601600000000001 -3.1211 1.9736000000000002 119
12.7344 -3.1523000000000003 -0.1525 191
12.8594 -3.1855 2.3281 0
9.5078 -2.3906 -1.7216999999999998 0
10.875 -2.7344 -1.7031 82
12.7031 -3.1933999999999996 0.4558 54
12.5156 -3.1445 -1.6543 20
12.523399999999999 -3.1464999999999996 0.7484999999999999 128
12.656199999999998 -3.1816000000000004 -1.3672 237
12.5 -3.1426 1.0498 126
12.7578 -3.207 -1.0713 31
12.4531 -3.1308999999999996 1.3447 166
12.710899999999999 -3.1952999999999996 -0.7598 175
12.6094 -3.1699 1.6669999999999998 46
12.6719 -3.1855 -0.4546 162
12.601600000000001 -3.168 1.9756 108
12.7344 -3.1992000000000003 -0.15259999999999999 8
12.8672 -3.2344 2.332 58
9.4922 -2.4199 -1.7197 141
10.8672 -2.7695 -1.7031 93
12.781199999999998 -3.2577999999999996 0.4587 187
12.523399999999999 -3.1933999999999996 -1.6572 70
12.531199999999998 -3.1933999999999996 0.7495 233
12.656199999999998 -3.2266000000000004 -1.3681999999999999 194
12.4922 -3.1836 1.0498 226
12.789100000000001 -3.2598000000000003 -1.0742 186
12.468800000000002 -3.1776999999999997 1.3477000000000001 134
12.7656 -3.2539 -0.7637 177
12.601600000000001 -3.2129000000000003 1.6669999999999998 173
12.789100000000001 -3.2617000000000003 -0.4592 82
12.6094 -3.2148000000000003 1.9785 59
12.7969 -3.2617000000000003 -0.1534 87
12.8594 -3.2773000000000003 2.332 20
9.5156 -2.459 -1.7256 80
12.8281 -3.3164 0.15410000000000001 154
10.8594 -2.8066000000000004 -1.7031 37
12.781199999999998 -3.3026999999999997 0.4592 129
12.523399999999999 -3.2363 -1.6591999999999998 241
12.539100000000001 -3.2401999999999997 0.7509999999999999 175
12.664100000000001 -3.2733999999999996 -1.3700999999999999 217
12.476600000000001 -3.2245999999999997 1.0488 198
12.6875 -3.2793 -1.0674 178
12.476600000000001 -3.2245999999999997 1.3496000000000001 186
12.6875 -3.2793 -0.7598 107
12.601600000000001 -3.2577999999999996 1.6688999999999998 170
12.726600000000001 -3.2891000000000004 -0.4573 247
12.601600000000001 -3.2577999999999996 1.9785 95
12.7578 -3.2969 -0.1532 176
12.8594 -3.3223000000000003 2.334 233
9.5312 -2.5 -1.7305000000000001 167
10.8672 -2.8516000000000004 -1.7069999999999999 27
12.726600000000001 -3.3398000000000003 0.4578 124
12.5156 -3.2832 -1.6591999999999998 153
12.531199999999998 -3.2870999999999997 0.7509999999999999 217
12.656199999999998 -3.3202999999999996 -1.3711000000000002 214
12.5 -3.2793 1.0518 40
12.7344 -3.3418 -1.0723 211
12.468800000000002 -3.2695 1.3496000000000001 140
12.75 -3.3438 -0.7642 8
12.6094 -3.3086 1.6709 182
12.7344 -3.3398000000000003 -0.4578 93
12.6094 -3.3086 1.9813999999999998 169
12.7344 -3.3418 -0.1531 41
12.875 -3.3789 2.3398 23
9.5156 -2.5332 -1.7294999999999998 39
12.8672 -3.4238 0.1548 192
10.875 -2.8926 -1.709 16
12.781199999999998 -3.4004000000000003 0.46 219
12.5 -3.3262 -1.6591999999999998 240
12.531199999999998 -3.3339999999999996 0.752 184
12.6719 -3.3711 -1.3730000000000002 33
12.5 -3.3242000000000003 1.0527 22
12.726600000000001 -3.3867000000000003 -1.0723 82
12.460899999999999 -3.3164 1.3506 162
12.726600000000001 -3.3867000000000003 -0.7637 55
12.6094 -3.3555 1.6728999999999998 156
12.75 -3.3926 -0.45899999999999996 91
12.648399999999999 -3.3651999999999997 1.9893 138
12.718800000000002 -3.3848000000000003 -0.1531 192
12.851600000000001 -3.4199 2.3379 156
9.5156 -2.5664 -1.7294999999999998 199
10.875 -2.9336 -1.7109 253
12.781199999999998 -3.4492000000000003 0.4607 170
12.5156 -3.377 -1.6621000000000001 102
12.5156 -3.377 0.7515000000000001 228
12.664100000000001 -3.4160000000000004 -1.374 128
12.5 -3.373 1.0537 83
12.7344 -3.4375 -1.0742 173
12.460899999999999 -3.3613 1.3516 178
12.710899999999999 -3.4297000000000004 -0.7631999999999999 215
12.601600000000001 -3.4004000000000003 1.6738 64
12.664100000000001 -3.4160000000000004 -0.4561 45
12.6719 -3.4199 1.9950999999999999 209
12.7422 -3.4375 -0.1534 81
12.851600000000001 -3.4688 2.3398 209
9.5234 -2.6055 -1.7334 103
10.843800000000002 -2.9668 -1.7080000000000002 250
12.7578 -3.4901999999999997 0.46020000000000005 223
12.523399999999999 -3.4257999999999997 -1.665 34
12.5156 -3.4238 0.752 42
12.6406 -3.4589999999999996 -1.3730000000000002 104
12.5 -3.4199 1.0547 238
12.7656 -3.4922000000000004 -1.0771 131
12.460899999999999 -3.4101999999999997 1.3535 68
12.7344 -3.4844 -0.7656000000000001 201
12.585899999999999 -3.4433999999999996 1.6728999999999998 242
12.7344 -3.4844 -0.4592 199
12.6797 -3.4688 1.9980000000000002 149
12.726600000000001 -3.4805 -0.1533 161
12.898399999999999 -3.5273000000000003 2.3496 222
9.5312 -2.6445 -1.7363 46
10.843800000000002 -3.0098000000000003 -1.71 68
12.7578 -3.5410000000000004 0.4604 98
12.5156 -3.4745999999999997 -1.666 182
12.523399999999999 -3.4766000000000004 0.7534000000000001 219
12.6406 -3.5077999999999996 -1.374 181
12.476600000000001 -3.4629000000000003 1.0547 99
12.7031 -3.5254000000000003 -1.0732 108
12.460899999999999 -3.457 1.3544999999999998 190
12.6875 -3.5214999999999996 -0.7637 198
12.593800000000002 -3.4961 1.6758000000000002 208
12.7031 -3.5254000000000003 -0.4585 133
12.6797 -3.5195 2.0 89
12.7344 -3.5332 -0.1537 231
12.898399999999999 -3.5801 2.3535 17
9.5391 -2.6836 -1.7402000000000002 175
10.851600000000001 -3.0507999999999997 -1.7119 53
12.726600000000001 -3.5801 0.46 73
12.5156 -3.5195 -1.6669999999999998 138
12.531199999999998 -3.5233999999999996 0.7544 247
12.656199999999998 -3.5586 -1.3769999999999998 224
12.4844 -3.5098000000000003 1.0556999999999999 220
12.75 -3.5879000000000003 -1.0781 6
12.460899999999999 -3.5039 1.3555000000000001 122
12.781199999999998 -3.5957 -0.77 204
12.601600000000001 -3.5449 1.6787 191
12.773399999999999 -3.5918 -0.46140000000000003 25
12.6875 -3.5683999999999996 2.002 239
12.7578 -3.5879000000000003 -0.15410000000000001 7
12.875 -3.6211 2.3496 226
9.4922 -2.7031 -1.7324000000000002 177
12.875 -3.6660000000000004 0.15560000000000002 93
10.851600000000001 -3.0898000000000003 -1.7138999999999998 199
12.773399999999999 -3.6367000000000003 0.4619 240
12.5078 -3.5625 -1.6669999999999998 46
12.523399999999999 -3.5683999999999996 0.7548999999999999 201
12.648399999999999 -3.6035000000000004 -1.3779 173
12.4922 -3.5586 1.0576 180
12.6953 -3.6172000000000004 -1.0742 55
12.4531 -3.5469 1.3563999999999998 225
12.726600000000001 -3.627 -0.7676000000000001 203
12.593800000000002 -3.5879000000000003 1.6787 222
12.8047 -3.6483999999999996 -0.46340000000000003 48
12.6953 -3.6151999999999997 2.0059 207
12.7656 -3.6367000000000003 -0.1543 181
12.851600000000001 -3.6620999999999997 2.3496 107
9.5078 -2.7422000000000004 -1.7372999999999998 217
12.8672 -3.7108999999999996 0.1558 155
10.851600000000001 -3.1308999999999996 -1.7158000000000002 50
12.789100000000001 -3.6895 0.4631 77
12.5 -3.6074 -1.6680000000000001 104
12.523399999999999 -3.6113 0.7554000000000001 81
12.648399999999999 -3.6483999999999996 -1.3788999999999998 145
12.468800000000002 -3.5976999999999997 1.0566 35
12.656199999999998 -3.6523000000000003 -1.0723 125
12.4531 -3.5918 1.3574000000000002 168
12.656199999999998 -3.6504000000000003 -0.7637 116
12.585899999999999 -3.6308999999999996 1.6797 0
12.6953 -3.6601999999999997 -0.4595 218
12.6953 -3.6620999999999997 2.0078 230
12.6953 -3.6601999999999997 -0.1536 135
12.843800000000002 -3.7031 2.3496 253
9.5156 -2.7832 -1.7412 187
12.6797 -3.7089999999999996 0.1536 240
10.851600000000001 -3.1738 -1.7178 120
12.664100000000001 -3.7031 0.45899999999999996 62
12.5156 -3.6582 -1.6719 218
12.5156 -3.6601999999999997 0.7559 26
12.523399999999999 -3.6620999999999997 -1.3672 179
12.460899999999999 -3.6445 1.0576 225
12.593800000000002 -3.6836 -1.0684 3
12.460899999999999 -3.6445 1.3603999999999998 190
12.625 -3.6914 -0.7626999999999999 223
12.5781 -3.6776999999999997 1.6806999999999999 227
12.6719 -3.707 -0.4595 92
12.7031 -3.7148000000000003 2.0117 3
12.6719 -3.7051 -0.1534 222
12.7969 -3.7422000000000004 2.3438 184
9.5156 -2.8202999999999996 -1.7431999999999999 197
12.648399999999999 -3.7461 0.1533 244
10.835899999999999 -3.2108999999999996 -1.7178 50
12.648399999999999 -3.7461 0.4587 145
12.5078 -3.7051 -1.6728999999999998 120
12.5156 -3.707 0.7568 138
12.523399999999999 -3.7089999999999996 -1.3681999999999999 72
12.4531 -3.6875 1.0576 80
12.5156 -3.707 -1.0625 164
12.460899999999999 -3.6914 1.3613 218
12.531199999999998 -3.7108999999999996 -0.7578 10
12.585899999999999 -3.7285000000000004 1.6836000000000002 201
12.539100000000001 -3.7148000000000003 -0.4551 92
12.6875 -3.7577999999999996 2.0117 81
12.5625 -3.7207 -0.1523 186
12.7422 -3.7733999999999996 2.3359 107
9.5156 -2.8555 -1.7450999999999999 187
12.5547 -3.7676 0.1523 94
10.835899999999999 -3.25 -1.7178 24
12.5547 -3.7656 0.4558 2
12.5 -3.752 -1.6738 104
12.5156 -3.7558999999999996 0.7578 151
12.5156 -3.7558999999999996 -1.3691 124
12.4453 -3.7344 1.0576 20
12.5078 -3.752 -1.0635 176
12.4531 -3.7363 1.3622999999999998 195
12.523399999999999 -3.7577999999999996 -0.7583 207
12.585899999999999 -3.7773000000000003 1.6846 86
12.5078 -3.7539 -0.4543 75
12.6406 -3.793 2.0059 13
12.5156 -3.7558999999999996 -0.1519 188
12.6875 -3.8066000000000004 2.3281 224
9.5156 -2.8906 -1.7461000000000002 133
12.531199999999998 -3.8066000000000004 0.1522 140
10.851600000000001 -3.2969 -1.7227000000000001 129
12.5156 -3.8026999999999997 0.4551 8
12.4922 -3.7969 -1.6738 129
12.523399999999999 -3.8047000000000004 0.7587999999999999 114
12.5156 -3.8026999999999997 -1.3700999999999999 192
12.4453 -3.7812 1.0586 113
12.5078 -3.8007999999999997 -1.0645 76
12.4375 -3.7793 1.3613 102
12.5 -3.7988 -0.7573000000000001 21
12.593800000000002 -3.8281 1.6885 175
12.523399999999999 -3.8047000000000004 -0.4551 168
12.585899999999999 -3.8242000000000003 1.999 93
12.5078 -3.7988 -0.152 107
12.6094 -3.832 2.3164 51
9.5 -2.9238 -1.7450999999999999 70
12.5156 -3.8495999999999997 0.1522 245
10.8281 -3.3301 -1.7207 86
12.5156 -3.8516000000000004 0.4556 138
12.4922 -3.8438 -1.6758000000000002 118
12.5078 -3.8495999999999997 0.7587999999999999 62
12.5156 -3.8516000000000004 -1.3721 148
12.4453 -3.8301 1.0605 48
12.5078 -3.8495999999999997 -1.0654000000000001 136
12.4453 -3.8281 1.3643 225
12.5078 -3.8476999999999997 -0.7587999999999999 11
12.5781 -3.8691000000000004 1.6875 254
12.5156 -3.8516000000000004 -0.4556 111
12.601600000000001 -3.877 2.0039 147
12.5156 -3.8495999999999997 -0.1522 58
12.601600000000001 -3.877 2.3184 246
9.4922 -2.957 -1.7450999999999999 12
12.5 -3.8926 0.1522 83
10.8281 -3.373 -1.7227000000000001 136
12.523399999999999 -3.9004000000000003 0.45630000000000004 199
12.5 -3.8945 -1.6787 154
12.5078 -3.8945 0.7593000000000001 158
12.5 -3.8945 -1.3721 25
12.4375 -3.873 1.0605 18
12.5156 -3.8983999999999996 -1.0674 22
12.4453 -3.877 1.3662 154
12.5 -3.8945 -0.7593000000000001 29
12.5625 -3.9141000000000004 1.6875 174
12.5078 -3.8964999999999996 -0.4558 101
12.601600000000001 -3.9238 2.0059 32
12.5156 -3.8983999999999996 -0.1525 136
12.601600000000001 -3.9257999999999997 2.3203 219
9.4844 -2.9922000000000004 -1.7471 214
12.5156 -3.9452999999999996 0.15259999999999999 209
10.8203 -3.4120999999999997 -1.7236000000000002 130
12.5 -3.9414 0.4561 234
12.5078 -3.9433999999999996 -1.6816 189
12.5156 -3.9452999999999996 0.7606999999999999 102
12.5078 -3.9452999999999996 -1.374 15
12.4297 -3.918 1.0605 52
12.5 -3.9414 -1.0674 136
12.460899999999999 -3.9276999999999997 1.3681999999999999 8
12.5078 -3.9452999999999996 -0.7606999999999999 36
12.5781 -3.9668 1.6913999999999998 234
12.5078 -3.9433999999999996 -0.4561 234
12.593800000000002 -3.9707 2.0059 173
12.523399999999999 -3.9492000000000003 -0.1527 163
12.601600000000001 -3.9726999999999997 2.3223 28
9.5 -3.0312 -1.751 122
12.5156 -3.9941000000000004 0.1527 213
10.8281 -3.457 -1.7266 245
12.5078 -3.9922000000000004 0.45649999999999996 46
12.4922 -3.9863 -1.6816 195
12.5156 -3.9922000000000004 0.7617 185
12.523399999999999 -3.9961 -1.3769999999999998 179
12.4375 -3.9688 1.0625 200
12.5 -3.9882999999999997 -1.0684 138
12.4531 -3.9745999999999997 1.3691 106
12.5078 -3.9901999999999997 -0.7612000000000001 148
12.585899999999999 -4.0195 1.6943000000000001 76
12.5078 -3.9922000000000004 -0.45649999999999996 169
12.585899999999999 -4.0156 2.0078 169
12.5156 -3.9941000000000004 -0.1527 103
12.601600000000001 -4.0234 2.3242 229
9.4922 -3.0664 -1.751 62
12.5078 -4.0391 0.1528 207
10.8203 -3.4961 -1.7275 213
12.5 -4.0391 0.457 59
12.4922 -4.0352 -1.6836000000000002 93
12.5078 -4.0391 0.7622 203
12.523399999999999 -4.043 -1.3788999999999998 45
12.4375 -4.0156 1.0635 141
12.5 -4.0391 -1.0693000000000001 155
12.460899999999999 -4.0234 1.3721 33
12.5 -4.0352 -0.7617 33
12.585899999999999 -4.0664 1.6963 177
12.5156 -4.043 -0.4575 70
12.593800000000002 -4.0664 2.0117 105
12.5 -4.0391 -0.1527 165
12.585899999999999 -4.0664 2.3262 157
9.4766 -3.0976999999999997 -1.75 217
12.5156 -4.0898 0.1531 238
10.8281 -3.5391000000000004 -1.7305000000000001 5
12.5078 -4.0898 0.4578 40
12.5 -4.0859 -1.6855000000000002 64
12.5 -4.0859 0.7622 5
12.5156 -4.0898 -1.3788999999999998 121
12.4375 -4.0664 1.0654000000000001 89
12.5 -4.0859 -1.0713 175
12.4844 -4.0781 1.376 83
12.4922 -4.082 -0.7622 239
12.5781 -4.1133 1.6972999999999998 167
12.523399999999999 -4.0938 -0.4583 86
12.585899999999999 -4.1133 2.0137 202
12.5078 -4.0859 -0.153 199
12.5781 -4.1133 2.3262 70
9.4375 -3.1191000000000004 -1.7461000000000002 129
12.5078 -4.1328 0.1532 74
10.8281 -3.5762 -1.7313999999999998 93
12.5078 -4.1328 0.4583 247
12.5078 -4.1289 -1.6885 70
12.5 -4.1289 0.7631999999999999 84
