# .PCD v0.7 - Point Cloud Data file format
VERSION 0.7
FIELDS x y z intensity
SIZE 4 4 4 4
TYPE F F F F
COUNT 1 1 1 1
WIDTH 1441
HEIGHT 1
VIEWPOINT 0 0 0 1 0 0 0
POINTS 1441
DATA ascii
9.4141 16.0625 -1.0801 225
15.7578 26.875 4.0 172
13.851600000000001 23.6094 4.168 143
16.0312 27.3281 -0.3696 175
13.601600000000001 23.1875 4.7344 230
3.9492000000000003 6.6797 -1.3613 61
4.4883 7.5898 -1.3378999999999999 103
30.9844 52.4062 2.125 92
5.1172 8.6562 -1.2881 186
16.1094 27.2344 1.8388999999999998 51
6.0 10.1484 -1.2344 54
7.2890999999999995 12.3281 -1.166 86
13.906199999999998 23.5156 2.8672000000000004 122
9.5 16.0781 -1.084 201
14.2656 24.1406 3.6016000000000004 19
14.226600000000001 24.0625 -0.9741 188
13.9375 23.5781 4.1719 56
16.1406 27.2969 -0.3699 43
13.726600000000001 23.2188 4.7461 49
3.9766000000000004 6.675800000000001 -1.3622999999999998 252
4.5 7.550800000000001 -1.334 140
5.1523 8.6484 -1.29 173
16.2344 27.2344 1.8418 239
6.042999999999999 10.1406 -1.2363 24
7.332000000000001 12.3047 -1.166 214
13.9219 23.3594 2.8535000000000004 68
9.5703 16.0625 -1.0859 11
13.960899999999999 23.4219 3.502 149
14.289100000000001 23.9844 -0.9727 208
14.0078 23.5 4.1641 165
16.2656 27.3125 -0.37079999999999996 43
13.773399999999999 23.1094 4.7344 237
4.0078 6.671900000000001 -1.3652000000000002 14
18.5781 30.9219 0.42090000000000005 0
4.5273 7.5390999999999995 -1.334 67
5.175800000000001 8.6172 -1.2881 8
16.3594 27.2344 1.8466999999999998 37
6.0859000000000005 10.1328 -1.2373 36
7.394500000000001 12.3125 -1.1689 39
14.039100000000001 23.375 2.8613 59
9.6328 16.0469 -1.0859 109
14.0 23.3125 3.4922000000000004 64
14.1953 23.625 -0.9609000000000001 23
14.0547 23.4062 4.1562 78
14.125 23.5156 -0.31980000000000003 116
15.156199999999998 25.2344 5.1836 84
4.0273 6.6602 -1.3652000000000002 213
4.5508 7.5234000000000005 -1.334 62
5.207000000000001 8.6094 -1.2891 113
16.4688 27.2344 1.8496000000000001 20
6.1211 10.125 -1.2383 16
7.4375 12.2969 -1.1699 8
14.101600000000001 23.3125 2.8594 109
9.6875 16.0156 -1.0859 122
14.3047 23.6562 3.5507999999999997 159
14.1094 23.3281 4.1484 70
14.2344 23.5312 -0.3208 33
15.375 25.4219 5.230499999999999 46
4.0469 6.636699999999999 -1.3633000000000002 70
14.2969 23.4531 0.32030000000000003 230
4.5781 7.515599999999999 -1.335 62
16.5938 27.2344 1.1123 129
5.25 8.6172 -1.2919999999999998 253
16.5938 27.2344 1.8525 173
6.1602 10.1094 -1.2393 207
7.488300000000001 12.289100000000001 -1.1719 22
14.1875 23.2812 2.8613 156
9.7422 15.976600000000001 -1.0859 103
14.3672 23.5625 3.5449 126
14.468800000000002 23.7344 -0.9688 3
14.1953 23.2969 4.1523 34
14.3203 23.5 -0.3208 115
14.2578 23.3906 4.8242 229
4.0703 6.625 -1.3633000000000002 75
14.3906 23.4062 0.32030000000000003 27
4.6172 7.515599999999999 -1.3388999999999998 4
16.7344 27.2188 1.1143 74
5.2890999999999995 8.6016 -1.2938999999999998 101
16.7812 27.2812 1.8613 214
6.207000000000001 10.0938 -1.2412 181
7.542999999999999 12.273399999999999 -1.1729 145
9.8125 15.9531 -1.0869 61
14.0703 22.8906 3.4512 145
14.539100000000001 23.6406 -0.9678 63
14.2656 23.2031 4.1484 250
14.4531 23.5156 -0.322 102
14.3672 23.375 4.832 23
4.1094 6.6328 -1.3681999999999999 138
14.5156 23.4375 0.3215 192
4.6328 7.4765999999999995 -1.335 125
5.3164 8.5859 -1.2930000000000001 19
6.2422 10.0781 -1.2412 20
7.578099999999999 12.2344 -1.1719 43
23.2656 37.5625 4.6406 71
9.8672 15.9297 -1.0879 81
14.1719 22.875 3.457 64
14.039100000000001 22.6562 4.0586 158
16.9062 27.2812 -0.3743 60
14.5156 23.4375 4.8555 136
4.1367 6.6211 -1.3691 156
4.6719 7.4765999999999995 -1.3378999999999999 242
5.359400000000001 8.5781 -1.2959 155
6.296900000000001 10.0781 -1.2451 243
7.6484000000000005 12.25 -1.1758 31
15.2656 24.4375 3.0233999999999996 172
9.9297 15.8906 -1.0879 10
14.2969 22.8906 3.4648000000000003 76
14.125 22.625 4.0586 17
17.0312 27.2656 -0.375 138
13.906199999999998 22.2656 4.6211 55
4.1562 6.6015999999999995 -1.3681999999999999 249
4.6992 7.4688 -1.3388999999999998 2
5.386699999999999 8.5547 -1.2949000000000002 34
6.3359000000000005 10.0625 -1.2451 135
7.6953 12.226600000000001 -1.1768 224
15.2344 24.2031 3.0 75
9.9688 15.835899999999999 -1.0859 252
14.335899999999999 22.7812 3.457 225
14.539100000000001 23.1094 4.1562 202
17.1562 27.25 -0.3757 122
13.9844 22.2031 4.6211 230
4.1758 6.5859000000000005 -1.3672 209
4.7383 7.4727 -1.3428 153
5.421900000000001 8.5547 -1.2978999999999998 218
17.2812 27.2656 1.875 149
6.375 10.0547 -1.2470999999999999 68
7.75 12.226600000000001 -1.1787 228
15.2969 24.125 2.998 138
10.0156 15.8047 -1.0859 86
14.398399999999999 22.7188 3.4551 7
15.976600000000001 25.2031 -1.04 227
13.9531 22.0156 3.9668 64
17.2812 27.2656 -0.37670000000000003 101
13.8672 21.875 4.5586 124
4.2109 6.5938 -1.3721 181
17.4062 27.2656 0.3774 185
4.7656 7.4609000000000005 -1.3428 254
17.3906 27.2344 1.127 174
5.4609000000000005 8.5547 -1.2997999999999998 185
17.375 27.2188 1.8769999999999998 20
6.4062 10.0312 -1.2470999999999999 24
7.800800000000001 12.218800000000002 -1.1806999999999999 204
15.3047 23.9688 2.9844 98
10.0625 15.75 -1.085 66
14.5 22.7031 3.4608999999999996 136
16.1719 25.3281 -1.0479 212
14.023399999999999 21.9531 3.9668 185
17.4219 27.2812 -0.37770000000000004 82
13.914100000000001 21.7969 4.5508 208
4.2383 6.578099999999999 -1.3721 92
4.7734 7.4140999999999995 -1.3378999999999999 181
17.5 27.1719 1.127 224
5.4961 8.5391 -1.3008000000000002 56
6.457000000000001 10.0234 -1.249 194
7.8515999999999995 12.1953 -1.1806999999999999 29
15.4375 23.9688 2.9922000000000004 235
10.1484 15.7578 -1.0879 148
14.8281 23.0312 3.5176 51
16.3281 25.3438 -1.0508 100
14.101600000000001 21.9062 3.9668 183
17.5469 27.25 -0.3782 199
14.039100000000001 21.7969 4.5664 206
4.2578 6.5625 -1.3721 88
4.8203 7.425800000000001 -1.3437999999999999 159
32.9688 50.8125 2.1133 105
5.5312 8.5234 -1.3008000000000002 50
33.5312 51.6562 3.5801 215
6.5039 10.0234 -1.251 122
7.9062 12.1875 -1.1826 117
15.148399999999999 23.3438 2.9219 49
10.2109 15.7344 -1.0889 244
16.9688 26.1562 4.0039 73
16.4688 25.375 -1.0547 117
14.2969 22.0312 3.998 245
17.6875 27.25 -0.3789 84
14.289100000000001 22.0156 4.6211 8
4.2812 6.550800000000001 -1.3721 112
4.8477 7.421900000000001 -1.3447 28
33.1875 50.7812 2.1172 191
5.5586 8.5078 -1.3018 104
33.625 51.4688 3.5742000000000003 119
6.542999999999999 10.0156 -1.2529000000000001 232
7.949199999999999 12.1719 -1.1836 162
15.156199999999998 23.1875 2.9082 11
10.2422 15.6797 -1.0869 155
17.0625 26.1094 4.0078 36
14.664100000000001 22.4531 4.082 40
17.8125 27.25 -0.3799 170
14.1719 21.6875 4.5625 86
4.3008 6.5352 -1.3721 220
4.875 7.4062 -1.3457 87
33.4375 50.8125 2.1211 15
5.5898 8.4922 -1.3027000000000002 234
6.582000000000001 10.0 -1.2539 28
8.0078 12.164100000000001 -1.1855 51
15.1797 23.0625 2.8983999999999996 243
10.3047 15.656199999999998 -1.0879 49
15.6094 23.7188 3.6483999999999996 39
14.7656 22.4375 4.0898 18
15.718800000000002 23.875 -0.3335 69
14.1172 21.4531 4.5195 0
4.332 6.5234000000000005 -1.3730000000000002 20
4.8984 7.3789 -1.3437999999999999 63
33.6562 50.7188 2.123 143
5.6328 8.4922 -1.3056999999999999 6
6.6015999999999995 9.9531 -1.251 26
8.0625 12.156199999999998 -1.1875 228
15.25 22.9844 2.8945 152
10.3906 15.656199999999998 -1.0908 179
14.4219 21.7344 3.9707 10
15.710899999999999 23.6719 -0.33130000000000004 128
14.1719 21.3594 4.5117 59
4.3594 6.519500000000001 -1.375 48
18.2031 27.2188 0.3818 252
4.9219 7.359400000000001 -1.3437999999999999 48
18.1562 27.1562 1.1396 99
5.6640999999999995 8.4688 -1.3056999999999999 159
18.1875 27.2031 1.9013999999999998 170
6.6602 9.9609 -1.2549 127
8.1016 12.1094 -1.1865 185
15.289100000000001 22.8594 2.8848000000000003 168
10.4453 15.6172 -1.0908 252
14.531199999999998 21.7344 3.3574 85
15.8125 23.6406 -0.9917 102
14.4375 21.5938 3.9551 189
15.7578 23.5625 -0.3306 154
14.4375 21.5938 4.5703 156
4.3867 6.511699999999999 -1.3769999999999998 83
18.375 27.2812 0.38380000000000003 63
4.9531 7.3515999999999995 -1.3447 16
18.2812 27.1406 1.1406 21
5.699199999999999 8.4609 -1.3066 145
18.2812 27.1406 1.9013999999999998 107
6.707000000000001 9.9531 -1.2568000000000001 22
8.1484 12.093800000000002 -1.1875 108
15.3906 22.8438 2.8906 60
10.5 15.585899999999999 -1.0908 95
14.593800000000002 21.6719 3.3555 143
15.906199999999998 23.6094 -0.9922 207
14.4922 21.5156 3.9492000000000003 190
15.8281 23.5 -0.3306 237
14.6719 21.7812 4.625 55
4.4023 6.488300000000001 -1.375 184
4.9961 7.359400000000001 -1.3506 211
18.4375 27.1562 1.1445 153
5.7265999999999995 8.4375 -1.3056999999999999 172
18.4219 27.1406 1.9062000000000001 192
6.75 9.9453 -1.2588 106
8.2188 12.1094 -1.1924 6
15.523399999999999 22.8594 2.9004000000000003 189
10.5703 15.5703 -1.0928 130
14.6406 21.5625 3.3476999999999997 212
15.976600000000001 23.5312 -0.9917 214
14.8203 21.8281 4.6445 130
4.4219 6.4648 -1.3730000000000002 41
5.0195 7.3359000000000005 -1.3486000000000002 34
18.5781 27.1562 1.1475 137
5.769500000000001 8.4375 -1.3096 144
18.5625 27.1406 1.9111000000000002 225
6.7890999999999995 9.9297 -1.2598 208
8.2734 12.093800000000002 -1.1934 15
15.6406 22.875 2.9082 26
10.6328 15.5469 -1.0928 200
14.7578 21.5781 3.3574 98
15.148399999999999 22.1562 4.0859 239
16.125 23.5781 -0.33299999999999996 98
14.851600000000001 21.7188 4.6289 65
4.4609 6.4727 -1.3788999999999998 23
5.0547 7.3359000000000005 -1.3516 3
18.7031 27.1562 1.1494 33
5.8047 8.4219 -1.3105000000000002 164
18.7031 27.1406 1.915 229
6.824199999999999 9.9062 -1.2598 250
8.3203 12.0781 -1.1943000000000001 71
15.8125 22.9531 2.9238 158
10.718800000000002 15.5547 -1.0957 233
14.9297 21.6719 3.3789 90
14.8047 21.4844 3.9707 66
15.0625 21.8594 4.6719 45
4.4844 6.457000000000001 -1.3788999999999998 209
5.0781 7.3164 -1.3516 52
22.5469 32.4688 1.3788999999999998 53
5.8398 8.4062 -1.3115 112
18.875 27.1875 1.9228999999999998 230
6.8828 9.9141 -1.2646 189
8.3672 12.0547 -1.1953 31
15.8828 22.875 2.9219 207
10.7578 15.4922 -1.0947 63
17.4531 25.1406 3.9316000000000004 179
16.8281 24.25 -1.0293 177
14.843800000000002 21.3906 3.9629000000000003 86
19.0469 27.4375 -0.3899 105
15.156199999999998 21.8281 4.6797 195
4.5039 6.4375 -1.3779 174
5.1055 7.296900000000001 -1.3516 20
22.5156 32.1875 1.3700999999999999 98
5.8711 8.3906 -1.3115 227
19.0 27.1719 1.9258000000000002 220
6.925800000000001 9.8984 -1.2656 13
8.4141 12.039100000000001 -1.1963 185
16.0 22.875 2.9297000000000004 205
10.8672 15.539100000000001 -1.1006 2
17.5625 25.1094 3.9375 84
16.8125 24.0312 -1.0225 110
14.898399999999999 21.2969 3.957 138
19.1719 27.4062 -0.3901 71
15.1406 21.6562 4.6523 186
4.5234 6.421900000000001 -1.3779 185
5.144500000000001 7.3047 -1.3563999999999998 144
22.5312 31.9844 1.3643 93
5.8984000000000005 8.375 -1.3125 232
19.0625 27.0625 1.9238 44
6.9648 9.8906 -1.2666 81
16.6406 23.6094 2.3555 58
8.4844 12.0469 -1.2002 207
10.914100000000001 15.5 -1.1006 0
18.0 25.5625 4.0156 65
16.8438 23.9062 -1.0195 226
14.9375 21.2031 3.9492000000000003 252
19.3125 27.4219 -0.3914 155
15.773399999999999 22.3906 4.8203 30
4.5469 6.4102 -1.3788999999999998 207
5.171900000000001 7.292999999999999 -1.3563999999999998 46
17.25 24.3125 1.0391 78
5.9375 8.3672 -1.3144999999999998 104
19.1094 26.9375 1.9188999999999998 189
7.0078 9.875 -1.2686 39
16.6875 23.5312 2.3535 38
8.5391 12.039100000000001 -1.2021 225
18.2188 25.6875 3.3066000000000004 128
10.9844 15.4922 -1.1025 58
18.125 25.5469 4.0234 94
16.875 23.7812 -1.0166 206
15.4219 21.75 4.0586 71
19.4531 27.4375 -0.3923 203
15.468800000000002 21.8125 4.707 216
4.5742 6.4023 -1.3799000000000001 226
5.203099999999999 7.2812 -1.3584 69
16.9688 23.75 1.0176 227
5.9688 8.3516 -1.3154 79
16.875 23.625 1.6865 252
7.042999999999999 9.8516 -1.2686 5
16.7812 23.4844 2.3535 56
8.5859 12.0078 -1.2021 184
17.8594 24.9844 3.2226999999999997 213
11.0781 15.5 -1.1055 192
18.2031 25.4688 4.0234 244
16.9219 23.6875 -1.0146 138
15.343800000000002 21.4688 4.0156 140
19.6094 27.4375 -0.3936 251
15.4375 21.6094 4.6758 10
4.6094 6.4062 -1.3838 141
17.2656 24.0 0.3447 235
5.2227 7.2578 -1.3563999999999998 60
17.0156 23.6406 1.0156 183
6.0 8.3438 -1.3163999999999998 251
16.9375 23.5469 1.6855000000000002 61
7.078099999999999 9.8359 -1.2686 60
17.7031 24.6094 2.4727 86
8.6328 11.9922 -1.2031 207
17.8906 24.8594 3.2148000000000003 145
11.1328 15.468800000000002 -1.1064 69
15.8594 22.0469 3.4882999999999997 87
16.9844 23.6094 -1.0137 84
15.164100000000001 21.0625 3.9512 205
17.2969 24.0312 -0.3452 77
15.5 21.5469 4.6719 135
4.6328 6.386699999999999 -1.3838 168
17.3281 23.8906 0.3442 219
5.265599999999999 7.2578 -1.3603999999999998 55
17.1562 23.6406 1.0176 115
6.0390999999999995 8.3281 -1.3174000000000001 7
17.0781 23.5469 1.6904 0
7.1211 9.8125 -1.2695 52
19.4844 26.875 2.707 52
8.6797 11.968800000000002 -1.2041 50
17.9219 24.7031 3.2031 100
11.210899999999999 15.4531 -1.1084 43
15.906199999999998 21.9219 3.4785000000000004 80
17.0781 23.5469 -1.0146 14
15.2344 21.0 3.9492000000000003 108
17.3594 23.9375 -0.345 210
15.6797 21.625 4.7031 146
4.6602 6.375 -1.3857 143
17.4219 23.8438 0.34450000000000003 43
5.296900000000001 7.2461 -1.3622999999999998 172
19.8438 27.1562 1.1729 58
6.0664 8.3047 -1.3174000000000001 162
19.7969 27.0938 1.9502000000000002 32
7.1797 9.8281 -1.2744 110
19.6562 26.9062 2.7188 100
8.75 11.976600000000001 -1.208 39
18.1094 24.7812 3.2226999999999997 70
11.273399999999999 15.4219 -1.1084 0
15.976600000000001 21.8594 3.4785000000000004 16
17.1875 23.5156 -1.0156 152
15.3203 20.9688 3.9531 136
17.4688 23.9062 -0.3452 166
15.726600000000001 21.5156 4.6914 191
4.6758 6.3515999999999995 -1.3838 47
5.3398 7.2539 -1.3672 248
20.0 27.1719 1.1768 142
6.113300000000001 8.3047 -1.3213 41
19.9375 27.0938 1.9541 12
7.2148 9.8047 -1.2744 145
8.7891 11.9453 -1.208 108
11.3047 15.3672 -1.1074 143
16.0938 21.8594 3.4863 24
17.2812 23.4844 -1.0166 198
15.3906 20.9219 3.9531 145
20.0156 27.2031 -0.39399999999999996 144
15.656199999999998 21.2812 4.6523 124
4.7109 6.355499999999999 -1.3877000000000002 246
5.359400000000001 7.230499999999999 -1.3662 157
20.0938 27.125 1.1768 220
6.1328 8.2734 -1.3193000000000001 201
20.0781 27.0938 1.959 206
7.2539 9.7891 -1.2754 240
19.8906 26.8438 2.7245999999999997 46
8.8594 11.960899999999999 -1.2119 94
16.7344 22.5938 2.9512 88
11.3906 15.3672 -1.1104 114
16.2031 21.875 3.4961 217
17.375 23.4531 -1.0176 50
16.1562 21.8125 4.1328 233
20.1562 27.1875 -0.3948 140
15.601600000000001 21.0625 4.6133 200
4.7422 6.3477 -1.3896000000000002 143
5.3828 7.207000000000001 -1.3652000000000002 158
20.25 27.1094 1.1797 192
6.175800000000001 8.2734 -1.3222999999999998 47
20.2344 27.0938 1.9647999999999999 189
7.300800000000001 9.7812 -1.2783 95
20.0625 26.875 2.7363 129
8.9062 11.9297 -1.2119 179
16.8281 22.5312 2.9512 92
11.468800000000002 15.3594 -1.1123 113
16.25 21.7656 3.4901999999999997 44
17.5 23.4375 -1.0195 49
15.8672 21.25 4.0352 35
20.2969 27.1719 -0.3958 196
15.664100000000001 20.9844 4.6094 76
4.7734 6.3477 -1.3925999999999998 29
20.5 27.2656 0.3979 159
5.4140999999999995 7.199199999999999 -1.3672 205
20.4844 27.2344 1.1885 24
6.207000000000001 8.2578 -1.3232 228
20.4062 27.125 1.9727000000000001 179
7.3515999999999995 9.7734 -1.2803 58
8.9453 11.898399999999999 -1.2119 75
16.8438 22.4062 2.9414 159
11.523399999999999 15.3203 -1.1123 168
19.125 25.4219 4.0859 125
17.6406 23.4531 -1.0234 30
15.8672 21.0938 4.0195 108
20.4375 27.1719 -0.3967 132
15.726600000000001 20.9062 4.6055 212
4.7891 6.3203 -1.3906 18
20.6562 27.25 0.39890000000000003 37
5.4453 7.1875 -1.3691 97
20.625 27.2188 1.1914 166
6.238300000000001 8.2344 -1.3232 48
20.5469 27.125 1.9775 213
7.394500000000001 9.7578 -1.2822 254
20.375 26.8906 2.752 37
9.0 11.875 -1.2129 171
16.5469 21.8438 2.877 68
11.5547 15.25 -1.1104 130
15.9453 21.0469 3.3906 43
17.9062 23.625 -1.0332 221
15.8906 20.9688 4.0039 129
20.5781 27.1562 -0.3975 141
15.8047 20.8594 4.6055 253
4.8164 6.3125 -1.3925999999999998 217
5.484400000000001 7.1875 -1.3721 92
20.7969 27.25 1.1953 12
6.2852 8.2344 -1.3271000000000002 95
20.6875 27.1094 1.9813999999999998 39
7.425800000000001 9.7266 -1.2812000000000001 121
20.5 26.8594 2.7577999999999996 11
9.0625 11.875 -1.2168 224
16.5156 21.6406 2.8574 101
11.625 15.2344 -1.1123 213
15.968800000000002 20.9219 3.3808999999999996 100
16.0 20.9688 4.0156 9
20.7344 27.1719 -0.39890000000000003 151
15.9922 20.9531 4.6406 187
4.8438 6.300800000000001 -1.3936000000000002 197
5.515599999999999 7.171900000000001 -1.3730000000000002 144
20.9531 27.25 1.1982 121
6.324199999999999 8.2266 -1.3291 88
20.8438 27.1094 1.9872999999999998 217
7.484400000000001 9.7344 -1.2861000000000002 11
20.6406 26.8438 2.7617000000000003 88
9.1172 11.8594 -1.2187999999999999 105
16.6094 21.6094 2.8613 247
11.6953 15.218800000000002 -1.1143 31
16.0156 20.8438 3.377 43
16.0469 20.875 4.0078 160
20.875 27.1562 -0.3997 25
16.2031 21.0781 4.6797 244
4.875 6.292999999999999 -1.3965 179
21.1094 27.2656 0.4023 178
5.5312 7.144500000000001 -1.3711000000000002 64
21.0781 27.2188 1.2002 192
6.359400000000001 8.2188 -1.3311000000000002 32
20.9844 27.1094 1.9922 103
7.515599999999999 9.7031 -1.2861000000000002 166
9.1641 11.835899999999999 -1.2187999999999999 72
16.7031 21.5781 2.8651999999999997 14
11.7578 15.1875 -1.1152 73
16.125 20.8281 3.3827999999999996 65
16.1562 20.8594 4.0156 227
21.0469 27.1719 -0.4011 240
16.2344 20.9688 4.668 0
4.9023 6.2890999999999995 -1.3984 75
21.2344 27.25 0.4031 9
5.574199999999999 7.1562 -1.3769999999999998 139
21.2344 27.25 1.2051 198
6.3789 8.1797 -1.3291 141
21.125 27.1094 1.9971 248
7.5586 9.6953 -1.2881 115
20.9062 26.8281 2.7754000000000003 206
9.2031 11.8047 -1.2187999999999999 185
16.8281 21.5938 2.873 122
11.8203 15.164100000000001 -1.1162 19
16.2812 20.8906 3.4004000000000003 150
18.4062 23.625 -1.0439 78
16.4531 21.1094 4.0742 100
16.2656 20.8594 4.6562 92
4.9258 6.2773 -1.3994 151
21.4219 27.2969 0.4048 255
5.5938 7.1289 -1.375 53
21.3594 27.2188 1.2061 154
6.417999999999999 8.1797 -1.3319999999999999 15
21.2969 27.1406 2.0039 68
7.605499999999999 9.6875 -1.29 151
19.4219 24.75 2.5664 142
9.25 11.7969 -1.2207 137
17.2969 22.0469 2.9395 221
11.875 15.1328 -1.1162 119
16.7656 21.375 3.4901999999999997 38
16.5 21.0156 4.0664 241
18.4375 23.5 -0.34840000000000004 43
16.3125 20.7812 4.6523 32
4.9453 6.2578 -1.3994 212
21.5469 27.25 0.40549999999999997 71
5.636699999999999 7.1328 -1.3799000000000001 147
21.5312 27.25 1.2109 199
6.457000000000001 8.1641 -1.334 251
21.4219 27.0938 2.0078 103
7.6562 9.6797 -1.2930000000000001 100
19.5 24.6719 2.5664 180
9.3125 11.781199999999998 -1.2227 108
17.375 21.9688 2.9395 152
11.9375 15.093800000000002 -1.1172 7
16.8594 21.3125 3.4901999999999997 108
20.375 25.7656 -1.1455 231
16.5938 20.9844 4.0742 158
16.375 20.7188 4.6484 144
4.9844 6.2578 -1.4033000000000002 242
21.7344 27.2969 0.4072 232
5.6602 7.109400000000001 -1.3788999999999998 228
21.6719 27.2188 1.2129 245
6.5039 8.1719 -1.3378999999999999 185
21.5469 27.0625 2.0098 74
7.6797 9.6484 -1.291 221
19.5312 24.5156 2.5566 217
9.3672 11.7578 -1.2246 37
17.5156 22.0 2.9512 67
12.023399999999999 15.101600000000001 -1.1211 43
16.9219 21.25 3.4882999999999997 110
20.5781 25.8438 -1.1523 100
16.7188 20.9844 4.0859 188
16.4375 20.6406 4.6445 21
5.0039 6.2422 -1.4033000000000002 60
21.8281 27.2188 0.4072 20
5.6797 7.0859000000000005 -1.3788999999999998 88
21.8281 27.2344 1.2168 30
6.5352 8.1484 -1.3378999999999999 155
21.7188 27.0781 2.0176 3
7.7227 9.6328 -1.2930000000000001 171
9.4062 11.7344 -1.2246 173
17.5781 21.9219 2.9473000000000003 131
12.093800000000002 15.085899999999999 -1.1220999999999999 224
17.0625 21.2812 3.5039 183
20.7344 25.8594 -1.1553 255
17.2812 21.5469 4.2031 16
21.7656 27.1562 -0.406 224
16.5156 20.6094 4.6484 238
5.0273 6.230499999999999 -1.4043 143
22.0469 27.3125 0.4094 214
5.7109000000000005 7.078099999999999 -1.3799000000000001 29
21.9531 27.2031 1.2187999999999999 183
6.5664 8.1328 -1.3388999999999998 25
21.8281 27.0469 2.0195 116
7.7734000000000005 9.6328 -1.2959 209
9.4531 11.710899999999999 -1.2256 86
17.6406 21.8594 2.9492000000000003 112
12.1875 15.101600000000001 -1.126 59
17.1094 21.2031 3.5 242
17.4219 21.5781 4.2227 57
21.8906 27.125 -0.4067 128
18.2344 22.5781 5.1094 80
5.0547 6.2109000000000005 -1.4043 180
22.2188 27.3125 0.41090000000000004 214
5.7539 7.0703 -1.3838 186
22.1562 27.2344 1.2236 2
6.6015999999999995 8.1172 -1.3397999999999999 247
22.0 27.0312 2.0254 157
7.828099999999999 9.6172 -1.2988 148
9.5234 11.7031 -1.2285 15
17.7188 21.7812 2.9473000000000003 175
12.2422 15.0469 -1.126 210
17.2188 21.1719 3.5058999999999996 96
17.5469 21.5781 4.2344 95
22.0625 27.1094 -0.4077 164
18.6562 22.9219 5.203099999999999 92
5.082 6.199199999999999 -1.4062000000000001 210
22.2344 27.1406 0.4094 191
5.792999999999999 7.0703 -1.3866999999999998 98
22.1719 27.0625 1.2197 20
6.636699999999999 8.1016 -1.3408000000000002 107
22.1406 27.0156 2.0293 232
7.8789 9.6172 -1.3018 192
9.5703 11.6797 -1.2295 114
17.75 21.6719 2.9395 148
12.2578 14.960899999999999 -1.123 12
17.4375 21.2812 3.5332 154
17.5156 21.375 4.207 186
22.2188 27.1094 -0.4089 85
18.7812 22.9219 5.2188 198
5.1094 6.1914 -1.4082 250
5.8086 7.0390999999999995 -1.3847999999999998 181
22.3125 27.0312 1.2227 105
6.6836 8.0938 -1.3447 67
22.2969 27.0156 2.0352 203
7.9102 9.5859 -1.3018 97
9.6172 11.648399999999999 -1.2305 150
17.9062 21.6875 2.9512 44
12.3125 14.914100000000001 -1.1220999999999999 228
17.5312 21.2344 3.5370999999999997 193
17.6094 21.3281 4.2109 2
22.375 27.1094 -0.4102 96
18.8281 22.8125 5.207000000000001 81
5.140599999999999 6.1836 -1.4102000000000001 228
5.8477 7.0312 -1.3877000000000002 71
22.4844 27.0469 1.2266 219
6.730499999999999 8.0938 -1.3486000000000002 199
22.4688 27.0312 2.043 26
7.957000000000001 9.5703 -1.3037 163
9.6719 11.6328 -1.2324 233
17.9375 21.5781 2.9452999999999996 182
12.351600000000001 14.8594 -1.1211 222
17.6094 21.1719 3.5370999999999997 89
21.5 25.875 -1.1729 174
17.6719 21.25 4.207 228
22.5469 27.1094 -0.4114 169
20.4844 24.6406 5.640599999999999 223
5.167999999999999 6.175800000000001 -1.4131 188
5.875 7.0234000000000005 -1.3896000000000002 185
22.625 27.0469 1.2295 224
6.765599999999999 8.0859 -1.3506 4
22.5938 27.0156 2.0469 16
8.0156 9.5781 -1.3075999999999999 156
20.4062 24.3906 2.5938 175
9.7109 11.601600000000001 -1.2324 237
18.7812 22.4531 3.0723000000000003 70
12.398399999999999 14.8203 -1.1220999999999999 137
18.0938 21.625 3.6211 146
17.8125 21.2812 4.2266 121
22.7188 27.1562 -0.4131 163
5.1797 6.1484000000000005 -1.4102000000000001 153
5.9062 7.011699999999999 -1.3916 183
6.796900000000001 8.0703 -1.3516 85
22.7656 27.0156 2.0527 56
8.0469 9.5547 -1.3075999999999999 79
20.4531 24.2656 2.5879000000000003 78
9.7578 11.5781 -1.2334 199
18.625 22.1094 3.0351999999999997 189
12.4297 14.7578 -1.1201 171
18.2188 21.625 3.6327999999999996 161
18.2812 21.6875 4.3203 74
5.207000000000001 6.1328 -1.4111000000000002 186
5.949199999999999 7.0039 -1.3944999999999999 121
22.9688 27.0625 1.2383 21
6.8359000000000005 8.0547 -1.3525 78
22.8906 26.9688 2.0566 195
8.1016 9.5391 -1.3105000000000002 163
18.9531 22.3281 2.3887 209
9.8281 11.5781 -1.2363 142
18.5156 21.8125 3.002 26
12.468800000000002 14.6875 -1.1181999999999999 227
18.5156 21.8125 3.6738 126
18.4062 21.6875 4.332 137
5.238300000000001 6.1289 -1.4141 14
5.9727 6.988300000000001 -1.3955000000000002 248
23.0625 26.9688 1.2373 120
6.875 8.0391 -1.3555000000000001 148
23.0625 26.9844 2.0625 96
8.1328 9.5156 -1.3105000000000002 252
19.0625 22.2969 2.3926 240
9.8828 11.5625 -1.2383 199
19.7812 23.125 3.1933999999999996 95
12.5547 14.6797 -1.1211 241
19.5781 22.9062 3.8711 207
22.1875 25.9531 -1.1904000000000001 50
18.5156 21.6562 4.3359 220
20.6094 24.1094 5.5859000000000005 35
5.2773 6.1289 -1.4188999999999998 222
5.9961 6.9648 -1.3944999999999999 38
23.0625 26.7969 1.2324 18
6.921900000000001 8.0469 -1.3594 95
23.2344 26.9844 2.0684 159
8.1875 9.5078 -1.3135 231
19.1406 22.25 2.3945 117
9.9141 11.5156 -1.2373 246
19.9531 23.1719 3.2089999999999996 20
12.664100000000001 14.718800000000002 -1.127 113
20.0938 23.3438 3.957 40
18.75 21.7812 4.375 86
20.5781 23.9219 5.5547 163
5.3047 6.1211 -1.4209 68
6.0352 6.9648 -1.3994 66
23.2031 26.7656 1.2354 236
6.953099999999999 8.0234 -1.3603999999999998 154
23.3906 26.9844 2.0742 72
8.2266 9.4922 -1.3154 253
19.2031 22.1719 2.3926 151
9.9609 11.4922 -1.2383 16
19.2812 22.25 3.0898000000000003 116
12.773399999999999 14.7422 -1.1318000000000001 76
20.4844 23.6406 4.0195 151
18.7344 21.625 4.3555 216
20.6719 23.8594 5.5586 131
5.328099999999999 6.105499999999999 -1.4209 240
6.0664 6.949199999999999 -1.4003999999999999 196
23.3594 26.7656 1.2383 242
6.984400000000001 8.0078 -1.3613 132
23.5469 26.9844 2.082 111
8.2656 9.4766 -1.3163999999999998 103
19.25 22.0625 2.3887 242
10.0234 11.4844 -1.2412 91
20.0312 22.9531 3.1992000000000003 23
12.8203 14.6953 -1.1318000000000001 242
18.6094 21.3125 3.6348000000000003 239
18.8594 21.6094 4.3672 55
23.6719 27.125 -0.4199 76
5.3477 6.0859000000000005 -1.4209 150
23.8281 27.1094 0.4211 197
6.0977 6.9414 -1.4022999999999999 47
23.6875 26.9688 1.252 113
7.0312 8.0 -1.3652000000000002 11
23.7188 27.0 2.0879 222
8.3203 9.4688 -1.3203 77
19.625 22.3438 2.4258 250
10.0859 11.4844 -1.2451 129
12.8672 14.648399999999999 -1.1318000000000001 14
18.75 21.3438 3.6483999999999996 169
19.7344 22.4688 -1.042 123
19.0 21.625 4.3828 169
23.7812 27.0781 -0.4207 7
5.3789 6.074199999999999 -1.4238 226
23.9531 27.0625 0.4219 50
6.125 6.917999999999999 -1.4022999999999999 119
23.9062 27.0156 1.2578 44
7.0703 7.988300000000001 -1.3672 23
23.875 26.9688 2.0918 104
8.3516 9.4375 -1.3203 184
19.5312 22.0625 2.4043 75
10.1484 11.460899999999999 -1.2461 173
19.4375 21.9688 3.0781 226
12.9297 14.6094 -1.1328 136
19.125 21.5938 3.7051 106
19.7656 22.3125 -1.0391 200
23.9688 27.0781 -0.4219 182
5.4140999999999995 6.074199999999999 -1.4277000000000002 110
24.1562 27.0781 0.4233 235
6.1523 6.9023 -1.4033000000000002 191
24.0625 26.9844 1.2607 111
7.113300000000001 7.9765999999999995 -1.3691 173
24.0469 26.9688 2.0996 40
8.3984 9.4219 -1.3222999999999998 112
19.5938 21.9844 2.4023 138
10.1953 11.4375 -1.248 57
19.4844 21.8438 3.0723000000000003 193
12.9922 14.5703 -1.1328 11
19.7344 22.125 -1.0332 71
24.1406 27.0781 -0.4233 36
5.4414 6.0625 -1.4287 253
24.3906 27.1719 0.4263 128
6.1875 6.890599999999999 -1.4053 213
24.2969 27.0625 1.2686 101
7.1484000000000005 7.9609000000000005 -1.3711000000000002 125
24.2188 26.9688 2.1074 200
8.4453 9.4062 -1.3241999999999998 103
19.6562 21.8906 2.3984 229
10.2422 11.406199999999998 -1.248 156
13.0547 14.539100000000001 -1.1338 87
19.6719 21.9062 -1.0264 159
24.4688 27.25 -0.42719999999999997 3
5.4609000000000005 6.0390999999999995 -1.4287 222
24.6562 27.2656 0.429 176
6.2188 6.8789 -1.4072 46
24.5312 27.125 1.2754 55
7.1797 7.9414 -1.3721 137
24.375 26.9531 2.1113 20
8.4922 9.3906 -1.3262 180
19.75 21.8438 2.4004 152
10.289100000000001 11.3828 -1.25 245
13.093800000000002 14.4844 -1.1328 212
19.7656 21.8594 -1.0273 227
24.6719 27.2812 -0.4292 69
5.484400000000001 6.0234000000000005 -1.4287 83
24.8281 27.2812 0.4304 135
6.25 6.8672 -1.4091999999999998 106
24.7188 27.1562 1.2803 133
7.230499999999999 7.9414 -1.376 7
24.5312 26.9531 2.1172 54
8.5312 9.375 -1.3271000000000002 222
19.8281 21.7812 2.4023 35
10.3672 11.3906 -1.2549 174
13.1719 14.468800000000002 -1.1357 175
19.8281 21.7812 -1.0264 236
24.7969 27.25 -0.4299 64
5.519500000000001 6.0234000000000005 -1.4325999999999999 2
24.9375 27.2188 0.43090000000000006 162
6.2852 6.855499999999999 -1.4121000000000001 187
24.9219 27.1875 1.2861000000000002 118
7.2734000000000005 7.9375 -1.3788999999999998 121
24.7031 26.9531 2.125 155
8.5781 9.3594 -1.3300999999999998 99
10.4297 11.3828 -1.2578 130
13.2422 14.4531 -1.1377 68
19.7812 21.5938 -1.0205 47
24.9688 27.25 -0.4314 19
5.550800000000001 6.011699999999999 -1.4355000000000002 42
25.0938 27.1719 0.4316 41
6.3047 6.828099999999999 -1.4102000000000001 170
25.0625 27.1406 1.2881 197
7.3086 7.917999999999999 -1.3809 155
24.8906 26.9688 2.1328 233
8.6172 9.3359 -1.3311000000000002 105
10.5078 11.3828 -1.2617 136
13.3281 14.4375 -1.1406 89
19.7031 21.3438 -1.0127 91
25.125 27.2188 -0.4321 134
5.582000000000001 6.0078 -1.4385 145
6.3359000000000005 6.8164 -1.4121000000000001 11
25.2031 27.1094 1.291 96
7.3515999999999995 7.9102 -1.3838 43
25.0625 26.9688 2.1387 10
8.6641 9.3203 -1.3330000000000002 180
10.5625 11.3594 -1.2637 172
13.3672 14.375 -1.1396 218
19.7344 21.2188 -1.0098 121
21.9219 23.5938 -0.3757 113
5.6015999999999995 5.984400000000001 -1.4375 214
6.375 6.8125 -1.4169999999999998 97
7.3828 7.886699999999999 -1.3838 47
21.9531 23.4688 1.8672 201
8.7188 9.3125 -1.3359 4
10.625 11.351600000000001 -1.2666 244
13.4219 14.343800000000002 -1.1406 81
19.7969 21.1562 -1.0098 131
5.6172 5.9609000000000005 -1.4365 4
25.625 27.2031 0.4363 179
6.421900000000001 6.8164 -1.4209 98
25.5781 27.1562 1.3008000000000002 208
7.425800000000001 7.8828 -1.3877000000000002 143
25.4062 26.9688 2.1523 67
8.75 9.2891 -1.3369 204
10.656199999999998 11.3125 -1.2656 45
13.476600000000001 14.3047 -1.1406 92
19.8594 21.0781 -1.0098 117
5.6484000000000005 5.949199999999999 -1.4394999999999998 242
25.7969 27.1875 0.4375 176
6.457000000000001 6.8047 -1.4238 210
25.7344 27.1094 1.3037 33
7.4727 7.875 -1.3906 135
25.5625 26.9375 2.1582 180
8.7969 9.2734 -1.3388999999999998 222
10.718800000000002 11.2969 -1.2686 80
13.539100000000001 14.273399999999999 -1.1416 183
19.9531 21.0312 -1.0107 208
5.6797 5.9414 -1.4413999999999998 100
26.0 27.2031 0.43920000000000003 67
6.4765999999999995 6.7773 -1.4228999999999998 4
25.9062 27.1094 1.3075999999999999 84
7.5078 7.855499999999999 -1.3925999999999998 146
25.75 26.9531 2.166 12
8.8438 9.25 -1.3397999999999999 101
10.75 11.25 -1.2676 170
13.6172 14.25 -1.1445 95
55.4062 58.0 10.3125 209
5.7148 5.9375 -1.4463 25
26.1719 27.1875 0.4404 163
6.519500000000001 6.7773 -1.4277000000000002 139
26.0625 27.0781 1.3105000000000002 178
7.546900000000001 7.8398 -1.3944999999999999 11
25.9219 26.9375 2.1719 63
8.9141 9.2656 -1.3466999999999998 232
10.789100000000001 11.210899999999999 -1.2666 22
13.6719 14.2031 -1.1445 46
5.730499999999999 5.9140999999999995 -1.4453 241
26.2344 27.0625 0.4399 175
6.5586 6.765599999999999 -1.4306999999999999 62
26.1406 26.9844 1.3105000000000002 251
7.5859000000000005 7.828099999999999 -1.3965 192
26.0781 26.9219 2.1777 104
8.9531 9.2344 -1.3477000000000001 98
10.8594 11.2031 -1.2705 110
13.7344 14.1719 -1.1455 164
20.3906 21.0312 -1.0215 178
5.75 5.894500000000001 -1.4443000000000001 74
26.3281 26.9688 0.4399 185
6.5898 6.7539 -1.4325999999999999 239
26.2656 26.9219 1.3115 207
7.625 7.8125 -1.3994 67
26.2812 26.9375 2.1875 66
8.9922 9.2188 -1.3486000000000002 2
10.9375 11.2031 -1.2754 168
13.8047 14.148399999999999 -1.1475 168
20.6094 21.1094 -1.0283 59
5.7812 5.886699999999999 -1.4472999999999998 218
26.5625 27.0156 0.4421 29
6.6172 6.730499999999999 -1.4325999999999999 237
26.4688 26.9375 1.3174000000000001 58
7.671900000000001 7.8086 -1.4022999999999999 136
26.4531 26.9219 2.1934 252
9.0234 9.1797 -1.3486000000000002 94
10.968800000000002 11.164100000000001 -1.2744 95
13.8594 14.101600000000001 -1.1475 249
56.6875 57.6875 10.398399999999999 246
5.8203 5.8828 -1.4512 141
26.7969 27.0781 0.4446 243
6.6289 6.699199999999999 -1.4306999999999999 3
26.6875 26.9688 1.3232 130
7.7188 7.800800000000001 -1.4062000000000001 218
26.6406 26.9219 2.2012 196
9.0859 9.1797 -1.3525 240
11.023399999999999 11.1406 -1.2764 211
13.9297 14.0781 -1.1494 244
20.8594 21.0781 -1.0332 146
5.8515999999999995 5.875 -1.4550999999999998 142
26.9844 27.0781 0.446 236
6.6797 6.703099999999999 -1.4365 203
26.8281 26.9219 1.3262 147
7.75 7.7773 -1.4062000000000001 151
26.8125 26.9062 2.207 107
9.1406 9.1797 -1.3574000000000002 176
11.0781 11.1172 -1.2783 76
13.9844 14.031199999999998 -1.1494 105
21.0625 21.1406 -1.04 226
21.1406 21.2188 -0.3494 157
5.8828 5.863300000000001 -1.4569999999999999 149
27.1719 27.0781 0.44780000000000003 94
6.734400000000001 6.7109000000000005 -1.4434 148
26.9062 26.8125 1.3241999999999998 146
7.7852 7.7578 -1.4082 249
26.9844 26.8906 2.2148 28
9.1797 9.1484 -1.3574000000000002 211
11.148399999999999 11.1094 -1.2822 24
14.085899999999999 14.039100000000001 -1.1543 11
21.3125 21.2344 -0.35109999999999997 32
5.890599999999999 5.828099999999999 -1.4541 208
27.375 27.0781 0.4495 136
6.7578 6.6875 -1.4434 185
26.875 26.5938 1.3184 103
7.824199999999999 7.7422 -1.4111000000000002 40
27.1875 26.8906 2.2227 143
9.2188 9.125 -1.3584 72
11.1953 11.0781 -1.2832 21
14.148399999999999 14.0 -1.1553 179
64.8125 64.125 11.726600000000001 227
21.3594 21.1406 -1.0479 43
21.2812 21.0469 -0.34909999999999997 214
5.9297 5.824199999999999 -1.4580000000000002 26
6.7890999999999995 6.671900000000001 -1.4453 209
27.0625 26.5938 1.3232 84
7.8789 7.7461 -1.416 43
27.3438 26.875 2.2285 80
9.2578 9.0938 -1.3594 184
11.25 11.0547 -1.2841999999999998 127
14.2344 13.9844 -1.1582 235
65.1875 64.0625 11.75 101
21.3438 20.9844 -0.34909999999999997 120
5.9609000000000005 5.8164 -1.4609 32
6.8359000000000005 6.671900000000001 -1.4502000000000002 31
27.2188 26.5625 1.3262 209
7.921900000000001 7.730499999999999 -1.4180000000000001 253
27.5469 26.875 2.2363 112
9.3203 9.0938 -1.3643 160
11.289100000000001 11.0156 -1.2841999999999998 231
14.289100000000001 13.9453 -1.1592 178
5.9961 5.8125 -1.4647999999999999 255
27.9219 27.0625 0.4539 71
6.8672 6.6562 -1.4521000000000002 135
27.3906 26.5625 1.3311000000000002 73
7.953099999999999 7.707000000000001 -1.4188999999999998 125
27.7344 26.8906 2.2441 127
9.3672 9.0781 -1.3662 175
11.3203 10.976600000000001 -1.2841999999999998 63
14.3828 13.9453 -1.1631 30
6.015599999999999 5.792999999999999 -1.4647999999999999 254
6.9023 6.644500000000001 -1.4541 74
27.8438 26.8125 1.3477000000000001 108
7.984400000000001 7.6875 -1.4199000000000002 94
27.9062 26.875 2.252 8
9.4062 9.0547 -1.3672 167
11.3828 10.960899999999999 -1.2871000000000001 125
14.4297 13.898399999999999 -1.1631 246
6.1172 5.8477 -1.4853999999999998 122
6.953099999999999 6.6484000000000005 -1.46 74
28.1562 26.9219 1.3584 101
8.0234 7.675800000000001 -1.4228999999999998 202
28.0938 26.875 2.2598 173
9.4531 9.0391 -1.3700999999999999 117
11.460899999999999 10.960899999999999 -1.2919999999999998 4
14.5078 13.875 -1.165 169
28.5 27.0781 0.4587 87
6.988300000000001 6.636699999999999 -1.4628999999999999 228
30.3594 28.8438 1.46 34
8.0703 7.6640999999999995 -1.4258000000000002 151
28.2812 26.875 2.2676 150
9.4844 9.0078 -1.3700999999999999 251
11.5156 10.9375 -1.2930000000000001 141
14.5469 13.8203 -1.165 141
7.0312 6.6328 -1.4678 243
28.6562 27.0156 1.3730000000000002 74
8.1172 7.6562 -1.4297 110
28.4844 26.8594 2.2754 78
9.5391 8.9922 -1.3730000000000002 12
11.5469 10.8828 -1.2919999999999998 133
14.648399999999999 13.8125 -1.1689 201
30.4219 28.4844 0.4866 159
7.0859000000000005 6.636699999999999 -1.4736000000000002 115
28.875 27.0469 1.3799000000000001 165
8.1484 7.6328 -1.4306999999999999 125
28.6875 26.8594 2.2832 115
9.5781 8.9688 -1.375 140
11.6172 10.875 -1.2959 22
14.75 13.8125 -1.1729 172
22.5938 21.1562 -1.0791 251
0.6128 0.5698 -0.14029999999999998 164
30.375 28.25 0.4841 208
7.167999999999999 6.6640999999999995 -1.4863 173
29.0469 27.0156 1.3838 181
8.1953 7.6172 -1.4336000000000002 84
28.875 26.8438 2.291 211
9.6328 8.9609 -1.3779 55
11.664100000000001 10.843800000000002 -1.2969 238
14.7656 13.7344 -1.1709 167
22.8906 21.2812 -0.36469999999999997 119
0.5771000000000001 0.5332 -0.13119999999999998 218
30.375 28.0625 0.4827 46
29.2344 27.0 1.3877000000000002 46
8.2266 7.5977 -1.4346 110
29.0781 26.8438 2.2988 184
9.6719 8.9297 -1.3788999999999998 154
27.8594 25.7344 3.0938 100
11.726600000000001 10.8281 -1.2997999999999998 43
14.8281 13.6953 -1.1719 244
58.3438 53.875 10.2109 30
22.9688 21.2188 -1.0898 134
23.0625 21.2969 -0.36619999999999997 103
0.5791 0.5312 -0.13119999999999998 92
30.3594 27.8281 0.4807 190
29.4531 27.0156 1.3936000000000002 31
8.2734 7.5859000000000005 -1.4385 94
29.2656 26.8438 2.3086 37
9.7109 8.9062 -1.3809 114
11.7656 10.789100000000001 -1.2997999999999998 38
14.8906 13.656199999999998 -1.1729 50
58.4688 53.625 10.2031 151
23.0781 21.1562 -1.0918 203
23.3281 21.3906 -0.36939999999999995 173
0.5752 0.5239 -0.1298 206
30.375 27.6562 0.47950000000000004 58
29.6406 27.0 1.3984 219
8.3125 7.574199999999999 -1.4413999999999998 8
29.4844 26.8438 2.3164 154
9.7656 8.8906 -1.3838 190
27.75 25.2656 3.0625 188
11.8203 10.7656 -1.3018 9
14.968800000000002 13.6328 -1.1748 23
23.2656 21.1875 -1.0967 129
30.2188 27.5156 -0.4771 127
0.6035 0.5459 -0.136 88
30.3125 27.4219 0.47729999999999995 158
30.2656 27.375 1.4228999999999998 194
8.3594 7.5625 -1.4443000000000001 154
27.7969 25.1406 2.1777 225
9.7969 8.8672 -1.3847999999999998 166
27.7344 25.0781 3.0507999999999997 202
11.8672 10.7344 -1.3027000000000002 209
15.0547 13.6172 -1.1777 147
23.4219 21.1875 -1.1006 225
0.5669 0.5093 -0.127 213
30.2031 27.1406 1.416 140
8.375 7.5273 -1.4434 107
27.9531 25.125 2.1836 190
9.8516 8.8516 -1.3877000000000002 84
28.0938 25.25 3.082 4
11.898399999999999 10.6953 -1.3027000000000002 108
15.1328 13.593800000000002 -1.1806999999999999 183
30.0312 26.9844 -0.47119999999999995 121
0.5864 0.5229 -0.13119999999999998 102
30.2188 26.9531 0.47240000000000004 195
0.6714 0.5986 -0.1307 100
30.1094 26.8594 1.4072 197
8.4297 7.515599999999999 -1.4472999999999998 145
27.6406 24.6406 2.1523 126
9.8906 8.8203 -1.3887 90
28.2031 25.1562 3.0839999999999996 152
11.968800000000002 10.6719 -1.3056999999999999 198
15.164100000000001 13.523399999999999 -1.1797 146
30.2188 26.9531 -0.4727 178
0.606 0.5366 -0.1354 23
0.6733 0.5967 -0.1307 142
30.3438 26.875 1.4131 204
8.4844 7.511699999999999 -1.4521000000000002 232
27.75 24.5781 2.1543 199
9.9375 8.8047 -1.3906 52
27.8906 24.7031 3.0391000000000004 254
12.039100000000001 10.664100000000001 -1.3096 247
15.2422 13.5 -1.1816 152
0.6021 0.5293 -0.13390000000000002 154
28.9219 25.4375 1.3428 150
8.5234 7.4961 -1.4550999999999998 214
27.8594 24.5 2.1562 222
9.9688 8.7656 -1.3906 193
28.0625 24.6875 3.0488 183
12.0781 10.625 -1.3105000000000002 185
15.343800000000002 13.4922 -1.1865 222
0.5859000000000001 0.5117 -0.1298 39
30.7969 26.8906 1.4258000000000002 97
8.5547 7.4727 -1.4561000000000002 22
27.9219 24.375 2.1543 235
10.0234 8.7578 -1.3944999999999999 85
28.1719 24.6094 3.0507999999999997 52
12.101600000000001 10.5703 -1.3086000000000002 71
15.3828 13.4375 -1.1855 105
0.585 0.5073 -0.129 103
0.6797 0.5893999999999999 -0.1307 48
29.4375 25.5156 1.3584 117
8.5859 7.4453 -1.4561000000000002 46
27.9844 24.2656 2.1523 121
10.0703 8.7344 -1.3965 60
28.2812 24.5312 3.0547000000000004 82
12.148399999999999 10.531199999999998 -1.3096 98
15.4453 13.3906 -1.1865 253
31.6875 27.4844 -0.48969999999999997 20
0.5928 0.5103 -0.1305 62
29.5312 25.4219 1.3594 6
8.625 7.4297 -1.459 60
28.0156 24.125 2.1484 198
10.1094 8.7109 -1.3984 114
28.8281 24.8281 3.1035000000000004 192
12.2031 10.5078 -1.3115 124
15.531199999999998 13.375 -1.1895 7
0.6064 0.5186 -0.1333 12
31.3594 26.8125 1.4394999999999998 147
8.6797 7.421900000000001 -1.4638999999999998 197
27.8125 23.7812 2.127 156
10.1484 8.6797 -1.3984 127
27.3594 23.3906 2.9375 17
12.2422 10.468800000000002 -1.3115 77
15.6172 13.351600000000001 -1.1924 192
0.6143 0.5215 -0.1346 212
28.75 24.4062 1.3154 202
8.7188 7.4023 -1.4658000000000002 199
28.0 23.7656 2.1348 224
10.2031 8.6641 -1.4022999999999999 224
12.289100000000001 10.4297 -1.3125 240
15.6719 13.3047 -1.1934 30
0.6011 0.5063 -0.13119999999999998 224
8.7578 7.3789 -1.4678 103
28.1875 23.7656 2.1426 116
10.2578 8.6484 -1.4053 24
29.0 24.4375 3.0938 34
12.3203 10.3906 -1.3125 83
15.75 13.273399999999999 -1.1953 217
0.6177 0.5171 -0.1346 7
29.0938 24.3594 1.3232 104
8.7891 7.355499999999999 -1.4687999999999999 5
28.6094 23.9531 2.168 165
10.3047 8.625 -1.4082 85
12.375 10.3594 -1.3144999999999998 199
15.8203 13.2422 -1.1982 28
0.5952000000000001 0.4949 -0.129 236
30.5625 25.4062 1.3857 70
8.8203 7.3359000000000005 -1.4707 122
27.75 23.0781 2.0977 131
10.351600000000001 8.6094 -1.4102000000000001 192
12.468800000000002 10.3672 -1.3213 255
28.6719 23.8438 3.9160000000000004 14
15.875 13.1953 -1.1982 19
25.6562 21.3281 -0.3892 22
0.5938 0.4905 -0.1284 179
30.7031 25.3594 1.3887 172
8.8672 7.3203 -1.4736000000000002 204
27.75 22.9219 2.0918 141
10.398399999999999 8.5859 -1.4131 84
12.539100000000001 10.3594 -1.3252000000000002 75
28.9219 23.875 3.9375 133
15.968800000000002 13.1875 -1.2021 196
25.625 21.1562 -0.38770000000000004 233
0.6323 0.5181 -0.1367 181
29.1562 23.8906 0.4399 99
0.6958 0.5703 -0.1307 29
30.75 25.2031 1.3866999999999998 82
8.9219 7.3125 -1.4785 31
28.0312 22.9688 2.1055 136
10.4375 8.5547 -1.4141 81
29.7969 24.4062 3.1426 182
12.6172 10.335899999999999 -1.3281 107
28.8438 23.6406 3.9160000000000004 118
16.0312 13.1406 -1.2041 42
25.6875 21.0469 -0.3875 27
0.6006 0.4885 -0.129 39
8.9609 7.2890999999999995 -1.4805000000000001 130
28.125 22.875 2.1055 214
10.5 8.5391 -1.4180000000000001 119
29.2188 23.7656 3.0742000000000003 56
12.6328 10.281199999999998 -1.3262 41
29.0469 23.625 3.9297000000000004 141
16.1094 13.1094 -1.2061 144
25.7344 20.9375 -0.387 190
0.6143 0.4963 -0.1318 206
29.5469 23.875 0.4434 74
0.6997 0.5654 -0.1307 125
9.0312 7.296900000000001 -1.4883000000000002 84
28.3906 22.9531 2.1211 26
10.531199999999998 8.5078 -1.4188999999999998 89
28.4531 23.0 2.9844 4
12.7031 10.2656 -1.3300999999999998 111
29.9375 24.1875 4.043 170
16.1875 13.085899999999999 -1.208 112
25.8594 20.8906 -0.38770000000000004 145
0.5942000000000001 0.4771 -0.127 192
0.7017 0.563 -0.1307 36
29.1875 23.4219 1.3047 3
9.0781 7.2852 -1.4922 199
28.5781 22.9375 2.1289 169
10.5781 8.4844 -1.4209 122
29.1875 23.4219 3.0526999999999997 68
12.7578 10.2422 -1.3330000000000002 87
30.0469 24.1094 4.043 111
16.25 13.039100000000001 -1.209 45
25.9844 20.8594 -0.3889 5
0.624 0.4971 -0.1333 190
29.5625 23.5469 0.4412 134
0.7036 0.5605 -0.1307 195
9.1328 7.2773 -1.4971 147
28.6562 22.8281 2.1289 83
10.6172 8.4531 -1.4219 8
29.5 23.5 3.0781 152
12.835899999999999 10.2266 -1.3369 145
16.3281 13.0078 -1.2119 86
26.1562 20.8438 -0.3901 40
0.6069 0.4802 -0.129 248
0.7056 0.5581 -0.1307 61
29.8438 23.6094 1.3271000000000002 222
9.2031 7.2773 -1.5038999999999998 73
28.7656 22.75 2.1309 15
10.6719 8.4375 -1.4247999999999998 189
29.3125 23.1875 3.0488 152
12.8594 10.1719 -1.3359 73
29.3594 23.2188 3.9297000000000004 198
16.4375 13.0078 -1.2168 119
26.3281 20.8281 -0.3918 46
0.6304 0.4951 -0.13390000000000002 98
0.7075 0.5557 -0.1307 191
29.8906 23.4688 1.3252000000000002 210
9.2344 7.2539 -1.5049000000000001 56
28.9062 22.7031 2.1348 158
10.726600000000001 8.4219 -1.4297 3
29.4375 23.1094 3.0526999999999997 195
12.9219 10.1484 -1.3388999999999998 102
16.4844 12.9453 -1.2168 232
26.5156 20.8125 -0.3933 156
0.6353 0.4954 -0.1346 148
0.7095 0.5532 -0.1307 86
29.8125 23.25 1.3184 47
9.2734 7.230499999999999 -1.5078 98
28.8906 22.5312 2.1289 163
10.789100000000001 8.4062 -1.4325999999999999 228
29.3125 22.8594 3.0332 114
12.9531 10.1016 -1.3378999999999999 28
16.5781 12.9219 -1.2207 90
26.6719 20.7969 -0.3948 76
0.5996 0.46409999999999996 -0.1263 93
0.7114 0.5508 -0.1307 125
30.1875 23.3594 1.3311000000000002 206
9.3203 7.2148 -1.5107 80
28.6562 22.1875 2.1055 167
10.8203 8.375 -1.4336000000000002 14
13.039100000000001 10.0938 -1.3428 241
29.7812 23.0469 3.9531 30
16.6875 12.914100000000001 -1.2256 84
26.875 20.7969 -0.39649999999999996 102
0.6357 0.4885 -0.13390000000000002 44
0.7134 0.5483 -0.1307 24
31.2656 24.0312 1.375 255
9.375 7.203099999999999 -1.5146000000000002 163
29.1719 22.4219 2.1387 232
10.8672 8.3516 -1.4355000000000002 37
29.5625 22.7188 3.0410000000000004 63
13.1094 10.0703 -1.3466999999999998 152
29.7969 22.8906 3.9452999999999996 41
16.7344 12.8594 -1.2256 57
27.0469 20.7812 -0.3979 11
0.6406000000000001 0.4888 -0.1346 213
0.6836 0.522 -0.1246 69
31.25 23.8438 1.3711000000000002 61
9.4141 7.1875 -1.5186000000000002 140
28.4844 21.7344 2.082 214
10.9297 8.3359 -1.4404 164
29.7656 22.7188 3.0547000000000004 254
13.1406 10.0312 -1.3466999999999998 195
29.5312 22.5469 3.9004000000000003 52
16.8281 12.843800000000002 -1.2285 208
27.2344 20.7812 -0.3997 16
0.6328 0.47950000000000004 -0.1326 153
0.7168000000000001 0.5435 -0.1307 241
35.2812 26.75 1.5449000000000002 116
9.4531 7.167999999999999 -1.5205000000000002 211
28.3906 21.5156 2.0703 140
10.976600000000001 8.3203 -1.4424000000000001 57
30.1094 22.8125 3.082 230
13.1953 10.0 -1.3486000000000002 242
29.75 22.5469 3.918 35
16.8906 12.8047 -1.2305 53
27.4219 20.7812 -0.4014 97
0.625 0.47 -0.1305 72
0.6620999999999999 0.498 -0.1198 153
31.2969 23.5469 1.3662 217
9.5078 7.1484000000000005 -1.5244 161
29.9531 22.5312 2.1777 25
11.023399999999999 8.2891 -1.4453 181
13.2656 9.9766 -1.3516 114
29.6719 22.3281 3.8983999999999996 161
17.0 12.781199999999998 -1.2344 64
27.6094 20.7656 -0.4033 52
0.6138 0.4585 -0.1277 99
0.6509 0.4861 -0.1174 237
35.75 26.6875 1.5556999999999999 212
9.4844 7.082000000000001 -1.5175999999999998 245
30.1094 22.4844 2.1836 238
11.0781 8.2734 -1.4482 142
29.9375 22.3594 3.0488 90
13.335899999999999 9.9609 -1.3563999999999998 118
29.875 22.3125 3.9141000000000004 213
17.0625 12.75 -1.2373 54
27.7656 20.7344 -0.4043 138
0.6504000000000001 0.48219999999999996 -0.1354 178
0.6973 0.5171 -0.1259 162
36.0 26.6875 1.5625 53
9.4531 7.0039 -1.5078 111
30.2969 22.4688 2.1914 145
11.1172 8.2422 -1.4502000000000002 183
30.1406 22.3438 3.0605 239
13.398399999999999 9.9375 -1.3594 58
29.9688 22.2188 3.9160000000000004 6
17.1719 12.726600000000001 -1.2412 114
28.0 20.75 -0.4067 144
0.6299 0.46340000000000003 -0.1305 43
0.6801999999999999 0.5005 -0.1223 180
36.2188 26.6562 1.5693000000000001 180
9.4766 6.9727 -1.5078 177
30.4375 22.4062 2.1973 78
11.164100000000001 8.2188 -1.4521000000000002 74
29.1875 21.4844 2.957 126
13.4375 9.8906 -1.3594 179
30.0 22.0781 3.9101999999999997 60
17.25 12.6875 -1.2431999999999999 11
28.2031 20.75 -0.40840000000000004 8
0.6377 0.4658 -0.1318 192
0.6562 0.4792 -0.1174 132
36.5312 26.6875 1.5781 216
9.5 6.9375 -1.5078 99
30.1875 22.0625 2.1738 26
11.218800000000002 8.1953 -1.4550999999999998 165
29.25 21.3594 2.9551 241
13.468800000000002 9.8438 -1.3594 119
29.9531 21.875 3.8945 27
17.3125 12.648399999999999 -1.2451 250
28.4062 20.75 -0.4106 128
0.6299 0.4568 -0.1298 99
0.6675 0.4841 -0.1192 164
36.75 26.6562 1.584 237
9.5156 6.9023 -1.5068000000000001 125
30.5938 22.1875 2.1953 135
11.2656 8.1719 -1.4580000000000002 136
29.3906 21.3125 2.9608999999999996 208
13.5547 9.8281 -1.3643 17
30.2969 21.9688 3.9297000000000004 220
17.4219 12.6328 -1.249 57
28.5781 20.7344 -0.4121 14
0.6347999999999999 0.4568 -0.1305 8
0.6498999999999999 0.4678 -0.11560000000000001 235
37.0625 26.6875 1.5937999999999999 236
9.5547 6.8789 -1.5088 232
31.3281 22.5469 2.2422 231
11.3125 8.1484 -1.4609 47
29.375 21.1562 2.9531 76
13.6172 9.8047 -1.3672 152
30.4219 21.9062 3.9355 175
17.5156 12.6094 -1.2529000000000001 175
28.7812 20.7188 -0.4138 108
0.6235 0.4456 -0.1277 97
0.6416 0.4587 -0.11380000000000001 83
37.3125 26.6719 1.6006 238
9.5625 6.832000000000001 -1.5059 88
31.3906 22.4375 2.2422 4
11.351600000000001 8.1094 -1.4619 77
29.4219 21.0312 2.9512 149
13.664100000000001 9.7656 -1.3681999999999999 183
30.5156 21.8125 3.9375 161
17.5938 12.5781 -1.2559 166
29.0 20.7188 -0.41600000000000004 147
0.6411 0.4546 -0.13119999999999998 245
0.6465000000000001 0.4587 -0.1144 228
37.5938 26.6562 1.6074000000000002 25
9.5859 6.800800000000001 -1.5059 54
31.5781 22.4062 2.25 183
11.375 8.0703 -1.4609 137
30.6562 21.75 3.0664 248
13.7344 9.7422 -1.3721 16
30.6406 21.7344 3.9433999999999996 52
17.7031 12.5547 -1.2598 19
29.25 20.75 -0.41850000000000004 100
0.6459999999999999 0.4548 -0.1318 169
8.3281 5.863300000000001 -1.5469 182
37.7812 26.6094 1.6122999999999998 4
9.5938 6.7578 -1.5038999999999998 169
31.7344 22.3438 2.2559 66
11.4453 8.0625 -1.4668 174
31.0 21.8281 3.0938 212
13.789100000000001 9.7031 -1.374 95
