# .PCD v0.7 - Point Cloud Data file format
VERSION 0.7
FIELDS x y z intensity
SIZE 4 4 4 4
TYPE F F F F
COUNT 1 1 1 1
WIDTH 1229
HEIGHT 1
VIEWPOINT 0 0 0 1 0 0 0
POINTS 1229
DATA ascii
-12.781199999999998 -11.210899999999999 2.5858999999999996 116
-12.789100000000001 -11.226600000000001 -0.1981 112
-12.781199999999998 -11.218800000000002 2.9901999999999997 53
-12.8281 -11.1875 0.1981 171
-12.789100000000001 -11.148399999999999 0.5908 216
-3.5195 -3.0683999999999996 -0.5952000000000001 165
-12.7969 -11.156199999999998 0.9849 202
-12.843800000000002 -11.2031 1.3887 208
-8.7578 -7.6328 1.2158 249
-10.343800000000002 -9.0156 1.7588 178
-12.789100000000001 -11.148399999999999 -0.5908 254
-10.2109 -8.8984 2.0586 95
-12.773399999999999 -11.1406 -0.1973 168
-10.7422 -9.3594 2.5059 196
-12.8281 -11.101600000000001 0.1975 91
-12.781199999999998 -11.0625 0.5884 210
-3.5449 -3.0683999999999996 -0.5977 214
-12.7969 -11.0781 0.9819 9
-9.8047 -8.4844 1.0556999999999999 127
-8.7578 -7.582000000000001 1.2129 71
-10.476600000000001 -9.0625 1.7763999999999998 137
-12.7969 -11.0781 -0.5893999999999999 207
-8.3125 -7.1914 1.6699000000000002 134
-12.7656 -11.0469 -0.19649999999999998 3
-10.0625 -8.7109 2.3398 154
-12.8203 -11.023399999999999 0.1968 38
-3.2285000000000004 -2.7754000000000003 -0.6426000000000001 91
-12.7969 -11.0078 0.5879 7
-3.5526999999999997 -3.0547000000000004 -0.5972 250
-12.781199999999998 -10.9922 0.978 44
-12.7969 -11.0078 1.375 43
-8.8047 -7.5703 1.2158 32
-11.125 -9.5625 1.8818000000000001 3
-12.8125 -11.0156 -0.5884 159
-12.781199999999998 -10.9922 2.5645 153
-12.7656 -10.976600000000001 -0.196 174
-9.7031 -8.3438 2.248 69
-2.9941000000000004 -2.5566 -0.687 67
-12.7969 -10.9219 0.19579999999999997 120
-12.789100000000001 -10.914100000000001 0.5854 35
-3.5547000000000004 -3.0332 -0.5957 148
-12.789100000000001 -10.914100000000001 0.9756 244
-12.7969 -10.9219 1.3700999999999999 233
-9.9062 -8.4531 1.3643 25
-7.894500000000001 -6.734400000000001 -0.6011 46
-11.2344 -9.5859 1.8944999999999999 46
-12.789100000000001 -10.914100000000001 -0.5854 227
-12.781199999999998 -10.906199999999998 2.5547 52
-12.773399999999999 -10.898399999999999 -0.1954 123
-10.789100000000001 -9.2031 2.4922 30
-3.0195 -2.5586 -0.6904 65
-12.8047 -10.851600000000001 0.1954 238
-12.781199999999998 -10.835899999999999 0.5835 134
-3.6327999999999996 -3.0781 -0.6069 223
-12.789100000000001 -10.835899999999999 0.9727 57
-12.781199999999998 -10.835899999999999 1.3652000000000002 50
-8.875 -7.519500000000001 1.2178 203
-7.9102 -6.703099999999999 -0.6006 119
-11.5078 -9.75 1.9346 2
-12.781199999999998 -10.835899999999999 -0.5835 184
-12.781199999999998 -10.835899999999999 2.5488 134
-12.789100000000001 -10.835899999999999 -0.19510000000000002 91
-10.9375 -9.2656 2.5215 189
-3.0370999999999997 -2.5547 -0.6923999999999999 164
-12.8125 -10.781199999999998 0.1949 170
-12.773399999999999 -10.75 0.5811 7
-3.6132999999999997 -3.0391000000000004 -0.6015999999999999 139
-12.789100000000001 -10.7578 0.9697 25
-10.1875 -8.5703 1.083 111
-9.9062 -8.3281 1.3555000000000001 165
-12.7656 -10.7422 -0.9682999999999999 72
-12.7578 -10.7344 2.1387 182
-12.789100000000001 -10.7578 -0.5815 41
-12.7578 -10.7344 2.5352 195
-12.773399999999999 -10.7422 -0.1942 100
-9.875 -8.3125 2.2695 152
-12.8125 -10.7031 0.1943 128
-12.773399999999999 -10.664100000000001 0.5791 190
-3.623 -3.0273000000000003 -0.6015999999999999 68
-12.781199999999998 -10.6719 0.9662999999999999 218
-12.789100000000001 -10.6797 1.3574000000000002 35
-9.9688 -8.3281 1.3603999999999998 21
-12.773399999999999 -10.6719 -0.9658 211
-12.7656 -10.664100000000001 2.1348 101
-12.7969 -10.6875 -0.5806 34
-12.7578 -10.656199999999998 2.5293 46
-12.7656 -10.656199999999998 -0.1936 252
-9.9062 -8.2734 2.2676 173
-3.0117000000000003 -2.498 -0.6826000000000001 84
-12.8047 -10.6172 0.1936 65
-12.789100000000001 -10.6094 0.5786 143
-3.6641000000000004 -3.0391000000000004 -0.6069 101
-12.7656 -10.585899999999999 0.9623999999999999 226
-12.773399999999999 -10.601600000000001 1.3525 142
-12.6797 -10.5156 1.7266 243
-12.7656 -10.593800000000002 -0.9623999999999999 159
-12.75 -10.5781 2.125 26
-12.789100000000001 -10.6094 -0.5786 230
-12.7578 -10.585899999999999 2.5215 131
-12.7578 -10.585899999999999 -0.193 172
-9.9766 -8.2812 2.2793 12
-12.7969 -10.5469 0.193 51
-12.789100000000001 -10.539100000000001 0.5767 115
-3.6836 -3.0351999999999997 -0.6084 68
-12.7656 -10.5156 0.9595 149
-12.7656 -10.5156 1.3477000000000001 83
-7.5586 -6.230499999999999 -0.7964 13
-12.6719 -10.4375 1.7207 85
-12.773399999999999 -10.523399999999999 -0.9604 222
-12.7422 -10.5 2.1191 197
-12.773399999999999 -10.523399999999999 -0.5761999999999999 216
-12.773399999999999 -10.531199999999998 2.5176 93
-12.773399999999999 -10.523399999999999 -0.19260000000000002 132
-9.9609 -8.2031 2.2676 220
-12.8047 -10.468800000000002 0.19260000000000002 251
-12.7656 -10.4375 0.5742 244
-3.6952999999999996 -3.0214999999999996 -0.6084 151
-12.7656 -10.4375 0.9570000000000001 230
-12.7656 -10.4375 1.3428 51
-7.5625 -6.1836 -0.7939 30
-12.6797 -10.3672 1.7168 19
-12.773399999999999 -10.4453 -0.9570000000000001 8
-12.75 -10.4297 2.1133 252
-12.781199999999998 -10.4531 -0.5747 223
-11.1094 -9.0859 2.1816 252
-12.781199999999998 -10.4453 -0.19210000000000002 165
-9.9688 -8.1484 2.2617 19
-12.7969 -10.3906 0.1918 27
-12.7656 -10.3672 0.5722999999999999 130
-3.7305 -3.0273000000000003 -0.6123 136
-12.773399999999999 -10.3672 0.9541 254
-12.7656 -10.3672 1.3397999999999999 189
-7.613300000000001 -6.1797 -0.7974 90
-12.664100000000001 -10.281199999999998 1.71 82
-12.7656 -10.3672 -0.9541 20
-12.7578 -10.3594 2.1074 186
-12.781199999999998 -10.375 -0.5728 96
-11.1875 -9.0781 2.1895 155
-12.7656 -10.3672 -0.19140000000000001 136
-9.9766 -8.1016 2.2578 211
-12.8047 -10.3281 0.19140000000000001 70
-12.7656 -10.2969 0.5708 2
-3.7245999999999997 -3.0039 -0.6099 80
-12.7656 -10.2969 0.9517 189
-12.773399999999999 -10.3047 1.3369 124
-7.6836 -6.199199999999999 -0.8027 29
-12.656199999999998 -10.2109 1.7050999999999998 205
-12.7578 -10.289100000000001 -0.9512 240
-12.75 -10.281199999999998 2.1016 227
-12.773399999999999 -10.3047 -0.5713 200
-11.4453 -9.2266 2.2344 86
-12.7422 -10.281199999999998 -0.1906 75
-10.0312 -8.0938 2.2656 116
-12.7969 -10.25 0.19079999999999997 173
-12.7656 -10.2266 0.5693 88
-3.75 -3.0039 -0.6123 188
-12.7422 -10.2109 0.9473 14
-12.75 -10.2109 1.3311000000000002 120
-7.738300000000001 -6.199199999999999 -0.8062 164
-12.664100000000001 -10.1484 1.7012 246
-12.7422 -10.2109 -0.9473 190
-12.7344 -10.2031 2.0938 206
-12.773399999999999 -10.2344 -0.5698 50
-11.1328 -8.9219 2.1699 161
-12.7422 -10.2109 -0.19010000000000002 72
-12.789100000000001 -10.1719 0.1902 245
-12.7578 -10.1406 0.5674 146
-3.7207 -2.957 -0.606 100
-12.7578 -10.1406 0.9453 220
-12.7578 -10.1406 1.3271000000000002 89
-7.800800000000001 -6.199199999999999 -0.8101 240
-12.6953 -10.0859 1.6991999999999998 64
-12.718800000000002 -10.1094 -0.9423999999999999 156
-12.726600000000001 -10.1172 2.0859 119
-12.781199999999998 -10.1562 -0.5684 165
-10.9844 -8.7266 2.1328 210
-12.75 -10.1328 -0.18960000000000002 203
-11.1094 -8.8281 2.4961 189
-3.2051 -2.5293 -0.7123999999999999 126
-12.773399999999999 -10.0859 0.1895 248
-12.7578 -10.0703 0.5659000000000001 204
-3.7617000000000003 -2.9688 -0.6108 252
-12.7578 -10.0703 0.9434 231
-12.7656 -10.0703 1.3241999999999998 20
-7.8398 -6.1875 -0.8125 61
-12.664100000000001 -9.9922 1.6913999999999998 231
-12.710899999999999 -10.0312 -0.9399 164
-12.726600000000001 -10.0469 2.0801 178
-12.7344 -10.0469 -0.5645 247
-11.1953 -8.8359 2.168 173
-12.7344 -10.0469 -0.1888 136
-10.898399999999999 -8.6016 2.4395 143
-12.7969 -10.0312 0.1892 156
-12.789100000000001 -10.0234 0.5654 221
-3.7793 -2.9608999999999996 -0.6118 175
-12.8203 -10.0469 0.9448000000000001 180
-12.7578 -10.0 1.3203 245
-7.859400000000001 -6.1562 -0.812 32
-12.664100000000001 -9.9219 1.6865 55
-12.718800000000002 -9.9609 -0.9375 61
-12.7422 -9.9844 2.0762 46
-12.7578 -10.0 -0.5645 34
-11.539100000000001 -9.0391 2.2285 60
-12.773399999999999 -10.0078 -0.1888 228
-11.085899999999999 -8.6875 2.4746 28
-12.8281 -9.9766 0.1891 44
-12.843800000000002 -9.9922 0.5664 63
-3.8242000000000003 -2.9745999999999997 -0.6177 145
-12.851600000000001 -9.9922 0.9443 61
-7.3047 -5.6797 -0.9678 20
-12.7578 -9.9219 1.3163999999999998 60
-7.886699999999999 -6.1328 -0.8125 255
-12.648399999999999 -9.8438 1.6797 100
-12.726600000000001 -9.8984 -0.9351 21
-12.7422 -9.9062 2.0703 105
-12.8203 -9.9766 -0.5654 217
-11.5781 -9.0078 2.2305 45
-12.8047 -9.9609 -0.1888 121
-11.1328 -8.6641 2.4805 217
-3.1523000000000003 -2.4355 -0.6953 134
-12.8672 -9.9453 0.1893 146
-12.875 -9.9453 0.5664 171
-3.8495999999999997 -2.9745999999999997 -0.6206 114
-12.914100000000001 -9.9766 0.9468000000000001 182
-7.296900000000001 -5.636699999999999 -0.9643999999999999 120
-12.75 -9.8516 1.3125 210
-12.7656 -9.8594 -1.3135 3
-12.656199999999998 -9.7734 1.6758000000000002 166
-12.710899999999999 -9.8203 -0.9320999999999999 35
-12.726600000000001 -9.8359 2.0645 137
-12.8672 -9.9375 -0.5659000000000001 178
-12.843800000000002 -9.9219 2.4688 210
-12.875 -9.9453 -0.1895 252
-11.148399999999999 -8.6094 2.4766 184
-3.1776999999999997 -2.4375 -0.6987000000000001 28
-12.8594 -9.8672 0.1886 252
-12.976600000000001 -9.9531 0.5693 32
-3.8438 -2.9492000000000003 -0.6177 35
-13.0 -9.9766 0.9506999999999999 146
-7.3398 -5.6328 -0.9678 45
-12.7656 -9.7891 1.3105000000000002 64
-12.7656 -9.7969 -1.3105000000000002 47
-12.656199999999998 -9.7109 1.6719 226
-12.726600000000001 -9.7656 -0.9307 106
-12.718800000000002 -9.7578 2.0566 89
-12.906199999999998 -9.8984 -0.5664 8
-12.843800000000002 -9.8594 2.4629 138
-12.9844 -9.9609 -0.1906 155
-11.148399999999999 -8.5547 2.4707 198
-3.248 -2.4746 -0.7123999999999999 150
-12.8828 -9.8047 0.1885 41
-13.0469 -9.9297 0.5708 154
-3.8438 -2.9257999999999997 -0.6157 128
-13.0547 -9.9375 0.9521 205
-7.394500000000001 -5.6328 -0.9727 250
-12.7422 -9.7031 1.3047 117
-12.75 -9.7109 -1.3056999999999999 211
-12.6406 -9.625 1.666 182
-12.7344 -9.6953 -0.9287000000000001 241
-12.718800000000002 -9.6875 2.0508 230
-13.0156 -9.9141 -0.5693 188
-12.789100000000001 -9.7422 2.4453 207
-12.9922 -9.8984 -0.19010000000000002 171
-11.125 -8.4766 2.459 58
-3.2577999999999996 -2.4629 -0.7123999999999999 241
-12.8594 -9.7188 0.18760000000000002 71
-13.0469 -9.8594 0.5693 139
-3.8711 -2.9276999999999997 -0.6187 25
-13.085899999999999 -9.8906 0.9517 7
-7.453099999999999 -5.636699999999999 -0.9775 255
-12.7422 -9.6328 1.3008000000000002 56
-12.7344 -9.6328 -1.3008000000000002 177
-12.6406 -9.5625 1.6611000000000002 213
-12.75 -9.6406 -0.9272 249
-12.726600000000001 -9.625 2.0469 240
-13.023399999999999 -9.8438 -0.5684 84
-10.875 -8.2188 2.0723 126
-12.6953 -9.5938 -0.1852 173
-11.3047 -8.5469 2.4922 7
-12.851600000000001 -9.6484 0.187 183
-13.0703 -9.8125 0.5688 46
-3.8789 -2.9120999999999997 -0.6182 98
-13.0469 -9.7969 0.9468000000000001 42
-7.519500000000001 -5.644500000000001 -0.9834 244
-12.7422 -9.5625 1.2978999999999998 135
-12.75 -9.5703 -1.2988 120
-12.656199999999998 -9.5 1.6591999999999998 11
-12.7344 -9.5547 -0.9238 103
-12.726600000000001 -9.5547 2.041 57
-13.0547 -9.7969 -0.5679 187
-12.773399999999999 -9.5859 2.4297 30
-13.0156 -9.7656 -0.1893 106
-10.9297 -8.2031 2.4023 37
-12.875 -9.5938 0.1869 22
-13.0547 -9.7266 0.5669 6
-3.9141000000000004 -2.9160000000000004 -0.6225999999999999 158
-13.039100000000001 -9.7188 0.9434 218
-7.5625 -5.6328 -0.9863 62
-12.7422 -9.4922 1.2949000000000002 143
-12.7578 -9.5078 -1.2959 218
-12.6875 -9.4531 1.6582 77
-12.710899999999999 -9.4766 -0.9198999999999999 205
-12.718800000000002 -9.4766 2.0352 20
-13.0547 -9.7266 -0.5664 99
-12.773399999999999 -9.5156 2.4219 251
-12.9531 -9.6562 -0.188 54
-12.9844 -9.6719 2.8476999999999997 146
-3.2832 -2.4277 -0.7123999999999999 30
-12.851600000000001 -9.5 0.18600000000000003 203
-13.0547 -9.6562 0.5654 145
-3.9473000000000003 -2.9199 -0.626 82
-13.0781 -9.6719 0.9438 162
-7.625 -5.640599999999999 -0.9922 151
-12.7578 -9.4375 1.2919999999999998 160
-12.7578 -9.4375 -1.2930000000000001 103
-12.6406 -9.3516 1.6484 39
-12.726600000000001 -9.4141 -0.9185 229
-12.718800000000002 -9.4062 2.0293 142
-13.0078 -9.625 -0.563 228
-12.718800000000002 -9.4062 2.4062 142
-13.0156 -9.625 -0.1885 89
-12.9844 -9.6016 2.8398000000000003 83
-12.875 -9.4531 0.1859 235
-13.085899999999999 -9.6094 0.5649000000000001 132
-3.957 -2.9062 -0.626 97
-13.0781 -9.6016 0.9414 137
-7.703099999999999 -5.6562 -1.0 30
-12.7344 -9.3516 1.2871000000000001 193
-12.75 -9.3594 -1.2881 76
-12.6406 -9.2812 1.6436000000000002 141
-12.7344 -9.3516 -0.9165000000000001 140
-12.718800000000002 -9.3359 2.0234 169
-13.0547 -9.5859 -0.564 146
-11.156199999999998 -8.1875 2.1035 141
-13.031199999999998 -9.5703 -0.1882 45
-12.9922 -9.5391 2.8339999999999996 82
-12.8594 -9.3672 0.1852 163
-13.0625 -9.5156 0.5625 215
-3.9901999999999997 -2.9082 -0.6294 134
-13.0625 -9.5156 0.9375 88
-12.7344 -9.2812 1.2832 234
-12.7344 -9.2812 -1.2832 47
-12.6406 -9.2109 1.6396000000000002 174
-12.7422 -9.2812 -0.9146 217
-12.718800000000002 -9.2734 2.0195 84
-12.9219 -9.4141 -0.5562 220
-12.601600000000001 -9.1797 2.3711 64
-13.0078 -9.4766 -0.1873 138
-12.9844 -9.4609 2.8262 83
-12.9297 -9.3516 0.1858 254
-13.0625 -9.4453 0.561 224
-4.0234 -2.9101999999999997 -0.6333 197
-13.0703 -9.4531 0.9359999999999999 104
-12.7656 -9.2344 -1.6513999999999998 252
-12.7344 -9.2109 1.2803 219
-12.7344 -9.2109 -1.2803 18
-12.6406 -9.1484 1.6357 52
-12.7422 -9.2188 -0.9120999999999999 186
-12.718800000000002 -9.2031 2.0137 251
-13.039100000000001 -9.4297 -0.5600999999999999 190
-12.6094 -9.1172 2.3672 247
-13.023399999999999 -9.4141 -0.187 164
-12.8047 -9.2656 2.7793 255
-12.906199999999998 -9.2734 0.18489999999999998 35
-13.0547 -9.375 0.5596 132
-4.043 -2.9043 -0.6347999999999999 108
-13.0547 -9.375 0.9326000000000001 200
-12.7656 -9.1641 -1.6465 218
-12.7422 -9.1484 1.2773 150
-12.7422 -9.1562 -1.2783 224
-12.648399999999999 -9.0859 1.6318000000000001 102
-12.726600000000001 -9.1406 -0.9092 223
-12.7031 -9.125 2.0078 212
-12.9297 -9.2891 -0.5542 250
-12.601600000000001 -9.0547 2.3594 14
-12.9844 -9.3281 -0.18600000000000003 179
-12.7969 -9.1953 2.7714999999999996 50
-12.9375 -9.2266 0.18489999999999998 220
-12.8828 -9.1875 0.5508 32
-4.0625 -2.8964999999999996 -0.6362 149
-12.8047 -9.1328 0.9126000000000001 93
-12.75 -9.0938 -1.6406 116
-12.726600000000001 -9.0781 1.2734 168
-12.75 -9.0938 -1.2754 38
-12.6328 -9.0156 1.6269999999999998 43
-12.718800000000002 -9.0703 -0.9062 73
-12.7031 -9.0625 2.002 134
-12.906199999999998 -9.2109 -0.5518 95
-12.601600000000001 -8.9922 2.3535 103
-12.8828 -9.1875 -0.1841 201
-12.789100000000001 -9.125 2.7637 42
-12.8125 -9.0625 0.1826 209
-12.8125 -9.0703 0.5464 241
-4.1758 -2.9551 -0.6523 169
-12.8203 -9.0703 0.9111 86
-12.7422 -9.0156 -1.6357 249
-12.710899999999999 -9.0 1.2686 224
-12.7422 -9.0156 -1.2715 57
-12.648399999999999 -8.9531 1.625 71
-12.7344 -9.0156 -0.9053 49
-12.6953 -8.9844 1.9961000000000002 167
-12.789100000000001 -9.0547 -0.5454 33
-12.601600000000001 -8.9141 2.3477 79
-12.789100000000001 -9.0547 -0.18239999999999998 21
-12.8125 -9.0703 2.7617000000000003 89
-12.8281 -9.0078 0.18239999999999998 166
-12.8047 -8.9922 0.5444 131
-4.1875 -2.9414 -0.6523 206
-12.8203 -9.0078 0.9092 75
-12.7578 -8.9609 -1.6338 13
-12.718800000000002 -8.9375 1.2656 167
-12.7344 -8.9453 -1.2676 236
-12.6328 -8.875 1.6181999999999999 38
-12.7422 -8.9531 -0.9037999999999999 25
-12.710899999999999 -8.9297 1.9931999999999999 130
-12.8125 -9.0 -0.5449 171
-12.585899999999999 -8.8438 2.3398 115
-12.7969 -8.9922 -0.182 68
-12.8281 -9.0156 2.7577999999999996 14
-12.8281 -8.9453 0.182 39
-12.8281 -8.9453 0.5444 141
-4.1797 -2.9141000000000004 -0.6498999999999999 221
-12.8281 -8.9453 0.9077 54
-12.7578 -8.8984 -1.6299000000000001 73
-12.718800000000002 -8.8672 1.2627 150
-12.7344 -8.875 -1.2646 23
-12.6406 -8.8125 1.6152000000000002 236
-12.718800000000002 -8.8672 -0.8994 30
-12.710899999999999 -8.8672 1.9883000000000002 185
-12.8203 -8.9375 -0.5439 249
-12.593800000000002 -8.7812 2.334 253
-12.7422 -8.8906 -0.1808 206
-12.9922 -9.0547 2.7851999999999997 49
-12.8672 -8.9062 0.182 12
-12.875 -8.9141 0.5449 170
-4.2227 -2.9238 -0.6553 222
-12.976600000000001 -8.9844 0.9155 223
-12.75 -8.8281 -1.625 24
-12.7422 -8.8203 1.2617 72
-12.7344 -8.8125 -1.2617 153
-12.6328 -8.7422 1.6103999999999998 215
-12.718800000000002 -8.8047 -0.897 201
-12.710899999999999 -8.7969 1.9824000000000002 203
-12.8672 -8.9062 -0.5444 106
-12.601600000000001 -8.7266 2.3301 40
-12.843800000000002 -8.8906 -0.1818 113
-12.9844 -8.9922 2.7773000000000003 249
-12.914100000000001 -8.875 0.18239999999999998 102
-13.023399999999999 -8.9531 0.5503 39
-4.2422 -2.9141000000000004 -0.6562 20
-13.039100000000001 -8.9531 0.9175 29
-12.718800000000002 -8.7422 1.2568000000000001 51
-12.7422 -8.75 -1.2588 67
-12.6406 -8.6875 1.6074000000000002 237
-12.718800000000002 -8.7422 -0.8955 119
-12.6875 -8.7188 1.9756 228
-12.8906 -8.8516 -0.5444 65
-12.6094 -8.6641 2.3262 157
-12.6875 -8.7188 -0.1791 5
-13.0 -8.9297 2.7733999999999996 100
-12.906199999999998 -8.8047 0.1818 170
-13.023399999999999 -8.8828 0.5488000000000001 218
-6.296900000000001 -4.293 -0.9751000000000001 137
-13.023399999999999 -8.8828 0.9146 119
-12.7031 -8.6641 1.252 122
-12.75 -8.6953 -1.2568000000000001 80
-12.6328 -8.6172 1.6025 161
-12.726600000000001 -8.6797 -0.894 209
-12.6953 -8.6562 1.9707 84
-12.851600000000001 -8.7656 -0.5415 53
-12.593800000000002 -8.5859 2.3184 230
-12.851600000000001 -8.7656 -0.18100000000000002 253
-13.0156 -8.875 2.7695 161
-12.9531 -8.7656 0.182 100
-3.6895 -2.4961 -0.6729 65
-13.0078 -8.8047 0.5468999999999999 132
-6.2890999999999995 -4.2578 -0.9717 31
-13.023399999999999 -8.8125 0.9120999999999999 76
-6.3086 -4.2695 -0.7959 190
-12.710899999999999 -8.6016 1.25 90
-6.449199999999999 -4.3633 -0.6323 195
-12.6172 -8.5391 1.5966999999999998 164
-12.726600000000001 -8.6094 -0.8911 87
-12.7031 -8.6016 1.9678 22
-12.9375 -8.7578 -0.5435 176
-12.585899999999999 -8.5156 2.3105 153
-12.914100000000001 -8.7422 -0.1814 185
-13.0078 -8.8047 2.7617000000000003 62
-12.8125 -8.6016 0.1796 47
-13.0156 -8.7422 0.5459 66
-6.2773 -4.2148 -0.9673 69
-13.0156 -8.7422 0.9097 31
-12.726600000000001 -8.5469 1.249 117
-12.6328 -8.4844 1.5947 227
-12.726600000000001 -8.5469 -0.8892 55
-12.7031 -8.5312 1.9628999999999999 81
-12.773399999999999 -8.5781 -0.5356000000000001 73
-12.593800000000002 -8.4609 2.3066 39
-12.851600000000001 -8.6328 -0.1802 230
-12.9922 -8.7266 2.752 49
-12.9453 -8.6328 0.18100000000000002 118
-13.023399999999999 -8.6875 0.5449 92
-6.265599999999999 -4.1797 -0.9629000000000001 71
-13.0156 -8.6797 0.9072 22
-12.718800000000002 -8.4844 1.2451 11
-6.390599999999999 -4.2617 -0.624 134
-12.625 -8.4219 1.5897999999999999 210
-12.7031 -8.4766 -0.8856999999999999 27
-12.6875 -8.4609 1.9561000000000002 16
-12.9219 -8.6172 -0.5405 117
-12.593800000000002 -8.3984 2.3027 206
-12.898399999999999 -8.6016 -0.1804 171
-12.976600000000001 -8.6562 2.7441000000000004 19
-12.875 -8.5234 0.1797 98
-3.7148000000000003 -2.459 -0.6729 6
-12.960899999999999 -8.5859 0.541 222
-6.265599999999999 -4.1484 -0.9614 203
-13.0078 -8.6172 0.9053 220
-12.710899999999999 -8.4219 1.2422 223
-12.648399999999999 -8.375 1.5897999999999999 117
-12.710899999999999 -8.4141 -0.8843000000000001 205
-12.6797 -8.3906 1.9502000000000002 73
-12.7969 -8.4688 -0.5342 143
-12.601600000000001 -8.3438 2.2988 203
-12.8125 -8.4844 -0.1788 131
-12.9922 -8.6016 2.7401999999999997 203
-12.968800000000002 -8.5156 0.1805 205
-13.0078 -8.5391 0.5415 107
-6.261699999999999 -4.1094 -0.958 188
-13.031199999999998 -8.5547 0.9043000000000001 29
-6.292999999999999 -4.1328 -0.7866 39
-12.710899999999999 -8.3438 1.2383 96
-12.648399999999999 -8.3047 1.5859 63
-12.726600000000001 -8.3594 -0.8833 70
-12.6719 -8.3203 1.9453 244
-12.8906 -8.4609 -0.5366 38
-12.6328 -8.2969 2.2988 6
-12.914100000000001 -8.4844 -0.17980000000000002 33
-12.9844 -8.5312 2.7324 50
-12.960899999999999 -8.4453 0.1801 242
-12.960899999999999 -8.4453 0.5386 214
-6.2539 -4.0742 -0.9545999999999999 48
-13.0078 -8.4766 0.9004000000000001 40
-6.2852 -4.0977 -0.7842 240
-12.710899999999999 -8.2812 1.2354 49
-6.3086 -4.1094 -0.6113000000000001 107
-12.6719 -8.2578 1.585 137
-6.421900000000001 -4.1836 -0.44310000000000005 189
-12.656199999999998 -8.25 1.9385 255
-12.851600000000001 -8.375 -0.5337 189
-12.6719 -8.2578 2.3008 47
-12.6953 -8.2734 -0.17629999999999998 173
-12.9844 -8.4609 2.7245999999999997 160
-12.914100000000001 -8.3594 0.179 170
-13.0078 -8.4141 0.5390999999999999 10
-6.238300000000001 -4.0352 -0.9501999999999999 220
-13.0 -8.4062 0.8979 35
-6.2812 -4.0625 -0.7812 244
-12.710899999999999 -8.2188 1.2324 99
-6.3398 -4.1016 -0.6133 92
-12.6328 -8.1719 1.5762 121
-6.4023 -4.1445 -0.4412 70
-12.664100000000001 -8.1875 1.9346 204
-12.7969 -8.2812 -0.5303 255
-12.6875 -8.2031 2.2969 9
-12.898399999999999 -8.3438 -0.1788 139
-12.8281 -8.2969 2.6855 115
-12.960899999999999 -8.3203 0.17920000000000003 139
-13.0 -8.3516 0.5376 215
-6.2422 -4.0078 -0.9487000000000001 178
-12.9922 -8.3438 0.8959999999999999 248
-6.2734000000000005 -4.0273 -0.7787999999999999 240
-12.726600000000001 -8.1719 1.2314 160
-6.3203 -4.0586 -0.6099 219
-12.664100000000001 -8.1328 1.5771000000000002 197
-6.390599999999999 -4.1055 -0.43920000000000003 130
-12.6406 -8.1172 1.9268 190
-6.5625 -4.2148 -0.2705 171
-12.6953 -8.1562 2.2949 79
-12.906199999999998 -8.2891 -0.17850000000000002 247
-12.6797 -8.1406 2.6504000000000003 228
-12.898399999999999 -8.2188 0.17800000000000002 108
-12.968800000000002 -8.2656 0.5352 255
-6.2422 -3.9745999999999997 -0.9462999999999999 208
-12.835899999999999 -8.1797 0.8828 221
-6.261699999999999 -3.9882999999999997 -0.7754000000000001 220
-12.7031 -8.0938 1.2266 149
-6.328099999999999 -4.0312 -0.6093999999999999 138
-12.6797 -8.0781 1.5752000000000002 206
-6.3828 -4.0664 -0.43770000000000003 32
-12.6328 -8.0469 1.9209 90
-6.550800000000001 -4.1758 -0.2695 208
-12.6953 -8.0859 2.2891 24
-12.898399999999999 -8.2109 -0.1779 218
-12.6797 -8.0781 2.6445 10
-12.781199999999998 -8.0859 0.17600000000000002 32
-12.7656 -8.0703 0.5259 212
-6.238300000000001 -3.9433999999999996 -0.9438 40
-12.710899999999999 -8.0391 0.8726 205
-6.265599999999999 -3.9608999999999996 -0.7744 186
-12.6875 -8.0234 1.2227 75
-6.3203 -3.9941000000000004 -0.6069 166
-12.7031 -8.0312 1.5752000000000002 88
-6.390599999999999 -4.0391 -0.43729999999999997 116
-12.625 -7.980499999999999 1.915 4
-6.5312 -4.1289 -0.2681 51
-12.1094 -7.6562 2.1777 151
-12.718800000000002 -8.0391 -0.175 166
-12.093800000000002 -7.644500000000001 2.5156 210
-12.7344 -7.988300000000001 0.17489999999999997 99
-12.710899999999999 -7.9727 0.522 40
-6.2227 -3.9043 -0.9395 22
-12.710899999999999 -7.9765999999999995 0.8706 214
-6.261699999999999 -3.9297000000000004 -0.7725 185
-12.6875 -7.957000000000001 1.2197 253
-6.3086 -3.9589999999999996 -0.605 161
-12.1797 -7.640599999999999 1.5068000000000001 218
-6.390599999999999 -4.0078 -0.4363 121
-12.093800000000002 -7.5898 1.8311000000000002 43
-6.5234000000000005 -4.0938 -0.2671 42
-12.093800000000002 -7.5859000000000005 2.1699 60
-12.6875 -7.9609000000000005 -0.1743 19
-12.1172 -7.6015999999999995 2.5156 224
-12.7344 -7.925800000000001 0.1746 4
-12.6953 -7.9023 0.5205 52
-6.2148 -3.8672000000000004 -0.9359999999999999 21
-12.7031 -7.9062 0.8676999999999999 3
-6.261699999999999 -3.8983999999999996 -0.7709999999999999 159
-12.148399999999999 -7.5625 1.165 147
-6.3047 -3.9257999999999997 -0.603 194
-12.648399999999999 -7.8711 1.5605000000000002 96
-6.375 -3.9688 -0.4343 19
-11.976600000000001 -7.453099999999999 1.8086000000000002 219
-6.5312 -4.0664 -0.2668 186
-12.6797 -7.894500000000001 2.2715 7
-12.6875 -7.894500000000001 -0.17379999999999998 199
-12.6797 -7.890599999999999 2.625 82
-12.726600000000001 -7.863300000000001 0.1741 188
-12.7031 -7.8477 0.5195000000000001 128
-6.2109000000000005 -3.8358999999999996 -0.9336 233
-12.6797 -7.832000000000001 0.8647 254
-6.2578 -3.8632999999999997 -0.7681 117
-12.7031 -7.8438 1.2158 92
-6.3125 -3.8983999999999996 -0.6021 233
-12.6953 -7.8398 1.5635 223
-6.363300000000001 -3.9297000000000004 -0.4324 150
-11.9297 -7.3711 1.7988 136
-6.519500000000001 -4.0273 -0.2656 151
-12.6797 -7.832000000000001 2.2656 91
-12.6797 -7.828099999999999 -0.17329999999999998 66
-12.6875 -7.832000000000001 2.6211 40
-12.710899999999999 -7.7890999999999995 0.17350000000000002 232
-12.7031 -7.7852 0.5186 204
-6.2148 -3.8086 -0.9320999999999999 217
-12.7031 -7.7812 0.8637999999999999 7
-6.2422 -3.8262 -0.7651 81
-12.6953 -7.7773 1.2119 31
-6.3047 -3.8632999999999997 -0.6001 247
-12.6875 -7.7734000000000005 1.5586000000000002 131
-6.375 -3.9062 -0.4324 162
-11.9375 -7.3164 1.7959 26
-6.5039 -3.9863 -0.2646 136
-12.6797 -7.769500000000001 2.2617 43
-12.6953 -7.7812 -0.1732 148
-12.6719 -7.765599999999999 2.6132999999999997 2
-12.710899999999999 -7.734400000000001 0.17309999999999998 4
-12.6953 -7.7265999999999995 0.5171 59
-6.203099999999999 -3.7733999999999996 -0.9281999999999999 124
-12.6953 -7.7265999999999995 0.8618000000000001 15
-6.238300000000001 -3.7949 -0.7626999999999999 122
-12.6953 -7.7227 1.21 79
-6.296900000000001 -3.832 -0.5986 152
-12.6719 -7.7109000000000005 1.5547 7
-6.386699999999999 -3.8867000000000003 -0.4324 19
-11.9375 -7.265599999999999 1.7919999999999998 242
-6.488300000000001 -3.9473000000000003 -0.2634 155
-12.6094 -7.671900000000001 2.2441 67
-12.6797 -7.7148 -0.1727 236
-12.539100000000001 -7.6328 2.582 2
-12.718800000000002 -7.6836 0.1729 4
-12.6797 -7.6562 0.5156000000000001 136
-6.199199999999999 -3.7422000000000004 -0.9258 11
-12.6953 -7.667999999999999 0.8604 238
-6.238300000000001 -3.7676 -0.7612000000000001 213
-12.6406 -7.636699999999999 1.2031 92
-6.2852 -3.7949 -0.5962 21
-12.5469 -7.574199999999999 1.5352000000000001 87
-11.9375 -7.2109000000000005 1.7881 223
-6.484400000000001 -3.918 -0.2627 212
-12.585899999999999 -7.6015999999999995 2.2363 0
-12.6719 -7.6562 -0.1722 26
-12.6328 -7.6328 2.5957 116
-12.7344 -7.625 0.1726 159
-12.6875 -7.5977 0.5146000000000001 162
-6.1953 -3.7108999999999996 -0.9233 201
-12.6953 -7.6015999999999995 0.8584 1
-6.2461 -3.7422000000000004 -0.7606999999999999 87
-12.6719 -7.5898 1.2031 217
-6.2890999999999995 -3.7676 -0.5952000000000001 55
-12.585899999999999 -7.5390999999999995 1.5371000000000001 83
-11.9375 -7.1523 1.7852000000000001 190
-6.488300000000001 -3.8848000000000003 -0.2622 170
-12.1875 -7.300800000000001 2.1602 129
-12.6719 -7.5898 -0.1718 195
-12.664100000000001 -7.5859000000000005 2.5957 179
-12.710899999999999 -7.5547 0.172 13
-4.168 -2.4785 -0.7329000000000001 113
-12.6953 -7.542999999999999 0.5136999999999999 230
-6.1875 -3.6776999999999997 -0.9204000000000001 78
-12.6797 -7.5312 0.8554999999999999 253
-6.234400000000001 -3.7051 -0.7578 87
-12.7031 -7.550800000000001 1.2031 54
-6.296900000000001 -3.7422000000000004 -0.5947 85
-12.664100000000001 -7.5273 1.5438999999999998 63
-11.914100000000001 -7.082000000000001 1.7772999999999999 198
-6.484400000000001 -3.8516000000000004 -0.2615 61
-12.1328 -7.207000000000001 2.1445 124
-12.6797 -7.5352 -0.1716 248
-12.1406 -7.2148 2.4824 162
-12.710899999999999 -7.4922 0.1716 219
-12.6797 -7.4765999999999995 0.5122 189
-6.1953 -3.6523000000000003 -0.9198999999999999 175
-12.6797 -7.4727 0.8534999999999999 19
-6.234400000000001 -3.6757999999999997 -0.7563 204
-12.6875 -7.480499999999999 1.1992 34
-6.300800000000001 -3.7148000000000003 -0.5938 106
-12.6797 -7.4765999999999995 1.5419999999999998 137
-11.914100000000001 -7.019500000000001 1.7734 138
-6.4609000000000005 -3.8086 -0.26030000000000003 240
-12.125 -7.1484000000000005 2.1387 190
-12.6797 -7.4765999999999995 -0.17129999999999998 163
-12.148399999999999 -7.1640999999999995 2.4805 121
-12.7031 -7.4297 0.17129999999999998 136
-12.6797 -7.417999999999999 0.5112 238
-6.1953 -3.623 -0.9175 187
-12.6875 -7.417999999999999 0.8525 133
-6.234400000000001 -3.6464999999999996 -0.7544 92
-12.664100000000001 -7.4062 1.1943000000000001 104
-6.3047 -3.6855 -0.5928 185
-12.6797 -7.4140999999999995 1.5391 113
-11.914100000000001 -6.9688 1.7694999999999999 3
-6.453099999999999 -3.7733999999999996 -0.2593 134
-12.1172 -7.0859000000000005 2.1348 95
-12.6797 -7.417999999999999 -0.1709 134
-12.148399999999999 -7.105499999999999 2.4746 199
-12.710899999999999 -7.375 0.171 160
-12.664100000000001 -7.3477 0.5097999999999999 152
-6.1875 -3.5898000000000003 -0.9146 220
-12.7031 -7.3711 0.8515999999999999 86
-6.2422 -3.623 -0.7539 33
-12.6797 -7.355499999999999 1.1934 72
-6.296900000000001 -3.6523000000000003 -0.5908 165
-12.664100000000001 -7.3477 1.5341999999999998 243
-11.9219 -6.9140999999999995 1.7666 114
-6.453099999999999 -3.7441000000000004 -0.2588 9
-12.1094 -7.0234000000000005 2.127 222
-12.664100000000001 -7.3477 -0.1703 214
-12.156199999999998 -7.050800000000001 2.4707 7
-12.7031 -7.3086 0.1704 197
-12.6719 -7.292999999999999 0.5088 151
-6.1836 -3.5586 -0.9120999999999999 216
-12.6797 -7.300800000000001 0.8486 91
-6.2422 -3.5918 -0.752 109
-12.6875 -7.300800000000001 1.1914 210
-6.292999999999999 -3.623 -0.5893999999999999 17
-12.5156 -7.203099999999999 1.5137 58
-11.9297 -6.8672 1.7656 242
-6.449199999999999 -3.7108999999999996 -0.2581 188
-12.1094 -6.9688 2.125 9
-12.648399999999999 -7.2812 -0.1698 152
-12.148399999999999 -6.9922 2.4648 231
-12.6953 -7.2461 0.17 150
-12.6797 -7.238300000000001 0.5083 249
-6.1836 -3.5312 -0.9106000000000001 122
-12.6797 -7.238300000000001 0.8467 206
-6.234400000000001 -3.5605 -0.75 227
-12.6875 -7.2422 1.1895 253
-6.3086 -3.6016000000000004 -0.5898 53
-12.289100000000001 -7.015599999999999 1.4824000000000002 50
-11.9219 -6.8047 1.7597999999999998 171
-6.4609000000000005 -3.6875 -0.2581 68
-12.1094 -6.9102 2.1191 245
-12.648399999999999 -7.2227 -0.16940000000000002 134
-12.148399999999999 -6.9336 2.459 191
-12.6953 -7.1914 0.1698 114
-12.6875 -7.1836 0.5073 38
-6.1914 -3.5058999999999996 -0.9097 44
-12.664100000000001 -7.171900000000001 0.8442000000000001 38
-6.230499999999999 -3.5273000000000003 -0.748 19
-12.6797 -7.1797 1.1865 180
-6.296900000000001 -3.5664 -0.5874 240
-12.289100000000001 -6.9609000000000005 1.4794999999999998 164
-11.9219 -6.75 1.7568000000000001 216
-6.449199999999999 -3.6523000000000003 -0.2571 28
-12.1094 -6.855499999999999 2.1152 12
-12.664100000000001 -7.167999999999999 -0.1693 65
-12.148399999999999 -6.8789 2.4551 8
-3.9726999999999997 -2.2324 -0.7959 188
-12.6953 -7.1328 0.16940000000000002 151
-12.6719 -7.1211 0.5059 222
-6.1953 -3.4824 -0.9087000000000001 203
-12.6797 -7.125 0.8438 157
-6.230499999999999 -3.5 -0.7461 3
-12.664100000000001 -7.113300000000001 1.1826 226
-6.2890999999999995 -3.5332 -0.5854 41
-12.289100000000001 -6.9062 1.4766 146
-11.898399999999999 -6.6836 1.75 216
-6.4375 -3.6172000000000004 -0.2561 56
-12.0781 -6.7890999999999995 2.1074 237
-12.648399999999999 -7.105499999999999 -0.16870000000000002 7
-12.148399999999999 -6.828099999999999 2.4512 49
-3.9901999999999997 -2.2246 -0.7979 72
-12.6953 -7.078099999999999 0.1691 170
-12.664100000000001 -7.0586 0.5044 5
-6.1953 -3.4551 -0.9067000000000001 104
-12.6719 -7.0664 0.8418000000000001 165
-6.2265999999999995 -3.4707 -0.7445999999999999 130
-12.6719 -7.0625 1.1816 157
-6.2812 -3.502 -0.584 210
-12.2656 -6.8398 1.4716999999999998 237
-11.898399999999999 -6.6328 1.7471 189
-6.4336 -3.5879000000000003 -0.2554 115
-12.0781 -6.734400000000001 2.1016 154
-12.648399999999999 -7.050800000000001 -0.1685 50
-12.156199999999998 -6.7773 2.4453 226
-4.0039 -2.2129 -0.7993000000000001 171
-12.6953 -7.015599999999999 0.16870000000000002 69
-6.167999999999999 -3.4101999999999997 -1.0684 34
-12.6797 -7.0078 0.5039 90
-6.1836 -3.418 -0.9033 216
-12.6719 -7.0039 0.8398 37
-6.234400000000001 -3.4452999999999996 -0.7441 117
-12.6875 -7.015599999999999 1.1806999999999999 204
-6.292999999999999 -3.4766000000000004 -0.5835 7
-12.289100000000001 -6.792999999999999 1.4716999999999998 21
-11.906199999999998 -6.578099999999999 1.7441 207
-6.4414 -3.5605 -0.2551 121
-12.085899999999999 -6.6797 2.0996 141
-12.656199999999998 -6.9961 -0.16820000000000002 134
-12.1328 -6.707000000000001 2.4375 108
-4.0469 -2.2188 -0.8062 17
-12.6797 -6.949199999999999 0.16820000000000002 105
-6.1875 -3.3926 -1.0693000000000001 201
-12.6797 -6.953099999999999 0.5034000000000001 234
-6.1914 -3.3926 -0.9028 200
-12.664100000000001 -6.9414 0.8373999999999999 251
-6.2227 -3.4120999999999997 -0.7412000000000001 87
-12.531199999999998 -6.8711 1.1641 66
-6.292999999999999 -3.4492000000000003 -0.5825 117
-12.281199999999998 -6.734400000000001 1.4678 95
-11.906199999999998 -6.5234000000000005 1.7402000000000002 149
-6.453099999999999 -3.5370999999999997 -0.2551 141
-12.085899999999999 -6.6289 2.0957 87
-12.648399999999999 -6.9336 -0.1677 209
-12.1328 -6.6484000000000005 2.4316 126
-4.1289 -2.2461 -0.8218000000000001 204
-12.6953 -6.9023 0.1681 169
-6.175800000000001 -3.3574 -1.0654000000000001 100
-12.6719 -6.890599999999999 0.502 59
-6.199199999999999 -3.3691000000000004 -0.9023 103
-12.664100000000001 -6.886699999999999 0.8364 66
-6.2188 -3.3808999999999996 -0.7393000000000001 90
-12.4297 -6.7578 1.1514 34
-6.296900000000001 -3.4238 -0.5820000000000001 89
-12.3203 -6.6953 1.4687999999999999 155
-11.898399999999999 -6.4688 1.7372999999999998 66
-6.449199999999999 -3.5058999999999996 -0.2546 14
-12.093800000000002 -6.574199999999999 2.0918 195
-12.648399999999999 -6.8789 -0.1675 180
-12.1406 -6.5977 2.4297 227
-4.1797 -2.2539 -0.8301000000000001 191
-12.5547 -6.765599999999999 0.1659 1
-6.175800000000001 -3.3281 -1.0635 178
-12.4844 -6.730499999999999 0.49340000000000006 37
-6.1953 -3.3418 -0.8998999999999999 19
-12.4922 -6.734400000000001 0.8231999999999999 198
-6.234400000000001 -3.3594 -0.7397 246
-12.398399999999999 -6.6836 1.1465 22
-6.2852 -3.3867000000000003 -0.5796 0
-12.343800000000002 -6.6562 1.4697 185
-11.8906 -6.4102 1.7324000000000002 200
-6.480499999999999 -3.4941000000000004 -0.2554 207
-12.1094 -6.5273 2.0918 116
-12.4531 -6.7109000000000005 -0.1646 9
-12.1875 -6.5703 2.4336 112
-4.207 -2.248 -0.8334999999999999 70
-12.5547 -6.7109000000000005 0.1655 56
-6.1797 -3.3047000000000004 -1.0625 241
-12.460899999999999 -6.6602 0.4915 73
-6.1953 -3.3125 -0.8979 88
-12.4844 -6.675800000000001 0.8208 108
-6.2539 -3.3438 -0.7406999999999999 53
-12.406199999999998 -6.6328 1.1455 142
-6.2890999999999995 -3.3632999999999997 -0.5791 42
-12.351600000000001 -6.6015999999999995 1.4668 182
-11.906199999999998 -6.3672 1.7313999999999998 71
-12.164100000000001 -6.5039 2.0977 113
-12.4297 -6.644500000000001 -0.16390000000000002 110
-12.2031 -6.5234000000000005 2.4316 154
-4.2305 -2.2422 -0.8369 196
-12.4922 -6.625 0.16440000000000002 47
-6.1953 -3.2832 -1.0625 53
-12.460899999999999 -6.605499999999999 0.4907 208
-6.1875 -3.2812 -0.8955 65
-12.476600000000001 -6.613300000000001 0.8188 1
-6.25 -3.3145 -0.7393000000000001 154
-12.460899999999999 -6.605499999999999 1.1484 12
-6.324199999999999 -3.3516000000000004 -0.5811 128
-12.351600000000001 -6.550800000000001 1.4647999999999999 90
-6.480499999999999 -3.4355 -0.4241 163
-11.875 -6.296900000000001 1.7236000000000002 200
-12.1719 -6.453099999999999 2.0938 80
-12.4375 -6.5938 -0.1637 15
-12.2031 -6.4688 2.4277 231
-4.25 -2.2363 -0.8398 219
-12.5078 -6.578099999999999 0.1643 188
-6.199199999999999 -3.2598000000000003 -1.0615 249
-12.4844 -6.5664 0.491 140
-6.1836 -3.252 -0.8936 188
-12.5 -6.574199999999999 0.8193 11
-6.230499999999999 -3.2773000000000003 -0.7354 92
-12.476600000000001 -6.5586 1.1475 130
-6.375 -3.3535000000000004 -0.585 26
-12.375 -6.5078 1.4647999999999999 3
-11.875 -6.2461 1.7197 186
-12.1797 -6.4062 2.0918 25
-12.468800000000002 -6.5586 -0.1638 45
-12.2031 -6.417999999999999 2.4238 18
-12.531199999999998 -6.5390999999999995 0.16440000000000002 152
-6.1914 -3.2305 -1.0586 10
-12.523399999999999 -6.5352 0.4917 184
-6.199199999999999 -3.2344 -0.894 176
-12.5625 -6.550800000000001 0.8218000000000001 167
-6.2265999999999995 -3.248 -0.7334 147
-12.5078 -6.5234000000000005 1.1484 142
-6.355499999999999 -3.3145 -0.5820000000000001 116
-12.375 -6.457000000000001 1.4628999999999999 12
-11.8672 -6.1914 1.7168 244
-12.1797 -6.3515999999999995 2.0879 125
-12.4922 -6.515599999999999 -0.1638 14
-12.1875 -6.359400000000001 2.416 97
-6.1914 -3.2012 -1.2217 137
-12.539100000000001 -6.480499999999999 0.1642 195
-6.1953 -3.2031 -1.0576 29
-12.5703 -6.5 0.49219999999999997 95
-6.1914 -3.2012 -0.8911 29
-12.6328 -6.5312 0.8247 26
-6.2188 -3.2148000000000003 -0.7314 9
-12.523399999999999 -6.4765999999999995 1.1484 80
-6.332000000000001 -3.2733999999999996 -0.5786 233
-12.406199999999998 -6.4140999999999995 1.4638999999999998 20
-11.8672 -6.1328 1.7128999999999999 3
-12.164100000000001 -6.2890999999999995 2.082 108
-12.539100000000001 -6.484400000000001 -0.1642 20
-8.4141 -4.3516 1.6631 69
-6.1914 -3.1738 -1.2197 13
-12.664100000000001 -6.4922 0.1655 70
-6.1953 -3.1757999999999997 -1.0556999999999999 233
-12.6406 -6.480499999999999 0.4941 163
-6.1875 -3.1719 -0.8887 110
-12.6719 -6.4961 0.8256999999999999 27
-6.2265999999999995 -3.1914 -0.7304999999999999 186
-12.5781 -6.4453 1.1504 161
-12.351600000000001 -6.332000000000001 1.4550999999999998 8
-11.8828 -6.0898 1.7119 185
-12.156199999999998 -6.230499999999999 2.0762 235
-12.6172 -6.4648 -0.1649 129
-8.4219 -4.3164 1.6611000000000002 95
-6.1836 -3.1426 -1.2158 142
-12.6797 -6.4414 0.1654 27
-6.203099999999999 -3.1523000000000003 -1.0547 82
-12.656199999999998 -6.4297 0.4939 0
-6.175800000000001 -3.1387 -0.8856999999999999 250
-12.664100000000001 -6.4336 0.8237000000000001 170
-6.230499999999999 -3.1660000000000004 -0.73 31
-12.6875 -6.4453 1.1582 123
-12.375 -6.2890999999999995 1.4550999999999998 65
-11.8906 -6.042999999999999 1.7109 138
-12.1797 -6.1875 2.0762 207
-12.6328 -6.421900000000001 -0.1648 18
-8.4141 -4.2734 1.6562000000000001 197
-6.175800000000001 -3.1132999999999997 -1.2119 42
-12.7031 -6.3984000000000005 0.1654 96
-6.203099999999999 -3.127 -1.0527 178
-12.710899999999999 -6.4062 0.4954 232
-6.1836 -3.1151999999999997 -0.8853 104
-12.7578 -6.425800000000001 0.8281000000000001 54
-6.2188 -3.1327999999999996 -0.7275 106
-12.7578 -6.4297 1.1631 141
-12.3906 -6.2422 1.4531 177
-11.8672 -5.9765999999999995 1.7031 138
-6.453099999999999 -3.252 -0.2505 206
-8.7188 -4.3906 1.4824000000000002 59
-12.6875 -6.390599999999999 -0.16519999999999999 123
-7.949199999999999 -4.0039 1.5625 194
-6.1836 -3.0898000000000003 -1.2119 176
-12.8047 -6.394500000000001 0.16649999999999998 223
-6.1953 -3.0938 -1.0498 9
-12.8047 -6.3984000000000005 0.49829999999999997 204
-6.1875 -3.0898000000000003 -0.8843000000000001 88
-12.8594 -6.421900000000001 0.8334999999999999 118
-6.2109000000000005 -3.1016000000000004 -0.7251000000000001 22
-12.843800000000002 -6.4140999999999995 1.1689 219
-12.3828 -6.1836 1.4502000000000002 56
-11.8828 -5.9336 1.7031 49
-12.164100000000001 -6.074199999999999 2.0664 95
-12.8047 -6.394500000000001 -0.16649999999999998 100
-7.9609000000000005 -3.9766000000000004 1.5625 232
-6.1836 -3.0625 -1.21 20
-12.914100000000001 -6.394500000000001 0.16760000000000003 55
-6.1836 -3.0625 -1.0459 79
-12.9219 -6.3984000000000005 0.5015 188
-6.1953 -3.0664 -0.8837999999999999 179
-12.976600000000001 -6.421900000000001 0.8398 235
-6.2148 -3.0762 -0.7241 235
-13.0156 -6.4453 1.1826 90
-12.398399999999999 -6.136699999999999 1.4491999999999998 102
-11.8906 -5.886699999999999 1.7012 66
-12.164100000000001 -6.019500000000001 2.0625 16
-12.914100000000001 -6.390599999999999 -0.16760000000000003 171
-7.9961 -3.9589999999999996 1.5663999999999998 85
-6.1953 -3.0410000000000004 -1.21 6
-13.039100000000001 -6.3984000000000005 0.1689 217
-6.1914 -3.0391000000000004 -1.0449 221
-13.023399999999999 -6.390599999999999 0.5049 35
-6.1836 -3.0351999999999997 -0.8809 224
-13.085899999999999 -6.421900000000001 0.8456999999999999 39
-6.2227 -3.0526999999999997 -0.7236 30
-13.1172 -6.4375 1.1904000000000001 240
-12.375 -6.074199999999999 1.4443000000000001 2
-11.968800000000002 -5.8711 1.709 22
-12.1328 -5.957000000000001 2.0547 0
-13.023399999999999 -6.394500000000001 -0.16879999999999998 178
-8.5547 -4.1992 1.6728999999999998 157
-6.1797 -3.0077999999999996 -1.2051 88
-13.148399999999999 -6.3984000000000005 0.1702 240
-6.199199999999999 -3.0156 -1.0449 131
-13.1406 -6.390599999999999 0.5083 62
-6.171900000000001 -3.0039 -0.8774 55
-13.1953 -6.417999999999999 0.8511 16
-6.2188 -3.0233999999999996 -0.7222 64
-13.25 -6.4453 1.1992 173
-12.398399999999999 -6.0312 1.4443000000000001 76
-12.0156 -5.8438 1.7128999999999999 46
-12.1328 -5.8984000000000005 2.0508 1
-13.125 -6.3828 -0.1698 157
-8.6875 -4.2266 1.6972999999999998 227
-6.175800000000001 -2.9805 -1.2021 227
-13.2422 -6.386699999999999 0.171 151
-6.1953 -2.9882999999999997 -1.042 118
-13.25 -6.390599999999999 0.5117 133
-6.1797 -2.9805 -0.877 52
-13.2969 -6.4140999999999995 0.8564 251
-6.2109000000000005 -2.9941000000000004 -0.7202 207
-13.3594 -6.4453 1.208 107
-12.3828 -5.9727 1.4404 245
-12.0547 -5.8164 1.7158000000000002 31
-12.093800000000002 -5.832000000000001 2.041 205
-13.2422 -6.386699999999999 -0.171 231
-8.8594 -4.2734 1.7266 253
-6.1797 -2.9551 -1.2002 215
-13.3672 -6.390599999999999 0.1724 247
-6.1836 -2.957 -1.0381 100
-13.3672 -6.394500000000001 0.5156000000000001 246
-6.1875 -2.9589999999999996 -0.8765000000000001 21
-13.414100000000001 -6.4140999999999995 0.8623000000000001 150
-6.207000000000001 -2.9688 -0.7188 96
-13.460899999999999 -6.4375 1.2148 73
-12.414100000000001 -5.9375 1.4424000000000001 81
-12.085899999999999 -5.7773 1.7178 17
-12.0156 -5.7461 2.0254 25
-13.343800000000002 -6.3828 -0.1721 1
-8.9375 -4.2734 1.7393 30
-6.1875 -2.9316000000000004 -1.2002 48
-13.476600000000001 -6.386699999999999 0.17350000000000002 126
-6.1836 -2.9297000000000004 -1.0371 62
-13.476600000000001 -6.3828 0.519 118
-6.1914 -2.9336 -0.8755 206
-13.531199999999998 -6.4102 0.8687 50
-6.207000000000001 -2.9414 -0.7173 107
-13.5469 -6.417999999999999 1.2207 122
-12.4375 -5.894500000000001 1.4424000000000001 227
-7.855499999999999 -3.7207 1.1123 188
-8.6719 -4.1094 1.4569999999999999 119
-13.460899999999999 -6.375 -0.1732 128
-12.1797 -5.769500000000001 2.3691 2
-6.1914 -2.9062 -1.1982 4
-13.5781 -6.375 0.1746 118
-6.1875 -2.9043 -1.0361 59
-13.5625 -6.3672 0.5215 210
-6.1836 -2.9023000000000003 -0.873 108
-13.593800000000002 -6.3828 0.8711 47
-6.2148 -2.918 -0.7168000000000001 33
-13.5781 -6.375 1.2217 7
-12.398399999999999 -5.824199999999999 1.4355000000000002 105
-7.8789 -3.6992000000000003 1.1143 60
-8.3906 -3.9395 1.4072 62
-13.539100000000001 -6.359400000000001 -0.1741 179
-8.5469 -4.0156 1.6582 235
-6.1836 -2.877 -1.1953 17
-13.601600000000001 -6.328099999999999 0.1746 113
-6.1953 -2.8827999999999996 -1.0361 249
-13.5703 -6.3164 0.521 232
-6.1797 -2.875 -0.8711 158
-13.5703 -6.3164 0.8682 52
-6.2148 -2.8926 -0.7158 43
-13.5781 -6.3164 1.2197 240
-12.3828 -5.761699999999999 1.4306999999999999 57
-7.890599999999999 -3.6719 1.1143 142
-8.3984 -3.9062 1.4053 210
-13.5547 -6.3086 -0.174 237
-8.0469 -3.7441000000000004 1.5575999999999999 133
-6.1797 -2.8476999999999997 -1.1924 140
-13.585899999999999 -6.261699999999999 0.1741 250
-6.1914 -2.8555 -1.0332 223
-13.5703 -6.2578 0.52 62
-6.1797 -2.8495999999999997 -0.8701000000000001 18
-13.5625 -6.2539 0.8662000000000001 118
-6.2109000000000005 -2.8632999999999997 -0.7143999999999999 199
-13.585899999999999 -6.265599999999999 1.2187999999999999 154
-12.3906 -5.7109000000000005 1.4297 28
-7.9102 -3.6464999999999996 1.1143 5
-11.8828 -5.4765999999999995 1.9883000000000002 170
-13.5547 -6.25 -0.17370000000000002 231
-8.0547 -3.7129000000000003 1.5556999999999999 15
-6.1836 -2.8242000000000003 -1.1914 212
-13.593800000000002 -6.2109000000000005 0.174 85
-6.1875 -2.8262 -1.0312000000000001 104
-13.5781 -6.203099999999999 0.5195000000000001 2
-6.1836 -2.8242000000000003 -0.8691 236
-13.5703 -6.199199999999999 0.8652 22
-6.2109000000000005 -2.8358999999999996 -0.7129000000000001 34
-13.5625 -6.1953 1.2139 150
-12.414100000000001 -5.667999999999999 1.4297 229
-7.9961 -3.6523000000000003 1.125 15
-11.8594 -5.417999999999999 1.9813999999999998 229
-13.5625 -6.1953 -0.17350000000000002 33
-8.0781 -3.6895 1.5586000000000002 9
-6.1914 -2.8007999999999997 -1.1904000000000001 121
-13.585899999999999 -6.1484000000000005 0.17350000000000002 122
-6.1836 -2.7988 -1.0283 72
-13.5625 -6.136699999999999 0.5181 182
-6.1914 -2.8007999999999997 -0.8687 187
-13.5703 -6.140599999999999 0.8637999999999999 127
-6.2109000000000005 -2.8105 -0.7119 184
-13.5625 -6.140599999999999 1.2129 242
-12.4219 -5.6211 1.4287 91
-8.1406 -3.6836 1.1436 123
-8.7578 -3.9608999999999996 1.459 201
-13.5625 -6.140599999999999 -0.1732 191
-12.1797 -5.511699999999999 2.3496 188
-6.1914 -2.7754000000000003 -1.1885 148
-13.5781 -6.0898 0.17309999999999998 199
-6.1875 -2.7754000000000003 -1.0273 210
-13.5547 -6.078099999999999 0.5171 142
-6.1797 -2.7714999999999996 -0.8656999999999999 119
-13.5703 -6.082000000000001 0.8623000000000001 233
-6.2227 -2.7891000000000004 -0.7119 98
-13.5625 -6.082000000000001 1.21 150
-12.414100000000001 -5.5664 1.4247999999999998 26
-8.1172 -3.6387 1.1387 84
-8.5781 -3.8476999999999997 1.4277000000000002 225
-13.5469 -6.074199999999999 -0.1727 234
-8.1562 -3.6582 1.5693000000000001 207
-6.1875 -2.748 -1.1865 166
-13.585899999999999 -6.0352 0.17300000000000001 90
-6.1914 -2.75 -1.0264 225
-13.5547 -6.0234000000000005 0.5161 191
-6.171900000000001 -2.7422000000000004 -0.8633 117
-13.5703 -6.0273 0.8613 130
-6.2188 -2.7637 -0.7109000000000001 138
-13.5625 -6.0234000000000005 1.209 39
-12.3672 -5.4922 1.4180000000000001 97
-8.6875 -3.8574 1.2168 192
-11.8594 -5.269500000000001 1.9727000000000001 105
-13.539100000000001 -6.015599999999999 -0.1724 6
-8.1094 -3.6035000000000004 1.5575999999999999 236
-6.171900000000001 -2.7168 -1.1816 91
-13.585899999999999 -5.9765999999999995 0.1726 214
-6.1953 -2.7266000000000004 -1.0254 202
-13.5703 -5.9688 0.5156000000000001 247
-6.1640999999999995 -2.7129000000000003 -0.8608 157
-13.5547 -5.9648 0.8593999999999999 0
-6.2148 -2.7344 -0.7090000000000001 219
-13.5547 -5.9648 1.2061 150
-12.398399999999999 -5.453099999999999 1.4188999999999998 69
-8.25 -3.6289 1.1533 72
-8.7031 -3.8301 1.4434 103
-13.5469 -5.9609000000000005 -0.1722 7
-12.1797 -5.359400000000001 2.3379 197
-6.1797 -2.6933999999999996 -1.1806999999999999 215
-13.5703 -5.9140999999999995 0.1722 134
-6.1836 -2.6952999999999996 -1.0225 74
-13.5625 -5.9102 0.5146000000000001 234
-6.1914 -2.6992000000000003 -0.8633 22
-13.5625 -5.9102 0.8579000000000001 109
-6.207000000000001 -2.7051 -0.7070000000000001 233
-13.593800000000002 -5.925800000000001 1.208 76
-12.398399999999999 -5.4023 1.4169999999999998 10
-8.1328 -3.5469 1.1357 253
-11.9219 -5.1953 1.9766 91
-13.5469 -5.9062 -0.17190000000000003 133
-12.1797 -5.3086 2.3359 149
-6.1836 -2.6719 -1.1806999999999999 190
-13.585899999999999 -5.8672 0.1722 0
-6.1797 -2.668 -1.0195 73
-13.593800000000002 -5.8711 0.5151 142
-6.1797 -2.668 -0.8604 128
-13.6328 -5.886699999999999 0.8613 92
-6.2109000000000005 -2.6836 -0.7065 63
-13.6172 -5.8789 1.208 198
-12.398399999999999 -5.355499999999999 1.415 79
-8.2344 -3.5566000000000004 1.1484 24
-8.9766 -3.877 1.4844 64
-13.5547 -5.855499999999999 -0.1718 93
-12.1719 -5.2578 2.3301 230
-6.1875 -2.6483999999999996 -1.1797 47
-13.6094 -5.824199999999999 0.1722 193
-6.171900000000001 -2.6426 -1.0176 209
-13.6328 -5.832000000000001 0.5161 163
-6.167999999999999 -2.6406 -0.8579000000000001 65
-13.664100000000001 -5.8477 0.8618000000000001 206
-6.2227 -2.6641000000000004 -0.7070000000000001 81
-13.6406 -5.8398 1.209 110
-12.3906 -5.3047 1.4121000000000001 97
-8.3203 -3.5625 1.1592 195
-8.8203 -3.7754000000000003 1.4561000000000002 177
-13.5469 -5.796900000000001 -0.1714 19
-8.7969 -3.7656 1.6797 228
