# .PCD v0.7 - Point Cloud Data file format
VERSION 0.7
FIELDS x y z intensity
SIZE 4 4 4 4
TYPE F F F F
COUNT 1 1 1 1
WIDTH 1369
HEIGHT 1
VIEWPOINT 0 0 0 1 0 0 0
POINTS 1369
DATA ascii
-3.2148000000000003 3.7969 0.17190000000000003 59
-2.9608999999999996 3.4961 -0.584 8
-50.4375 59.5625 4.5391 190
-50.375 59.5 6.3672 104
-3.0039 3.5469 -0.376 137
-2.9531 3.5117000000000003 -0.8018000000000001 61
-2.9863 3.5507999999999997 -0.7012 149
-3.2324 3.8438 0.1736 176
-2.9551 3.5137 -0.585 32
-50.0938 59.5625 4.5234 70
-2.9512 3.5098000000000003 -0.4775 210
-50.0 59.4688 6.3438 212
-3.0039 3.5723000000000003 -0.37770000000000004 220
-2.957 3.5410000000000004 -0.8062 96
-2.9824 3.5702999999999996 -0.7031000000000001 244
-2.9648000000000003 3.5507999999999997 -0.5893999999999999 75
-49.7188 59.5312 4.5117 208
-2.9395 3.5214999999999996 -0.4775 90
-49.6562 59.4688 6.324199999999999 225
-3.002 3.5957 -0.3789 186
-2.9551 3.5645 -0.8090999999999999 2
-2.9785000000000004 3.5938 -0.7051000000000001 110
-49.4375 59.6562 2.7031 218
-2.957 3.5664 -0.5903 230
-49.375 59.5312 4.4961 52
-2.9551 3.5645 -0.48219999999999996 162
-49.2812 59.4375 6.3047 200
-3.0156 3.6367000000000003 -0.3823 56
-2.9608999999999996 3.5957 -0.8140000000000001 37
-2.9844 3.625 -0.7095 4
-49.0938 59.625 2.6952999999999996 217
-2.9648000000000003 3.6016000000000004 -0.5947 79
-49.0 59.5312 4.4844 11
-2.9726999999999997 3.6113 -0.48710000000000003 17
-48.9062 59.4375 6.2852 180
-3.0098000000000003 3.6562 -0.3833 239
-2.957 3.6151999999999997 -0.8159000000000001 16
-2.9785000000000004 3.6406 -0.7109000000000001 144
-48.75 59.5938 2.6855 193
-2.957 3.6151999999999997 -0.5952000000000001 64
-48.6562 59.5 4.4688 179
-2.9901999999999997 3.6543 -0.4917 212
-48.625 59.4375 6.269500000000001 175
-3.0117000000000003 3.6816000000000004 -0.3848 194
-2.9512 3.6327999999999996 -0.8179000000000001 48
-2.9766000000000004 3.6620999999999997 -0.7134 32
-48.375 59.5625 2.6776999999999997 103
-2.9589999999999996 3.6426 -0.5981000000000001 60
-48.3125 59.4688 4.4531 189
-2.9922000000000004 3.6836 -0.4941 40
-48.25 59.4062 6.2461 25
-3.0195 3.7168 -0.3875 66
-20.2812 24.9688 3.375 178
-2.9433999999999996 3.6504000000000003 -0.8193 74
-2.9766000000000004 3.6914 -0.7168000000000001 65
-48.0312 59.5625 2.6699 203
-2.9589999999999996 3.6699 -0.6006 183
-47.9375 59.4688 4.4414 180
-3.0098000000000003 3.7324 -0.4993 247
-47.875 59.375 6.2265999999999995 28
-3.0195 3.7461 -0.38939999999999997 91
-20.2656 25.1406 3.3887 228
-2.9433999999999996 3.6757999999999997 -0.8228 155
-2.9824 3.7245999999999997 -0.7212000000000001 248
-47.7188 59.5938 2.6641000000000004 85
-2.9726999999999997 3.7129000000000003 -0.6064 56
-47.625 59.4688 4.4297 143
-2.9882999999999997 3.7324 -0.498 225
-47.5312 59.375 6.2109000000000005 220
-3.0214999999999996 3.7754000000000003 -0.3914 148
-20.2812 25.3281 3.4062 2
-2.9551 3.7188 -0.8301000000000001 227
-2.9648000000000003 3.7324 -0.7202 32
-47.3438 59.5938 2.6562 61
-2.9707 3.7401999999999997 -0.6089 104
-47.2812 59.5 4.418 209
-2.9863 3.7598000000000003 -0.5 38
-18.6719 23.5 2.4473 253
-2.998 3.7733999999999996 -0.3901 225
-19.6719 24.7656 3.3202999999999996 180
-18.8906 23.7812 4.625 234
-2.9688 3.7617000000000003 -0.8373999999999999 255
-3.2344 4.0977 0.0602 89
-2.9824 3.7793 -0.7275 164
-46.9688 59.5625 2.6464999999999996 15
-2.9726999999999997 3.7695 -0.6118 97
-46.9375 59.4688 4.4062 180
-3.0077999999999996 3.8125 -0.5059 128
-46.8125 59.3438 6.171900000000001 37
-2.998 3.7988 -0.39159999999999995 77
-19.7188 25.0 3.3438 233
-18.4062 23.3438 4.5273 90
-2.9648000000000003 3.7851999999999997 -0.8403 245
-3.2012 4.0859 0.059800000000000006 196
-2.998 3.8262 -0.7349 89
-46.6562 59.5625 2.6406 220
-2.9805 3.8026999999999997 -0.6162 116
-46.5938 59.4375 4.3906 60
-3.0058999999999996 3.8358999999999996 -0.5078 71
-18.4688 23.5625 2.4414 17
-3.0 3.8281 -0.3936 154
-19.6406 25.0781 3.3438 29
-18.9219 24.1406 3.9395 22
-18.8438 24.0469 4.6523 46
-2.9766000000000004 3.8262 -0.8472 245
-3.2207 4.1406 0.0605 17
-2.9882999999999997 3.8398000000000003 -0.7354 81
-46.3438 59.5625 2.6327999999999996 4
-2.9745999999999997 3.8223000000000003 -0.6177 166
-46.25 59.4375 4.3789 61
-3.0176 3.877 -0.5117 6
-18.7656 24.1094 2.4922 124
-2.9941000000000004 3.8476999999999997 -0.3945 93
-19.4531 25.0 3.3262 162
-18.8438 24.2031 3.9414 92
-19.7969 25.4531 -1.124 231
-18.6875 24.0156 4.6367 223
-2.9766000000000004 3.8535000000000004 -0.8511 135
-3.2539 4.2109 0.0613 237
-2.9922000000000004 3.873 -0.7397 146
-2.9745999999999997 3.8495999999999997 -0.6201 236
-45.9062 59.4375 4.3672 69
-2.9941000000000004 3.875 -0.5103 217
-18.6719 24.1719 2.4922 134
-3.0176 3.9062 -0.3994 26
-19.3438 25.0312 3.3202999999999996 129
-18.7344 24.25 3.9355 195
-19.625 25.3906 -1.1191 166
-2.9766000000000004 3.8789 -0.8545 79
-2.9941000000000004 3.9004000000000003 -0.7432 2
-2.9922000000000004 3.9004000000000003 -0.627 166
-45.5938 59.4062 4.3555 144
-2.998 3.9062 -0.5132 86
-18.5938 24.2344 2.4902 177
-3.0077999999999996 3.918 -0.39990000000000003 102
-19.0 24.75 3.2754000000000003 68
-17.6562 23.0 3.7245999999999997 170
-17.75 23.1406 4.4414 206
-2.9824 3.9160000000000004 -0.8604 72
-2.9863 3.9219 -0.7451000000000001 73
-2.9805 3.9141000000000004 -0.6274000000000001 166
-45.2188 59.4062 4.3398 107
-3.0039 3.9433999999999996 -0.5166 236
-18.5156 24.3125 2.4922 62
-3.0195 3.9648000000000003 -0.4033 179
-18.9375 24.8594 3.2812 60
-17.5625 23.0625 3.7226999999999997 182
-17.6406 23.1562 4.4336 252
-2.9766000000000004 3.9375 -0.8628 56
-2.9824 3.9452999999999996 -0.7476 194
-2.9785000000000004 3.9395 -0.6299 210
-44.9062 59.4062 4.3281 35
-3.0137 3.9863 -0.5205 233
-18.2188 24.0938 2.4629 109
-3.0098000000000003 3.9824 -0.40409999999999996 88
-18.9688 25.0781 3.3007999999999997 83
-17.875 23.6406 3.8066000000000004 93
-17.5938 23.2812 4.4414 29
-2.9785000000000004 3.9707 -0.8676999999999999 206
-2.9941000000000004 3.9901999999999997 -0.7539 183
-2.9726999999999997 3.9629000000000003 -0.6318 109
-44.5625 59.375 4.3164 91
-3.0098000000000003 4.0117 -0.5225 7
-44.5312 59.3438 6.0586 63
-3.0273000000000003 4.0352 -0.4082 83
-17.5 23.3281 3.0605 72
-17.7969 23.7188 3.8086 43
-17.9219 23.8906 4.5469 225
-3.1562 4.207 -0.060599999999999994 56
-2.9745999999999997 3.9941000000000004 -0.8706 93
-2.9961 4.0234 -0.7583 149
-2.9824 4.0039 -0.6367 153
-44.2188 59.375 4.3047 87
-3.0058999999999996 4.0352 -0.5244 142
-44.125 59.25 6.0312 128
-3.0117000000000003 4.043 -0.4082 143
-17.4219 23.375 3.0605 254
-17.75 23.8438 3.8183999999999996 118
-17.9219 24.0469 4.5664 234
-3.1660000000000004 4.25 -0.0611 106
-2.9824 4.0312 -0.877 124
-2.9922000000000004 4.0469 -0.7606999999999999 176
-2.9961 4.0508 -0.6426000000000001 150
-43.9062 59.375 4.293 202
-3.0214999999999996 4.0859 -0.5293 74
-43.8438 59.25 6.015599999999999 70
-3.0156 4.0781 -0.4106 179
-17.5625 23.75 3.1016000000000004 14
-18.2656 24.6875 3.9452999999999996 67
-3.1445 4.25 -0.060899999999999996 199
-2.9901999999999997 4.0703 -0.8833 231
-2.9882999999999997 4.0664 -0.7631999999999999 101
-21.1875 28.8438 1.248 112
-2.9745999999999997 4.0508 -0.6406000000000001 11
-43.5938 59.3438 4.2812 9
-3.0254000000000003 4.1211 -0.5327000000000001 145
-43.5312 59.2812 6.0039 133
-3.0156 4.1055 -0.41259999999999997 68
-17.3438 23.625 3.0762 71
-18.25 24.8438 3.9608999999999996 149
-17.8906 24.3438 4.6016 82
-3.1543 4.293 -0.061399999999999996 197
-2.9941000000000004 4.1094 -0.8892 211
-2.998 4.1133 -0.77 234
-20.9844 28.7812 1.2422 248
-2.9785000000000004 4.0859 -0.645 121
-43.2812 59.375 4.2734 133
-3.0176 4.1406 -0.5337 142
-17.8906 24.5469 2.4785 127
-3.0156 4.1367 -0.4146 125
-17.2969 23.7344 3.082 45
-18.1875 24.9375 3.9648000000000003 13
-17.8594 24.5 4.6172 195
-15.914100000000001 21.8281 -0.31489999999999996 238
-2.9844 4.125 -0.8901 138
-3.0214999999999996 4.1758 -0.7793000000000001 53
-20.8281 28.7969 1.2393 236
-2.9901999999999997 4.1328 -0.6504000000000001 104
-42.9375 59.3125 4.2578 244
-3.0176 4.1719 -0.5366 124
-17.7812 24.5781 2.4746 246
-3.0312 4.1875 -0.41869999999999996 244
-17.2031 23.7812 3.0801 38
-18.1562 25.0938 3.9785000000000004 218
-3.1289 4.3242 -0.18469999999999998 252
-17.8125 24.625 4.6289 167
-15.898399999999999 21.9688 -0.31620000000000004 119
-2.9901999999999997 4.1602 -0.8965000000000001 246
-2.9961 4.168 -0.7764 164
-20.7188 28.8281 1.2373 23
-2.9882999999999997 4.1562 -0.6533 75
-42.625 59.3438 4.25 247
-3.0039 4.1797 -0.5366 235
-17.7188 24.6562 2.4766 41
-3.043 4.2344 -0.4224 172
-17.1406 23.8594 3.0839999999999996 177
-3.1327999999999996 4.3594 -0.3096 184
-17.4062 24.2188 3.8301 175
-3.123 4.3438 -0.18510000000000001 158
-17.7031 24.625 4.6172 36
-15.726600000000001 21.8906 -0.31420000000000003 201
-2.9961 4.1992 -0.9023 44
-3.0 4.207 -0.7812 186
-20.6406 28.9375 1.2393 220
-2.9922000000000004 4.1953 -0.6572 240
-42.3125 59.3125 4.2383 100
-3.0 4.2031 -0.5381 3
-18.5938 26.0469 2.6113 142
-3.0195 4.2305 -0.42090000000000005 79
-17.3906 24.375 3.1445 82
-3.0938 4.3359 -0.3071 68
-17.1719 24.0625 3.7969 148
-17.5156 24.5469 4.5898 59
-15.5703 21.8281 -0.3125 88
-3.0 4.2383 -0.9081999999999999 37
-2.998 4.2344 -0.7847 55
-20.5156 28.9844 1.2383 134
-2.9922000000000004 4.2266 -0.6606000000000001 78
-42.0 59.3438 4.2266 158
-3.0332 4.2852 -0.5474 251
-41.9375 59.25 5.925800000000001 44
-3.0195 4.2656 -0.4233 149
-17.2656 24.4062 3.1367000000000003 240
-3.1132999999999997 4.3984 -0.31079999999999997 94
-17.0938 24.1562 3.8026999999999997 70
-3.0605 4.3242 -0.1832 97
-17.1875 24.2812 4.5312 120
-15.4844 21.875 -0.3125 162
-3.0 4.2695 -0.9126000000000001 26
-3.0117000000000003 4.2852 -0.792 100
-20.4375 29.0781 1.2393 102
-2.9824 4.2461 -0.6616 31
-41.6562 59.3125 4.2148 187
-3.0293 4.3125 -0.5493 191
-41.5938 59.2188 5.9062 84
-3.0351999999999997 4.3203 -0.4275 222
-17.1406 24.4062 3.1308999999999996 182
-16.5781 23.6094 3.7051 142
-3.0664 4.3633 -0.1844 42
-17.0781 24.3125 4.5234 83
-3.0 4.3008 -0.9175 192
-3.0176 4.3242 -0.7974 139
-20.375 29.2188 1.2422 60
-2.9901999999999997 4.2852 -0.667 39
-41.375 59.3125 4.207 178
-3.0332 4.3477 -0.5527000000000001 154
-18.6406 26.7188 2.6582 180
-3.0391000000000004 4.3555 -0.4302 58
-17.0 24.375 3.1191000000000004 11
-16.4062 23.5156 3.6836 97
-16.9375 24.2812 4.5078 214
-15.1953 21.7812 -0.3096 109
-2.998 4.3281 -0.9209 211
-3.0214999999999996 4.3594 -0.8022 187
-20.3438 29.375 1.2461 215
-3.0039 4.3359 -0.6729 124
-41.0938 59.3125 4.1953 169
-3.0391000000000004 4.3867 -0.5566 102
-18.5312 26.7656 2.6562 17
-3.0488 4.4023 -0.4336 210
-17.0312 24.5938 3.1387 66
-16.2969 23.5312 3.6757999999999997 51
-16.8906 24.3906 4.5195 71
-15.1094 21.8125 -0.3093 209
-16.5312 23.875 5.1133 178
-3.0137 4.3828 -0.9307 104
-3.0156 4.3867 -0.8051999999999999 166
-20.2969 29.5312 1.249 77
-3.0039 4.3711 -0.6768000000000001 123
-40.75 59.2812 4.1836 255
-3.0254000000000003 4.4023 -0.5571 219
-17.8125 25.9062 2.5645 11
-3.0312 4.4102 -0.43329999999999996 184
-16.9688 24.6875 3.1445 65
-16.3438 23.7812 3.707 54
-16.8438 24.5 4.5273 178
-15.0 21.8125 -0.30879999999999996 117
-16.4531 23.9531 5.1172 123
-3.0233999999999996 4.4336 -0.9384999999999999 88
-3.0233999999999996 4.4297 -0.8115000000000001 19
-20.25 29.6875 1.2529000000000001 213
-3.0098000000000003 4.4141 -0.6816 185
-40.4375 59.2812 4.1719 211
-3.0488 4.4688 -0.564 154
-17.7031 25.9531 2.5625 206
-3.0332 4.4453 -0.436 132
-16.9375 24.8281 3.1543 19
-16.3125 23.9219 3.7188 80
-14.8906 21.8281 -0.3081 120
-16.3281 23.9219 5.1016 50
-3.0176 4.457 -0.9414 145
-3.0293 4.4727 -0.8173999999999999 252
-20.2031 29.8281 1.2559 180
-3.0195 4.4609 -0.6875 40
-16.8906 24.9531 1.75 92
-3.0312 4.4766 -0.5635 195
-17.7188 26.1719 2.5781 86
-3.0312 4.4766 -0.43799999999999994 48
-16.8594 24.8906 3.1562 199
-15.9922 23.625 3.6641000000000004 136
-2.877 4.25 -0.17739999999999997 128
-16.5625 24.4688 4.4961 146
-14.781199999999998 21.8281 -0.3074 249
-16.3281 24.1094 5.125 39
-3.002 4.4648 -0.9414 40
-3.0351999999999997 4.5195 -0.8237000000000001 69
-20.1719 30.0156 1.2607 40
-3.0 4.4648 -0.6865000000000001 237
-16.7344 24.9062 1.7431999999999999 198
-3.0137 4.4844 -0.563 111
-17.5781 26.1562 2.5702999999999996 56
-3.0370999999999997 4.5195 -0.4412 152
-16.3906 24.3906 3.0839999999999996 72
-15.875 23.625 3.6543 165
-13.6953 20.375 -0.8554999999999999 226
-15.7344 23.4219 4.2969 226
-14.6953 21.8594 -0.3071 120
-16.2812 24.2344 5.140599999999999 102
-3.0039 4.5 -0.9468000000000001 183
-3.0156 4.5156 -0.8218000000000001 139
-20.1875 30.2344 1.2676 236
-3.0117000000000003 4.5117 -0.6923999999999999 96
-16.6406 24.9219 1.7412 209
-3.0645 4.5938 -0.5757 89
-17.4219 26.0938 2.5586 199
-3.0605 4.5859 -0.4468 48
-15.414100000000001 23.0938 2.9141000000000004 225
-3.0938 4.6367 -0.3215 135
-16.7031 25.0312 3.8651999999999997 49
-13.5781 20.3438 -0.8521 30
-15.664100000000001 23.4688 4.2969 234
-14.6172 21.8906 -0.3069 103
-16.3281 24.4688 5.1797 181
-3.0098000000000003 4.543 -0.9531000000000001 121
-3.0 4.5273 -0.8218000000000001 239
-20.1562 30.4219 1.2725 84
-3.0156 4.5508 -0.6968000000000001 89
-16.5625 24.9844 1.7412 107
-3.0526999999999997 4.6055 -0.5761999999999999 238
-17.3906 26.25 2.5683999999999996 226
-3.0469 4.5977 -0.447 72
-15.289100000000001 23.0625 2.9043 196
-3.1132999999999997 4.6992 -0.32520000000000004 181
-16.0938 24.2969 3.7441000000000004 29
-13.539100000000001 20.4375 -0.8540000000000001 49
-15.5 23.3906 4.2734 171
-14.5625 21.9844 -0.3074 72
-14.9219 22.5156 4.7539 82
-3.0507999999999997 4.6406 -0.9717 148
-3.0058999999999996 4.5703 -0.8276 75
-2.998 4.5625 -0.6968000000000001 44
-3.0351999999999997 4.6172 -0.5761999999999999 114
-16.4062 24.9688 2.4375 168
-3.0449 4.6289 -0.449 87
-15.2422 23.1875 2.9120999999999997 12
-3.1211 4.7461 -0.32789999999999997 66
-16.7344 25.4531 3.9120999999999997 193
-15.3672 23.375 4.2617 177
-14.5156 22.0781 -0.3081 255
-16.2656 24.7344 5.2109000000000005 180
-3.0273000000000003 4.6406 -0.9697 85
-3.1738 4.8672 0.067 50
-3.0233999999999996 4.6367 -0.8373999999999999 12
-3.1582 4.8398 0.2 197
-3.0058999999999996 4.6094 -0.7021 169
-16.25 24.9062 1.7275 151
-3.0312 4.6484 -0.5786 178
-16.2812 24.9531 2.4297 22
-3.0566000000000004 4.6836 -0.4531 102
-15.156199999999998 23.2344 2.9101999999999997 0
-3.1523000000000003 4.832 -0.33299999999999996 41
-15.3594 23.5469 3.6113 70
-3.1543 4.8359 -0.1998 175
-14.6875 22.5156 4.0938 0
-14.468800000000002 22.1875 -0.30879999999999996 52
-16.1875 24.8125 5.2148 253
-3.0137 4.6523 -0.9702 118
-19.7656 30.5312 0.42460000000000003 214
-3.0938 4.7773 -0.8613 148
-2.9941000000000004 4.625 -0.7031000000000001 235
-16.125 24.9219 1.7246000000000001 216
-3.0507999999999997 4.7109 -0.5854 169
-16.2188 25.0625 2.4355 232
-3.0507999999999997 4.7109 -0.4548 134
-15.1094 23.3438 2.918 110
-3.1289 4.832 -0.3323 25
-17.0469 26.3281 4.0273 34
-13.3672 20.6406 -0.8569 241
-15.148399999999999 23.4062 4.2461 164
-14.468800000000002 22.3438 -0.3105 3
-16.1875 25.0 5.2422 67
-2.9882999999999997 4.6523 -0.9673 6
-19.7344 30.7188 0.426 16
-3.0702999999999996 4.7773 -0.8599 198
-3.0058999999999996 4.6797 -0.71 16
-16.0781 25.0156 1.7275 26
-3.0469 4.7422 -0.5879 15
-15.3906 23.9531 2.3223 145
-3.0723000000000003 4.7812 -0.4607 20
-15.093800000000002 23.5 2.9297000000000004 245
-3.1543 4.9102 -0.3369 224
-15.156199999999998 23.5938 3.6016000000000004 179
-13.2656 20.6406 -0.855 213
-15.093800000000002 23.5 4.25 223
-14.460899999999999 22.5156 -0.312 106
-14.5781 22.6875 4.75 58
-2.9882999999999997 4.6875 -0.9731000000000001 115
-19.6875 30.875 0.42719999999999997 148
-3.0156 4.7305 -0.8486 160
-15.976600000000001 25.0625 1.0361 83
-3.0507999999999997 4.7852 -0.7245999999999999 23
-3.0488 4.7852 -0.5918 26
-15.2578 23.9219 2.3145 56
-3.082 4.8359 -0.4646 43
-16.3594 25.6562 3.1933999999999996 175
-14.9844 23.5 -1.6191 162
-16.5469 25.9375 3.9531 174
-13.1875 20.6875 -0.855 168
-14.726600000000001 23.0938 4.1719 106
-14.4375 22.6406 -0.3132 190
-14.539100000000001 22.7969 4.7617 117
-2.9824 4.7148 -0.9765999999999999 98
-15.7969 24.9688 0.3447 209
-3.0332 4.793 -0.8584 123
-15.7031 24.8125 1.0234 175
-3.0839999999999996 4.875 -0.7363 67
-15.5703 24.6094 1.6913999999999998 16
-3.0547000000000004 4.8281 -0.5957 223
-14.8828 23.5312 2.2695 238
-3.0938 4.8867 -0.46880000000000005 170
-14.7422 23.2969 2.8945 190
-9.8906 15.6328 -1.0742 34
-14.8828 23.5312 3.5762 248
-13.1172 20.7344 -0.855 112
-14.1875 22.4219 4.0391 7
-14.4375 22.8281 -0.31489999999999996 165
-14.460899999999999 22.8438 4.7617 126
-3.0137 4.8008 -0.9922 14
-15.6406 24.9062 0.34299999999999997 135
-3.0176 4.8086 -0.8589 73
-15.601600000000001 24.8594 1.0234 25
-3.0702999999999996 4.8906 -0.7373000000000001 206
-15.5 24.6875 1.6934 205
-3.0370999999999997 4.8398 -0.5957 251
-14.7422 23.4844 2.2617 82
-3.0781 4.9023 -0.4692 177
-14.7578 23.5156 2.9120999999999997 136
-9.75 15.531199999999998 -1.0645 212
-14.8594 23.6719 3.5879000000000003 32
-13.031199999999998 20.7656 -0.8540000000000001 107
-14.1953 22.6094 4.0664 46
-14.4453 23.0156 -0.3169 66
-14.476600000000001 23.0625 4.793 218
-3.0156 4.8398 -0.998 126
-15.593800000000002 25.0312 0.344 64
-3.0839999999999996 4.9492 -0.8828 32
-15.5469 24.9688 1.0254 228
-3.0391000000000004 4.8789 -0.7339 35
-36.875 59.2188 4.0547 54
-3.0293 4.8633 -0.5977 196
-14.710899999999999 23.6094 2.2695 158
-3.0839999999999996 4.9492 -0.4727 147
-14.5781 23.4062 2.8926 94
-9.6562 15.5078 -1.0605 75
-15.648399999999999 25.125 3.8007999999999997 87
-12.9844 20.8438 -0.8554999999999999 44
-14.1797 22.7656 4.082 204
-14.3672 23.0625 4.7852 210
-3.0370999999999997 4.9141 -1.0107 106
-19.5312 31.5938 0.43329999999999996 128
-15.531199999999998 25.125 1.0293 220
-3.0254000000000003 4.8945 -0.7349 166
-36.5625 59.1562 4.043 135
-3.0214999999999996 4.8906 -0.5996 250
-14.6953 23.7812 2.2793 39
-3.0995999999999997 5.0156 -0.478 103
-14.6719 23.7344 2.9276999999999997 5
-9.6016 15.531199999999998 -1.0595999999999999 233
-15.585899999999999 25.2188 3.8066000000000004 52
-12.914100000000001 20.8906 -0.8554999999999999 59
-13.914100000000001 22.5156 4.0273 190
-14.5469 23.5312 4.8711 10
-3.0488 4.9727 -1.0205 16
-19.4531 31.7188 0.4343 249
-3.0449 4.9648 -0.8813 43
-3.0312 4.9414 -0.7402 130
-36.3125 59.2188 4.0391 113
-3.0410000000000004 4.957 -0.6064 7
-14.6328 23.8594 2.2812 173
-3.0879000000000003 5.0352 -0.479 44
-14.7344 24.0312 2.9589999999999996 121
-9.5547 15.585899999999999 -1.0605 232
-15.4297 25.1562 3.7910000000000004 110
-12.9453 21.1094 -0.8628 92
-13.8906 22.6562 4.043 237
-14.156199999999998 23.0781 4.7656 72
-3.0625 5.0312 -1.0312000000000001 149
-19.5 32.0312 0.4375 95
-3.0410000000000004 4.9961 -0.7471 61
-36.0625 59.25 4.0312 229
-3.0547000000000004 5.0195 -0.6128 135
-16.5781 27.2188 2.5995999999999997 70
-3.0995999999999997 5.0898 -0.4832 227
-14.3125 23.5156 2.8887 63
-9.5 15.6094 -1.0605 50
-15.5 25.4531 3.8281 223
-12.8594 21.125 -0.8618000000000001 24
-13.9375 22.9062 4.082 170
-14.3281 23.5312 4.8516 38
-3.0566000000000004 5.0586 -1.0352 123
-19.3906 32.0938 0.4375 105
-3.0918 5.1172 -0.9048 255
-3.0526999999999997 5.0508 -0.7534000000000001 17
-15.226600000000001 25.2031 1.7109 124
-3.0547000000000004 5.0547 -0.6162 185
-16.5938 27.4688 2.6172000000000004 51
-3.1035000000000004 5.136699999999999 -0.4863 255
-14.226600000000001 23.5469 2.8867000000000003 96
-9.4375 15.625 -1.0595999999999999 99
-15.2031 25.1562 3.7754000000000003 39
-12.8047 21.1875 -0.8628 12
-13.851600000000001 22.9219 4.0781 236
-14.1875 23.4844 4.832 85
-19.3438 32.2812 0.43920000000000003 38
-3.0801 5.140599999999999 -0.9072 30
-3.0742000000000003 5.1289 -0.7637 143
-15.125 25.25 1.71 211
-3.0566000000000004 5.1016 -0.6206 129
-3.1367000000000003 5.234400000000001 -0.4949 255
-14.125 23.5781 2.8848000000000003 253
-9.3984 15.6797 -1.0605 185
-14.1797 23.6562 3.543 14
-12.773399999999999 21.3281 -0.8662000000000001 200
-13.7656 22.9688 4.0781 219
-13.960899999999999 23.2969 4.7812 37
-3.0702999999999996 5.1640999999999995 -1.0518 16
-19.3438 32.5625 0.44189999999999996 151
-3.0839999999999996 5.1875 -0.9140999999999999 56
-3.1620999999999997 5.3164 -0.7905 51
-3.0547000000000004 5.140599999999999 -0.624 142
-14.093800000000002 23.7188 2.25 11
-3.1327999999999996 5.269500000000001 -0.4971 195
-14.406199999999998 24.2344 2.957 54
-9.3359 15.7031 -1.0605 162
-15.093800000000002 25.3906 3.7949 70
-13.6719 23.0 4.0742 25
-13.9375 23.4375 4.8008 109
-3.0625 5.1953 -1.0556999999999999 36
-3.0742000000000003 5.2188 -0.917 150
-3.1426 5.332000000000001 -0.7905 223
-14.0703 23.875 1.6103999999999998 170
-3.1327999999999996 5.3164 -0.5005 128
-15.4922 26.2969 3.2031 71
-9.2734 15.7344 -1.0605 153
-15.156199999999998 25.7188 3.8358999999999996 113
-12.6172 21.4062 -0.8662000000000001 136
-13.4219 22.7656 4.0234 97
-13.976600000000001 23.7188 4.8477 202
-3.0625 5.2422 -1.0625 161
-3.1211 5.3398 -0.937 215
-14.0781 24.0938 0.9727 151
-3.1094 5.3203 -0.7870999999999999 116
-14.0625 24.0625 1.6191 55
-3.1562 5.4023 -0.6533 155
-14.0781 24.0938 2.2754 2
-3.1620999999999997 5.4102 -0.5083 39
-15.3672 26.2969 3.1973000000000003 14
-9.2109 15.7656 -1.0595999999999999 184
-13.7344 23.5156 3.498 201
-13.4375 23.0 4.0547 253
-14.1172 24.1562 -0.3264 249
-13.4531 23.0312 4.6953 126
-3.0995999999999997 5.3438 -1.082 126
-3.1289 5.390599999999999 -0.9438 210
-3.1151999999999997 5.3672 -0.7929999999999999 64
-14.0781 24.25 1.6288999999999998 110
-3.1406 5.4102 -0.6533 229
-3.1776999999999997 5.4765999999999995 -0.5136999999999999 203
-15.351600000000001 26.4531 3.2108999999999996 83
-9.1406 15.7578 -1.0576 9
-13.6797 23.5625 3.5 227
-12.5156 21.5625 -0.8687 72
-13.273399999999999 22.875 4.0273 37
-13.3828 23.0625 4.6914 242
-3.0879000000000003 5.363300000000001 -1.084 1
-3.082 5.3515999999999995 -0.9355 59
-3.0526999999999997 5.300800000000001 -0.7812 167
-14.0547 24.4062 1.6357 12
-3.2226999999999997 5.5938 -0.6738 180
-7.1836 12.476600000000001 -1.1719 94
-15.4531 26.8281 3.25 80
-9.0859 15.781199999999998 -1.0566 150
-14.5703 25.2969 3.75 3
-12.4297 21.5781 -0.8682 219
-13.25 23.0 4.043 34
-13.0547 22.6719 4.6055 59
-3.0702999999999996 5.3789 -1.085 235
-3.0645 5.3672 -0.9359999999999999 10
-3.1504000000000003 5.515599999999999 -0.8115000000000001 26
-3.1855 5.578099999999999 -0.6704000000000001 163
-14.710899999999999 25.75 2.418 120
-7.1172 12.460899999999999 -1.1689 162
-15.031199999999998 26.3125 3.1816000000000004 124
-9.0234 15.7969 -1.0556999999999999 95
-14.460899999999999 25.3281 3.7461 151
-13.6094 23.8281 4.1797 252
-13.031199999999998 22.8125 4.625 107
-3.1601999999999997 5.578099999999999 -0.9712000000000001 203
-3.1504000000000003 5.5625 -0.8169 184
-5.800800000000001 10.2422 -1.2324 104
-14.593800000000002 25.7656 2.4141 36
-7.074199999999999 12.4844 -1.1689 217
-14.914100000000001 26.3281 3.1757999999999997 207
-8.9609 15.8281 -1.0556999999999999 126
-14.5469 25.6719 3.7910000000000004 91
-12.3828 21.8594 -0.8755 161
-13.4844 23.7969 4.1641 0
-13.4922 23.8281 4.8203 24
-3.125 5.5664 -1.1181999999999999 41
-4.8164 8.5781 -1.2598 243
-33.2188 59.1562 3.9433999999999996 207
-5.761699999999999 10.2578 -1.2324 158
-7.019500000000001 12.5 -1.167 107
-14.8281 26.4062 3.1776999999999997 217
-8.9062 15.8672 -1.0556999999999999 248
-14.375 25.5938 3.7695 15
-12.3047 21.9062 -0.8755 235
-13.3125 23.7031 4.1406 122
-12.8906 22.9531 4.6328 80
-3.6699 6.5859000000000005 -1.3222999999999998 40
-4.1875 7.515599999999999 -1.3056999999999999 86
-4.7656 8.5547 -1.2539 172
-32.9375 59.125 3.9336 242
-5.7148 10.2656 -1.2305 8
-14.585899999999999 26.1875 2.4453 0
-6.9727 12.5156 -1.167 107
-8.8359 15.8672 -1.0537 123
-14.2344 25.5469 3.7558999999999996 214
-12.289100000000001 22.0625 -0.8798999999999999 61
-13.1719 23.6406 4.1211 110
-12.8203 23.0156 4.6406 222
-3.6387 6.582000000000001 -1.3184 210
-4.1562 7.515599999999999 -1.3027000000000002 221
-4.7422 8.5781 -1.2559 225
-32.6875 59.125 3.9276999999999997 191
-5.6797 10.273399999999999 -1.2295 82
-14.5156 26.25 2.4473 115
-6.9414 12.5547 -1.168 229
-14.125 25.5469 3.0625 97
-8.7812 15.8828 -1.0527 77
-14.1094 25.5156 3.7441000000000004 119
-13.148399999999999 23.7812 4.1367 94
-12.773399999999999 23.1094 4.6484 44
-3.6191000000000004 6.5977 -1.3193000000000001 192
-4.1172 7.5078 -1.2988 209
-4.7188 8.6016 -1.2568000000000001 113
-32.4062 59.0625 3.9160000000000004 193
-5.636699999999999 10.273399999999999 -1.2275 167
-6.894500000000001 12.5703 -1.167 10
-14.1797 25.8438 3.0938 239
-8.7344 15.914100000000001 -1.0537 145
-13.9453 25.4219 3.7245999999999997 45
-12.148399999999999 22.1406 -0.8798999999999999 107
-13.0703 23.8281 4.1367 158
-13.1406 23.9531 4.8086 128
-3.5995999999999997 6.6172 -1.3213 78
-4.0859 7.511699999999999 -1.2978999999999998 227
-4.6797 8.6016 -1.2539 213
-32.125 59.0625 3.9101999999999997 6
-5.605499999999999 10.3125 -1.2285 162
-6.8438 12.585899999999999 -1.167 105
-8.6797 15.9531 -1.0537 233
-13.7969 25.3594 3.7089999999999996 173
-12.0625 22.1875 -0.8798999999999999 9
-12.9922 23.8906 4.1406 130
-13.0156 23.9375 4.7969 199
-3.5742000000000003 6.6289 -1.3203 116
-4.0625 7.5352 -1.2988 103
-4.6484 8.6172 -1.2539 204
-31.8594 59.0938 3.9023000000000003 112
-5.5625 10.3125 -1.2266 224
-14.7422 27.3281 2.5332 246
-6.7812 12.5781 -1.1631 74
-13.718800000000002 25.4375 3.0332 108
-8.6328 16.0 -1.0556999999999999 139
-13.75 25.4844 3.7207 78
-11.9922 22.2344 -0.8798999999999999 162
-12.9297 23.9844 4.1484 202
-12.9453 24.0 4.8008 32
-3.543 6.625 -1.3174000000000001 123
-4.0312 7.5390999999999995 -1.2978999999999998 51
-4.6172 8.6328 -1.2539 200
-31.5938 59.0938 3.8964999999999996 80
-5.5234000000000005 10.3281 -1.2266 72
-14.648399999999999 27.3906 2.5332 150
-6.7461 12.6094 -1.1641 242
-13.5703 25.3594 3.0195 112
-8.5547 15.9844 -1.0527 173
-13.6797 25.5781 3.7266000000000004 7
-14.0156 26.2031 4.5234 106
-3.5137 6.625 -1.3154 249
-4.0 7.5390999999999995 -1.2949000000000002 74
-4.582 8.6406 -1.252 101
-31.3438 59.0938 3.8887 32
-5.4765999999999995 10.3281 -1.2246 90
-6.7148 12.656199999999998 -1.167 227
-13.4844 25.4219 3.0195 185
-8.4922 16.0 -1.0518 156
-13.718800000000002 25.8594 3.7598000000000003 74
-13.601600000000001 25.6406 4.4219 66
-12.914100000000001 24.3594 -0.3215 105
-3.4941000000000004 6.644500000000001 -1.3163999999999998 221
-3.9766000000000004 7.5625 -1.2959 156
-4.5508 8.6562 -1.252 125
-31.0781 59.0938 3.8827999999999996 153
-5.4414 10.343800000000002 -1.2236 179
-6.6640999999999995 12.6719 -1.166 255
-13.789100000000001 26.2188 3.1094 19
-8.4453 16.0625 -1.0527 247
-13.593800000000002 25.8438 3.75 255
-13.4297 25.5312 4.3945 251
-12.8281 24.3906 -0.3215 69
-3.4726999999999997 6.6602 -1.3174000000000001 141
-3.9375 7.550800000000001 -1.2919999999999998 77
-4.5195 8.6641 -1.252 48
-30.7969 59.0625 3.873 228
-5.394500000000001 10.343800000000002 -1.2217 58
-6.605499999999999 12.6719 -1.1631 111
-13.8047 26.4688 3.1327999999999996 2
-8.3906 16.0938 -1.0537 125
-13.5703 26.0312 3.7714999999999996 140
-13.3047 25.5156 4.3789 114
-12.7031 24.3594 -0.32030000000000003 164
-3.4531 6.6797 -1.3184 168
-3.9120999999999997 7.5664 -1.2930000000000001 238
-4.4922 8.6875 -1.2529000000000001 219
-30.5312 59.0312 3.8651999999999997 235
-5.363300000000001 10.375 -1.2227 234
-6.5586 12.6875 -1.1631 10
-13.656199999999998 26.4062 3.1191000000000004 117
-8.3359 16.125 -1.0537 142
-13.476600000000001 26.0625 3.7676 33
-13.0156 25.1719 4.3164 244
-12.585899999999999 24.3438 -0.3196 131
-13.398399999999999 25.9219 5.136699999999999 215
-3.4276999999999997 6.6836 -1.3174000000000001 182
-3.8887 7.5859000000000005 -1.2930000000000001 217
-4.4609 8.7031 -1.2529000000000001 241
-30.25 59.0312 3.8555 62
-5.3164 10.3672 -1.2197 186
-6.4961 12.6719 -1.1592 139
-12.8828 25.1406 2.9648000000000003 199
-8.2578 16.1094 -1.0498 83
-13.4844 26.3125 3.7969 13
-12.9453 25.25 4.3203 118
-12.5156 24.4219 -0.3201 99
-13.273399999999999 25.8906 5.125 64
-3.3964999999999996 6.6836 -1.3144999999999998 85
-3.8594 7.5898 -1.2919999999999998 29
-4.4258 8.7109 -1.251 195
-30.0 59.0 3.8495999999999997 199
-5.2812 10.3828 -1.2197 211
-6.449199999999999 12.6875 -1.1592 151
-12.843800000000002 25.2656 2.9745999999999997 31
-8.1953 16.1094 -1.0488 157
-13.2031 25.9688 3.7422000000000004 86
-12.7656 25.1094 4.2891 104
-12.4922 24.5781 -0.3215 161
-13.1797 25.9219 5.1211 220
-3.377 6.699199999999999 -1.3154 204
-3.832 7.6015999999999995 -1.291 153
-4.3984 8.7188 -1.251 34
-29.7969 59.0625 3.8476999999999997 245
-5.230499999999999 10.375 -1.2168 35
-6.4062 12.7031 -1.1582 47
-13.476600000000001 26.7188 3.1406 41
-8.1562 16.1719 -1.0518 241
-12.789100000000001 25.3594 3.6483999999999996 92
-12.7656 25.3281 4.3164 27
-13.101600000000001 25.9688 5.1211 135
-3.3555 6.7148 -1.3163999999999998 132
-3.8026999999999997 7.609400000000001 -1.291 80
-4.3711 8.75 -1.2529000000000001 136
-29.5 59.0312 3.8379000000000003 71
-5.199199999999999 10.398399999999999 -1.2178 208
-6.359400000000001 12.726600000000001 -1.1582 60
-12.5078 25.0312 2.9355 45
-8.0859 16.1719 -1.0498 177
-12.601600000000001 25.2188 3.6211 187
-12.726600000000001 25.4688 4.3359 66
-12.960899999999999 25.9375 5.1055 49
-3.332 6.7265999999999995 -1.3163999999999998 230
-3.7714999999999996 7.613300000000001 -1.2891 177
-4.3438 8.7734 -1.2539 49
-29.2344 59.0312 3.8301 62
-5.1562 10.406199999999998 -1.2158 214
-6.300800000000001 12.718800000000002 -1.1562000000000001 223
-13.3281 26.9062 3.1523000000000003 190
-8.0391 16.2188 -1.0508 65
-12.476600000000001 25.1875 3.6113 196
-12.5703 25.375 4.3125 237
-3.3026999999999997 6.7265999999999995 -1.3144999999999998 190
-3.7539 7.644500000000001 -1.2919999999999998 173
-4.3086 8.7734 -1.252 140
-28.9844 59.0312 3.8242000000000003 214
-5.1172 10.4219 -1.2158 50
-6.2539 12.7422 -1.1553 61
-12.6328 25.7344 3.0077999999999996 57
-7.980499999999999 16.25 -1.0508 212
-12.4375 25.3281 3.625 94
-11.656199999999998 23.75 -0.9218999999999999 207
-12.4375 25.3438 4.2969 36
-3.2773000000000003 6.734400000000001 -1.3135 177
-3.7168 7.640599999999999 -1.2891 6
-4.2773 8.7891 -1.252 2
-28.7031 59.0 3.8145 130
-5.0781 10.4375 -1.2148 52
-6.203099999999999 12.7422 -1.1543 232
-12.5 25.6719 2.9961 105
-7.9062 16.25 -1.0488 40
-12.4844 25.6562 3.6660000000000004 140
-11.4453 23.5156 -0.9116 217
-12.0781 24.8281 4.2031 49
-3.2539 6.7461 -1.3135 20
-3.6855 7.640599999999999 -1.2871000000000001 152
-4.2539 8.8125 -1.2539 55
-28.4375 58.9375 3.8047000000000004 96
-5.043 10.4531 -1.2148 5
-12.148399999999999 25.1719 2.2793 20
-6.1602 12.7656 -1.1543 215
-12.460899999999999 25.8438 3.0098000000000003 61
-7.8438 16.2656 -1.0479 50
-12.335899999999999 25.5625 3.6464999999999996 210
-12.226600000000001 25.3594 4.957 7
-3.2324 6.761699999999999 -1.3144999999999998 114
-3.6582 7.6523 -1.2861000000000002 42
-4.2188 8.8203 -1.2529000000000001 215
-28.1875 58.9688 3.8007999999999997 60
-4.9961 10.4531 -1.2129 82
-12.039100000000001 25.1875 2.2754 111
-6.105499999999999 12.7656 -1.1523 146
-12.976600000000001 27.1406 3.1562 238
-7.792999999999999 16.2969 -1.0488 69
-12.2344 25.5938 3.6426 123
-12.3594 25.8594 4.3633 12
-12.156199999999998 25.4219 4.9609 79
-3.2129000000000003 6.7812 -1.3154 56
-3.6308999999999996 7.6640999999999995 -1.2861000000000002 46
-4.1875 8.8359 -1.2529000000000001 101
-27.9531 59.0 3.7969 71
-4.9609 10.468800000000002 -1.2129 55
-11.914100000000001 25.1562 2.2695 149
-6.0547 12.781199999999998 -1.1514 201
-12.8672 27.1562 3.1543 10
-7.7422 16.3438 -1.0498 97
-12.085899999999999 25.5 3.625 227
-11.2422 23.7188 -0.915 45
-12.085899999999999 25.5 4.9688 34
-3.1816000000000004 6.7773 -1.3125 133
-3.6094 7.6875 -1.2881 181
-4.1445 8.8281 -1.249 99
-27.6875 59.0 3.7891000000000004 0
-4.918 10.468800000000002 -1.2109 47
-11.843800000000002 25.2344 2.2734 195
-6.011699999999999 12.8047 -1.1523 191
-12.101600000000001 25.7812 2.9882999999999997 209
-7.671900000000001 16.3438 -1.0479 132
-11.976600000000001 25.5 3.6191000000000004 136
-11.101600000000001 23.6562 -0.9106000000000001 198
-12.1797 25.9375 4.3633 247
-3.1523000000000003 6.7734000000000005 -1.3105000000000002 193
-3.5858999999999996 7.707000000000001 -1.29 246
-4.1172 8.8438 -1.25 94
-27.4375 58.9688 3.7832 184
-4.8789 10.4844 -1.2109 34
-5.949199999999999 12.789100000000001 -1.1484 76
-12.085899999999999 25.9688 3.0058999999999996 127
-7.609400000000001 16.3594 -1.0469 62
-11.781199999999998 25.3281 3.5879000000000003 1
-11.0156 23.6875 -0.9106000000000001 224
-12.039100000000001 25.875 4.3438 229
-3.1308999999999996 6.792999999999999 -1.3115 86
-3.5507999999999997 7.699199999999999 -1.2861000000000002 66
-4.0898 8.875 -1.251 60
-27.1875 58.9688 3.7754000000000003 72
-4.832 10.4844 -1.209 134
-5.917999999999999 12.835899999999999 -1.1514 76
-11.898399999999999 25.8125 2.9824 167
-7.5547 16.3906 -1.0469 74
-11.75 25.5 3.6055 170
-10.9297 23.7031 -0.9097 84
-12.031199999999998 26.0938 4.375 52
-3.1113 6.8086 -1.3125 57
-3.5233999999999996 7.703099999999999 -1.2852000000000001 251
-4.0586 8.875 -1.25 186
-26.9531 58.9688 3.7695 235
-4.8008 10.5 -1.209 69
-5.863300000000001 12.8281 -1.1484 51
-7.484400000000001 16.375 -1.0449 157
-11.781199999999998 25.7656 3.6387 28
-10.8672 23.7656 -0.9106000000000001 75
-11.9453 26.125 4.375 131
-3.0879000000000003 6.8125 -1.3115 207
-3.4922000000000004 7.707000000000001 -1.2832 50
-4.0156 8.8594 -1.2451 101
-12.8594 28.3594 1.8096 81
-4.7695 10.523399999999999 -1.21 171
-5.800800000000001 12.7969 -1.1445 141
-7.4336 16.4062 -1.0449 1
-11.7344 25.8906 3.6504000000000003 222
-10.7422 23.7031 -0.9067000000000001 95
-11.8281 26.0938 4.3633 55
-12.835899999999999 28.3125 -0.3628 182
-3.0605 6.8203 -1.3105000000000002 193
-12.718800000000002 28.3438 0.3625 95
-3.4726999999999997 7.738300000000001 -1.2861000000000002 24
-12.710899999999999 28.3125 1.082 57
-3.9745999999999997 8.8516 -1.2431999999999999 207
-12.718800000000002 28.3438 1.8047 120
-4.7227 10.523399999999999 -1.208 235
-5.7539 12.8281 -1.1445 99
-7.3828 16.4531 -1.0469 190
-11.710899999999999 26.1094 3.6738 182
-10.648399999999999 23.7188 -0.9062 161
-11.6953 26.0625 4.3516 168
-12.726600000000001 28.3594 -0.3625 223
-10.375 23.125 4.4609 100
-3.0293 6.8164 -1.3075999999999999 98
-3.4473000000000003 7.7539 -1.2871000000000001 62
-3.9512 8.8828 -1.2451 188
-12.6172 28.375 1.8047 11
-4.6914 10.5469 -1.209 107
-5.707000000000001 12.835899999999999 -1.1436 115
-7.3125 16.4375 -1.0439 183
-11.7656 26.4688 3.7207 138
-10.5469 23.7188 -0.9043000000000001 250
-11.5781 26.0469 4.3398 242
-3.0077999999999996 6.832000000000001 -1.3086000000000002 8
-3.4120999999999997 7.75 -1.2852000000000001 84
-3.918 8.8984 -1.2451 149
-25.9375 58.9062 3.7422000000000004 120
-4.6328 10.523399999999999 -1.2041 7
-5.6562 12.843800000000002 -1.1426 32
-7.238300000000001 16.4375 -1.043 137
-10.460899999999999 23.75 -0.9043000000000001 190
-11.476600000000001 26.0625 4.3359 226
-2.9863 6.8477 -1.3096 135
-3.3789 7.7461 -1.2822 21
-3.8808999999999996 8.8984 -1.2431999999999999 151
-25.6719 58.875 3.7344 43
-4.5898 10.531199999999998 -1.2021 141
-5.5938 12.8281 -1.1396 149
-7.171900000000001 16.4531 -1.041 176
-10.3594 23.75 -0.9028 34
-10.523399999999999 24.125 4.0078 25
-2.9648000000000003 6.8672 -1.3115 97
-3.3476999999999997 7.7539 -1.2812000000000001 39
-3.8476999999999997 8.9062 -1.2431999999999999 148
-25.4688 58.9688 3.7344 177
-4.5547 10.5469 -1.2031 232
-5.550800000000001 12.851600000000001 -1.1396 241
-7.113300000000001 16.4688 -1.041 241
-10.2656 23.7656 -0.9023 151
-10.5703 24.4844 -0.311 100
-10.468800000000002 24.2344 4.6484 207
-2.9355 6.863300000000001 -1.3086000000000002 205
-3.3301 7.7852 -1.2852000000000001 218
-10.4297 24.375 0.9238 21
-3.8145 8.9141 -1.2422 209
-10.406199999999998 24.3281 1.5361000000000002 10
-4.5234 10.5703 -1.2041 148
-5.5039 12.8672 -1.1396 125
-7.0586 16.5 -1.042 96
-10.3906 24.2969 3.3926 141
-10.1562 23.7344 -0.8998999999999999 14
-10.406199999999998 24.3281 -0.3086 154
-2.9101999999999997 6.8711 -1.3086000000000002 159
-10.3672 24.4688 0.3098 50
-3.3026999999999997 7.792999999999999 -1.2841999999999998 242
-10.3203 24.375 0.9224 165
-3.7812 8.9219 -1.2412 81
-10.3125 24.3438 1.5361000000000002 51
-4.4766 10.5703 -1.2021 151
-5.453099999999999 12.875 -1.1387 10
-6.9961 16.5156 -1.041 4
-10.289100000000001 24.2812 3.3867000000000003 100
-10.0938 23.8125 -0.9014 147
-10.3281 24.375 -0.3086 99
-2.8887 6.886699999999999 -1.3096 149
-3.2754000000000003 7.8086 -1.2852000000000001 108
-10.2578 24.4531 0.9238 224
-3.7539 8.9453 -1.2431999999999999 194
-10.281199999999998 24.5 1.5430000000000001 202
-4.4414 10.585899999999999 -1.2012 203
-5.417999999999999 12.914100000000001 -1.1406 67
-6.917999999999999 16.4844 -1.0381 55
-9.9766 23.7812 -0.8989 236
-10.3047 24.5469 -0.3105 79
-10.2344 24.3906 4.6562 250
-2.8691000000000004 6.9023 -1.3105000000000002 101
-3.2401999999999997 7.796900000000001 -1.2812000000000001 33
-3.7207 8.9531 -1.2422 175
-24.5 58.9688 3.7129000000000003 113
-4.4062 10.601600000000001 -1.2021 24
-5.359400000000001 12.8906 -1.1367 106
-6.890599999999999 16.5781 -1.042 227
-11.7422 28.25 3.9297000000000004 2
-9.8906 23.7969 -0.8979 128
-11.718800000000002 28.1875 4.6484 70
-10.2266 24.6094 4.6914 202
-2.8476999999999997 6.9140999999999995 -1.3105000000000002 149
-3.2188 7.8203 -1.2832 212
-3.6914 8.9609 -1.2412 252
-11.710899999999999 28.4375 1.7871000000000001 112
-4.3711 10.6094 -1.2012 125
-11.664100000000001 28.3125 2.498 113
-5.3086 12.898399999999999 -1.1357 126
-6.8164 16.5469 -1.0391 210
-9.8047 23.8125 -0.8975 19
-11.625 28.2344 4.6484 45
-2.8164 6.9140999999999995 -1.3086000000000002 102
-3.1933999999999996 7.8398 -1.2841999999999998 24
-3.6426 8.9375 -1.2363 30
-4.3281 10.625 -1.2012 238
-11.5625 28.3906 2.5 180
-5.265599999999999 12.9297 -1.1367 228
-6.7422 16.5469 -1.0371 76
-9.7031 23.8125 -0.8959999999999999 90
-11.523399999999999 28.2969 4.6523 251
-2.7870999999999997 6.9102 -1.3066 80
-3.1582 7.832000000000001 -1.2812000000000001 31
-23.7969 59.0312 2.2207 9
-3.6113 8.9609 -1.2373 61
-4.2852 10.625 -1.1992 246
-11.460899999999999 28.4375 2.5 181
-5.2227 12.9531 -1.1367 176
-6.6797 16.5625 -1.0371 117
-9.625 23.8594 -0.8965000000000001 60
-11.4297 28.3594 4.6562 59
-2.7676 6.925800000000001 -1.3075999999999999 238
-3.1308999999999996 7.8359000000000005 -1.2803 228
-23.5469 58.9375 2.2148 138
-3.5858999999999996 8.9766 -1.2373 113
-9.8438 24.6406 1.541 29
-4.2461 10.625 -1.1982 154
-11.3828 28.4844 2.502 54
-5.167999999999999 12.9375 -1.1338 107
-6.6289 16.5938 -1.0361 69
-11.3594 28.4375 3.9336 21
-9.5391 23.875 -0.8959999999999999 229
-11.3594 28.4219 4.6602 241
-2.7441000000000004 6.9375 -1.3075999999999999 7
-3.1074 7.8515999999999995 -1.2812000000000001 221
-3.5547000000000004 8.9844 -1.2373 202
-11.335899999999999 28.6406 1.7891 7
-4.2109 10.648399999999999 -1.1992 42
-11.2969 28.5469 2.5039 147
-5.1172 12.9375 -1.1328 103
-6.5859000000000005 16.6406 -1.0391 44
-11.273399999999999 28.4844 3.9355 105
-9.4531 23.8906 -0.8955 103
-11.2578 28.4531 4.6602 131
-2.7188 6.9453 -1.3075999999999999 237
-3.0702999999999996 7.8438 -1.2783 189
-11.2578 28.75 1.0762 58
-3.5195 8.9922 -1.2363 76
-11.2344 28.7031 1.79 191
-4.1758 10.664100000000001 -1.1992 244
-11.2031 28.6094 2.5059 164
-5.0625 12.9297 -1.1309 46
-6.5078 16.625 -1.0361 230
-11.1719 28.5469 3.9375 197
-9.3672 23.9375 -0.8955 153
-11.164100000000001 28.5156 4.6641 68
-11.289100000000001 28.8281 -0.3611 44
-2.6952999999999996 6.957000000000001 -1.3075999999999999 181
-3.0547000000000004 7.8828 -1.2822 235
-3.4844 8.9922 -1.2354 237
-11.1406 28.75 1.791 153
-4.125 10.648399999999999 -1.1953 25
-11.1172 28.6875 2.5098 132
-5.0156 12.9453 -1.1299 30
-6.4297 16.5938 -1.0322 36
-11.085899999999999 28.5938 3.9395 94
-9.2969 24.0 -0.897 2
-11.0703 28.5781 4.668 110
-2.6660000000000004 6.953099999999999 -1.3056999999999999 60
-3.0254000000000003 7.886699999999999 -1.2822 189
-3.4473000000000003 8.9922 -1.2334 44
-11.0469 28.8125 1.7930000000000001 254
-4.082 10.648399999999999 -1.1934 198
-11.023399999999999 28.75 2.5117 189
-4.9727 12.968800000000002 -1.1309 34
-6.3789 16.6406 -1.0342 173
-10.9844 28.6562 3.9414 6
-9.2109 24.0156 -0.8965000000000001 137
-10.976600000000001 28.6406 4.668 159
-2.6483999999999996 6.980499999999999 -1.3086000000000002 9
-2.9941000000000004 7.890599999999999 -1.2803 162
-3.418 9.0078 -1.2334 64
-10.9531 28.8594 1.7938999999999998 205
-4.0508 10.6719 -1.1953 232
-10.9297 28.7969 2.5137 62
-4.9297 12.9844 -1.1309 167
-6.3125 16.6406 -1.0322 94
-10.898399999999999 28.7188 3.9452999999999996 145
-9.1328 24.0625 -0.897 83
-10.8906 28.7031 4.6758 44
-2.623 6.988300000000001 -1.3086000000000002 253
-2.9608999999999996 7.890599999999999 -1.2783 186
-22.0938 58.875 2.1934 196
-3.3887 9.0312 -1.2354 8
-10.8594 28.9531 1.7959 100
-4.0078 10.6797 -1.1943000000000001 145
-10.8203 28.8438 2.5137 240
-4.875 12.9922 -1.1299 239
-6.25 16.6562 -1.0322 110
-10.7969 28.7656 3.9473000000000003 57
-9.0391 24.0938 -0.8965000000000001 227
-10.7969 28.7656 4.6758 77
-2.5995999999999997 7.0 -1.3096 222
-10.9922 29.5938 0.36840000000000006 229
-2.9276999999999997 7.8828 -1.2754 46
-11.031199999999998 29.7188 1.1055 67
-3.3476999999999997 9.0156 -1.2314 201
-10.773399999999999 29.0156 1.7978999999999998 245
-3.9629000000000003 10.6719 -1.1924 182
-10.7344 28.9219 2.5156 242
-4.8242 12.9922 -1.1289 20
-6.1914 16.6719 -1.0322 102
-10.726600000000001 28.8906 3.9589999999999996 58
-8.9922 24.2188 -0.9004000000000001 151
-11.125 29.9688 4.8672 10
-11.031199999999998 29.7188 -0.3696 27
-2.5723000000000003 6.9961 -1.3066 179
-10.914100000000001 29.6875 0.3689 78
-2.9101999999999997 7.917999999999999 -1.2803 110
-10.9375 29.75 1.1055 152
-3.3125 9.0078 -1.2295 221
-3.9276999999999997 10.6875 -1.1924 99
-21.5625 58.6562 5.1016 159
-4.7734 12.9922 -1.127 250
-6.105499999999999 16.6094 -1.0273 46
-8.9219 24.2656 -0.9009 63
-10.906199999999998 29.6719 -0.3689 45
-2.5449 6.9961 -1.3047 191
-10.8125 29.7188 0.3689 159
-2.8848000000000003 7.9336 -1.2803 212
-3.2891000000000004 9.0391 -1.2324 30
-3.8848000000000003 10.6797 -1.1904000000000001 51
-21.3594 58.7188 5.0977 103
-4.7383 13.023399999999999 -1.1289 37
-6.0586 16.6562 -1.0283 209
-8.8594 24.3594 -0.9033 39
-2.5195 7.0039 -1.3047 224
-10.6875 29.6875 0.3682 11
-2.8495999999999997 7.917999999999999 -1.2773 170
-3.2558999999999996 9.0469 -1.2314 169
-3.8457 10.6875 -1.1895 58
-21.125 58.6875 5.0898 178
-4.6875 13.023399999999999 -1.127 50
-5.9961 16.6719 -1.0283 107
-8.7891 24.4375 -0.9053 141
-10.8672 30.2031 4.8867 182
-11.1875 31.0938 -0.38549999999999995 15
-2.5 7.019500000000001 -1.3066 106
-2.8164 7.9102 -1.2734 119
-20.9688 58.875 2.1816 113
-3.2285000000000004 9.0703 -1.2324 183
-20.9219 58.75 3.627 154
-3.8086 10.6953 -1.1885 29
-20.8906 58.6562 5.082 254
-4.6406 13.039100000000001 -1.127 169
-5.925800000000001 16.6406 -1.0254 139
-8.7031 24.4375 -0.9037999999999999 83
-10.5703 29.6875 4.8008 114
-11.0781 31.125 -0.38549999999999995 191
-2.4746 7.0312 -1.3066 5
-2.7891000000000004 7.925800000000001 -1.2744 212
-3.1914 9.0625 -1.2305 199
-3.7714999999999996 10.718800000000002 -1.1895 122
-4.5859 13.023399999999999 -1.124 85
-5.8672 16.6719 -1.0254 223
-8.6094 24.4688 -0.9043000000000001 81
-10.5469 29.9531 4.8359 17
-2.4434 7.0234000000000005 -1.3037 154
-2.7695 7.957000000000001 -1.2783 144
-10.664100000000001 30.6562 1.1318000000000001 170
-3.1582 9.0781 -1.2305 176
-10.6797 30.6875 1.8877000000000002 145
-3.7363 10.7344 -1.1904000000000001 140
-4.5391 13.039100000000001 -1.124 130
-5.792999999999999 16.6406 -1.0225 99
-11.031199999999998 31.6875 4.3125 186
-8.5312 24.5156 -0.9048 60
-10.4531 30.0469 4.8438 98
-10.1406 29.1406 5.4336 79
-2.4199 7.0352 -1.3047 81
-2.7401999999999997 7.9609000000000005 -1.2773 46
-10.664100000000001 30.9844 1.1426 194
-3.1289 9.0938 -1.2314 216
-10.656199999999998 30.9688 1.9022999999999999 206
-3.6914 10.726600000000001 -1.1875 102
-20.1875 58.6875 5.0664 77
-4.5 13.0781 -1.126 126
-10.7031 31.0938 3.4512 203
-5.7148 16.6094 -1.0195 90
-10.8906 31.6562 4.3008 246
-8.5 24.7031 -0.9106000000000001 103
-10.0312 29.1406 5.425800000000001 120
-2.3945 7.0390999999999995 -1.3037 229
-2.707 7.957000000000001 -1.2754 152
-20.0 58.8125 2.168 62
-3.0898000000000003 9.0859 -1.2285 182
-19.9844 58.7188 3.6055 177
-3.6523000000000003 10.7344 -1.1875 235
-19.9375 58.5938 5.0547 248
-4.4414 13.0547 -1.123 40
-10.6172 31.2188 3.4608999999999996 156
-5.6640999999999995 16.6406 -1.0205 220
-10.781199999999998 31.6875 4.3008 102
-8.4062 24.7188 -0.9097 37
-9.8906 29.0625 5.4062 61
-2.3711 7.050800000000001 -1.3037 140
-2.6699 7.9375 -1.2705 54
-19.7656 58.75 2.1641 127
-3.0625 9.1094 -1.2305 180
-19.75 58.7188 3.6016000000000004 203
-3.6113 10.7344 -1.1855 195
-10.539100000000001 31.3438 2.6973000000000003 77
-4.3984 13.0781 -1.123 251
-5.5977 16.6406 -1.0186 173
-10.1797 30.2812 4.1016 12
-8.3047 24.6875 -0.9081999999999999 67
-10.0859 29.9688 4.8164 108
-9.7891 29.1094 5.4062 82
-2.3457 7.0586 -1.3037 201
-2.6464999999999996 7.9609000000000005 -1.2725 177
-19.5312 58.75 2.1602 1
-3.0254000000000003 9.1016 -1.2275 235
-19.5156 58.7188 3.5976999999999997 179
-3.5702999999999996 10.7422 -1.1845999999999999 212
-4.3438 13.0625 -1.1211 74
-5.519500000000001 16.5938 -1.0146 244
-9.9375 29.8906 4.0469 20
-8.25 24.8125 -0.9116 211
-9.6719 29.0938 5.3984000000000005 125
-2.3164 7.050800000000001 -1.3018 145
-2.6289 8.0 -1.2773 228
-19.2969 58.7188 2.1562 250
-2.9901999999999997 9.1016 -1.2266 172
-19.2969 58.7188 3.5938 233
-3.5351999999999997 10.7578 -1.1855 204
-10.2188 31.1094 2.6719 73
-4.2969 13.0781 -1.1211 155
-5.457000000000001 16.6094 -1.0146 180
-9.9688 30.3281 4.1016 227
-8.1797 24.8906 -0.9131 2
-9.5078 28.9375 4.6367 7
-9.6328 29.3281 5.4375 103
-2.293 7.0625 -1.3018 0
-19.1094 58.8438 0.7227 80
-2.5957 7.9922 -1.2754 52
-2.9629000000000003 9.125 -1.2285 58
-19.0625 58.6875 3.5879000000000003 1
-3.4941000000000004 10.7578 -1.1845999999999999 156
-4.2539 13.101600000000001 -1.1220999999999999 87
-5.3984000000000005 16.625 -1.0146 154
-10.6719 32.875 4.4414 213
-9.6406 29.6875 4.7539 106
-9.5703 29.4844 5.457000000000001 40
-2.2676 7.0703 -1.3018 167
-18.8906 58.875 0.7222 159
-2.5566 7.9648 -1.2695 204
-18.8438 58.75 2.1523 254
-2.9297000000000004 9.1328 -1.2285 151
-8.3828 26.125 1.5937999999999999 159
-3.4551 10.7656 -1.1836 78
-4.2109 13.125 -1.1220999999999999 55
-5.3203 16.5781 -1.0107 124
-8.4297 26.2812 3.5449 40
-8.0234 25.0 -0.915 38
-9.5 29.6094 5.4765999999999995 225
-2.2441 7.078099999999999 -1.3018 222
-2.5273 7.9688 -1.2686 83
-18.625 58.7188 2.1504 95
-2.9004000000000003 9.1484 -1.2285 164
-8.2812 26.125 1.5918 220
-3.4160000000000004 10.773399999999999 -1.1836 198
-4.1602 13.1172 -1.1201 115
-8.25 26.0156 2.8651999999999997 53
-5.25 16.5625 -1.0078 77
-8.3359 26.2812 3.5410000000000004 57
-7.9336 25.0312 -0.915 90
-9.7266 30.6719 4.9023 147
-9.4062 29.6719 5.480499999999999 84
-2.2227 7.0898 -1.3027000000000002 66
-2.502 7.984400000000001 -1.2695 122
-18.4062 58.7188 2.1465 126
-2.8672000000000004 9.1484 -1.2275 12
-8.1875 26.125 1.5908000000000002 139
-3.3789 10.781199999999998 -1.1826 2
-4.1133 13.1172 -1.1191 167
-5.199199999999999 16.5938 -1.0088 37
-8.2344 26.2812 3.5391000000000004 106
-9.2188 29.4219 5.4297 149
-2.1953 7.0859000000000005 -1.3008000000000002 244
-2.4785 8.0 -1.2705 43
-2.8358999999999996 9.1562 -1.2275 171
-8.0859 26.1094 1.5878999999999999 194
-3.3438 10.7969 -1.1836 107
-4.0742 13.156199999999998 -1.1211 49
-5.1328 16.5625 -1.0068000000000001 73
-8.1406 26.2812 3.5332 74
-9.5547 30.8438 4.918 13
-2.1641 7.082000000000001 -1.2978999999999998 185
-2.4453 7.9961 -1.2686 2
-17.9844 58.8438 2.1465 122
-2.8026999999999997 9.1641 -1.2275 117
-3.3047000000000004 10.8125 -1.1836 78
-4.0234 13.164100000000001 -1.1201 200
-5.0742 16.5938 -1.0068000000000001 37
-8.0391 26.2812 3.5293 214
-7.675800000000001 25.1094 -0.915 36
-8.1172 26.5469 -0.3237 142
-2.1387 7.0859000000000005 -1.2978999999999998 220
-2.4141 7.9961 -1.2676 132
-7.9922 26.4688 0.9639 18
-2.7676 9.1641 -1.2266 3
