# .PCD v0.7 - Point Cloud Data file format
VERSION 0.7
FIELDS x y z intensity
SIZE 4 4 4 4
TYPE F F F F
COUNT 1 1 1 1
WIDTH 1433
HEIGHT 1
VIEWPOINT 0 0 0 1 0 0 0
POINTS 1433
DATA ascii
13.726600000000001 23.9062 3.5410000000000004 242
13.710899999999999 23.8906 4.1914 142
13.4531 23.4219 4.7539 210
3.8789 6.703099999999999 -1.3574000000000002 19
4.3867 7.582000000000001 -1.3291 79
15.7969 27.2969 1.0996 243
5.0273 8.6875 -1.2852000000000001 83
15.7969 27.2969 1.8319999999999999 237
5.8984000000000005 10.1953 -1.2334 227
7.1484000000000005 12.351600000000001 -1.1621 126
21.7656 37.625 4.5625 161
9.3359 16.125 -1.082 141
15.601600000000001 26.9531 4.0 97
13.781199999999998 23.8125 4.1875 23
13.6875 23.6562 4.8125 115
3.9062 6.699199999999999 -1.3603999999999998 18
4.4219 7.582000000000001 -1.3319999999999999 50
15.8828 27.2344 1.0996 104
5.0547 8.6719 -1.2861000000000002 171
15.898399999999999 27.2656 1.834 33
5.9297 10.1719 -1.2324 43
7.1914 12.335899999999999 -1.1621 193
14.4844 24.8438 3.0176 10
9.3906 16.1094 -1.082 131
15.6797 26.8906 3.998 70
13.875 23.7969 4.1953 253
13.601600000000001 23.3125 4.75 172
3.9297000000000004 6.6797 -1.3594 196
4.4453 7.5586 -1.3311000000000002 188
30.8438 52.4688 2.123 155
5.0859 8.6484 -1.2841999999999998 173
16.0156 27.25 1.8359 165
5.988300000000001 10.1875 -1.2373 35
7.234400000000001 12.2969 -1.1621 18
13.7969 23.4531 2.8555 81
9.4453 16.0625 -1.082 46
14.343800000000002 24.3906 3.6327999999999996 0
13.875 23.5938 4.168 13
13.6172 23.1562 4.7305 240
3.957 6.671900000000001 -1.3603999999999998 168
4.4883 7.5703 -1.335 56
31.0625 52.375 2.125 216
5.1289 8.6562 -1.2891 71
16.1406 27.2344 1.8388999999999998 92
6.019500000000001 10.1484 -1.2354 63
7.3125 12.335899999999999 -1.167 219
13.914100000000001 23.4688 2.8632999999999997 132
9.5156 16.0469 -1.083 100
14.281199999999998 24.0938 3.5976999999999997 70
13.968800000000002 23.5625 4.168 227
13.7344 23.1719 4.7422 212
3.9824 6.6640999999999995 -1.3613 235
4.5078 7.542999999999999 -1.334 18
5.167999999999999 8.6484 -1.29 23
16.2656 27.2344 1.8428 59
6.0625 10.1484 -1.2373 109
7.3515999999999995 12.3047 -1.167 245
13.9453 23.3438 2.8535000000000004 244
9.5938 16.0469 -1.0859 212
13.9375 23.3281 3.4901999999999997 143
14.039100000000001 23.4844 4.168 181
15.1172 25.2969 5.1914 47
4.0117 6.6602 -1.3633000000000002 250
4.5352 7.5273 -1.334 82
5.203099999999999 8.6406 -1.2919999999999998 247
16.4062 27.25 1.8477000000000001 154
6.105499999999999 10.1328 -1.2393 207
7.4023 12.289100000000001 -1.168 7
14.101600000000001 23.4062 2.8672000000000004 125
9.6641 16.0469 -1.0869 181
14.031199999999998 23.2969 3.4922000000000004 153
14.031199999999998 23.2969 4.1406 14
15.2422 25.3125 5.203099999999999 5
4.0391 6.6562 -1.3652000000000002 249
4.5742 7.5352 -1.3378999999999999 195
16.5625 27.2656 1.1123 187
5.2265999999999995 8.6094 -1.29 222
16.5469 27.25 1.8516 1
6.1523 10.1328 -1.2412 241
7.4609000000000005 12.289100000000001 -1.1709 157
14.164100000000001 23.3438 2.8651999999999997 162
9.7266 16.0156 -1.0879 16
14.2422 23.4688 3.5254000000000003 237
14.1797 23.3594 4.1602 21
14.210899999999999 23.4219 4.8242 245
4.0586 6.6328 -1.3643 209
4.6055 7.5273 -1.3388999999999998 73
16.6406 27.2031 1.1123 159
5.261699999999999 8.6016 -1.291 183
16.6719 27.25 1.8555000000000001 171
6.1953 10.125 -1.2431999999999999 35
7.5078 12.273399999999999 -1.1719 110
14.210899999999999 23.2344 2.8574 218
9.7734 15.968800000000002 -1.0869 119
14.2969 23.375 3.5195 170
14.2578 23.3125 4.1602 209
14.2578 23.3125 4.8086 88
4.082 6.6211 -1.3643 63
4.6211 7.4922 -1.3359 118
16.8438 27.3281 1.1191 121
5.296900000000001 8.5938 -1.2930000000000001 67
16.8281 27.2812 1.8622999999999998 115
6.230499999999999 10.1016 -1.2422 212
7.5547 12.25 -1.1719 113
9.8203 15.9297 -1.0859 149
14.2344 23.0781 3.4824 84
14.289100000000001 23.1719 4.1445 67
14.4219 23.3906 4.8398 3
4.1133 6.6211 -1.3672 209
4.6523 7.484400000000001 -1.3369 120
5.332000000000001 8.5859 -1.2938999999999998 213
6.2578 10.0703 -1.2412 160
7.6211 12.2656 -1.1758 148
9.875 15.8828 -1.0859 130
14.2656 22.9531 3.4707 249
14.039100000000001 22.5938 4.0508 35
14.5156 23.3594 4.8398 115
4.1406 6.613300000000001 -1.3681999999999999 191
4.6875 7.480499999999999 -1.3397999999999999 85
5.3711 8.5781 -1.2959 164
6.3086 10.0703 -1.2451 131
7.667999999999999 12.2422 -1.1768 21
15.273399999999999 24.3906 3.0195 210
9.9453 15.875 -1.0869 64
14.2969 22.8281 3.4589999999999996 163
14.351600000000001 22.9062 4.1172 69
13.9375 22.25 4.6211 97
4.1719 6.609400000000001 -1.3711000000000002 187
4.7148 7.4727 -1.3408000000000002 115
5.4023 8.5547 -1.2959 14
6.355499999999999 10.0703 -1.2470999999999999 147
7.7148 12.226600000000001 -1.1768 210
15.281199999999998 24.2031 3.0039 179
10.0078 15.851600000000001 -1.0879 242
14.3594 22.75 3.4551 70
13.906199999999998 22.0312 3.9668 160
13.9219 22.0625 4.5938 29
4.1914 6.5898 -1.3700999999999999 133
4.7422 7.4609000000000005 -1.3418 37
5.4297 8.5391 -1.2959 218
17.3438 27.2812 1.8779 26
6.394500000000001 10.0547 -1.248 242
7.7773 12.2344 -1.1806999999999999 249
15.273399999999999 24.0156 2.9863 190
10.0312 15.781199999999998 -1.0859 238
14.4531 22.7344 3.4589999999999996 72
13.960899999999999 21.9531 3.9608999999999996 186
13.8672 21.8125 4.5508 150
4.2148 6.578099999999999 -1.3700999999999999 81
4.7773 7.457000000000001 -1.3437999999999999 255
17.4375 27.2188 1.127 82
5.4648 8.5312 -1.2978999999999998 60
17.4219 27.2031 1.8769999999999998 1
6.4297 10.0391 -1.248 45
7.824199999999999 12.218800000000002 -1.1816 104
15.335899999999999 23.9531 2.9844 190
10.0938 15.7578 -1.0859 90
14.7422 23.0156 3.5098000000000003 30
14.031199999999998 21.9062 3.9608999999999996 129
14.0078 21.875 4.5703 183
4.2422 6.5664 -1.3711000000000002 101
4.7969 7.4297 -1.3428 188
32.8438 50.875 2.1133 8
5.511699999999999 8.5391 -1.3018 216
6.4648 10.0156 -1.248 224
7.894500000000001 12.226600000000001 -1.1845999999999999 151
15.4531 23.9375 2.9901999999999997 74
10.1719 15.7578 -1.0889 5
14.8594 23.0156 3.5195 61
14.1328 21.8906 3.9668 219
14.0781 21.7969 4.5703 169
4.2734 6.5664 -1.374 203
4.8242 7.417999999999999 -1.3428 206
33.0625 50.8125 2.1152 0
5.542999999999999 8.5234 -1.3018 191
33.5312 51.5312 3.5742000000000003 206
6.511699999999999 10.0078 -1.25 165
7.9297 12.1875 -1.1836 245
15.164100000000001 23.3125 2.918 195
10.2422 15.7422 -1.0898 241
17.0 26.125 4.0039 208
14.273399999999999 21.9375 3.9844 171
14.218800000000002 21.8438 4.5898 59
4.2969 6.5547 -1.374 30
4.8594 7.4140999999999995 -1.3447 38
33.2812 50.7812 2.1191 160
5.5664 8.4922 -1.3008000000000002 251
33.75 51.4688 3.5781 73
6.5547 10.0 -1.252 30
7.9688 12.156199999999998 -1.1836 184
15.164100000000001 23.1406 2.9023000000000003 35
10.281199999999998 15.6875 -1.0889 5
15.5547 23.7188 3.6426 165
14.7422 22.4844 4.0938 100
14.101600000000001 21.5156 4.5273 125
4.3203 6.5390999999999995 -1.374 157
4.8867 7.3984000000000005 -1.3457 8
33.5312 50.7812 2.123 131
5.6015999999999995 8.4844 -1.3018 172
6.6015999999999995 9.9922 -1.2539 85
8.0234 12.148399999999999 -1.1855 41
15.210899999999999 23.0156 2.8945 240
10.351600000000001 15.664100000000001 -1.0898 37
17.1094 25.8906 3.9863 210
14.789100000000001 22.3906 4.0859 161
14.125 21.375 4.5117 156
4.3398 6.519500000000001 -1.374 97
4.918 7.386699999999999 -1.3466999999999998 93
33.7188 50.6562 2.123 144
5.644500000000001 8.4844 -1.3047 32
6.644500000000001 9.9844 -1.2559 171
8.1016 12.1719 -1.1904000000000001 210
15.2656 22.9375 2.8906 216
10.406199999999998 15.6328 -1.0898 66
15.789100000000001 23.7188 3.6601999999999997 78
14.4219 21.6562 3.9608999999999996 101
14.281199999999998 21.4531 4.5391 239
4.3672 6.511699999999999 -1.375 225
4.9414 7.3672 -1.3457 137
18.2031 27.1562 1.1396 72
5.6797 8.4688 -1.3066 215
18.2188 27.1562 1.8994 86
6.667999999999999 9.9453 -1.2539 56
8.1406 12.1406 -1.1904000000000001 206
15.335899999999999 22.8594 2.8887 174
10.476600000000001 15.625 -1.0918 82
14.5547 21.7031 3.3555 174
14.468800000000002 21.5781 3.9551 229
14.5 21.6094 4.582 240
4.3984 6.5078 -1.3769999999999998 253
4.9766 7.3672 -1.3496000000000001 209
18.3438 27.1406 1.1426 170
5.7188 8.4609 -1.3075999999999999 200
18.3281 27.125 1.9022999999999999 116
6.7265999999999995 9.9531 -1.2578 195
8.1797 12.1094 -1.1904000000000001 79
15.4375 22.8438 2.8926 200
10.5469 15.601600000000001 -1.0928 180
14.601600000000001 21.6094 3.3495999999999997 103
14.5703 21.5625 3.9608999999999996 110
14.8047 21.9062 4.6562 116
4.4219 6.4961 -1.3779 132
5.0 7.3438 -1.3486000000000002 5
18.4844 27.1562 1.1455 205
5.7461 8.4375 -1.3075999999999999 193
18.4844 27.1406 1.9082 206
6.769500000000001 9.9375 -1.2598 119
8.2344 12.093800000000002 -1.1914 192
15.5625 22.8594 2.9023000000000003 65
10.6094 15.5781 -1.0937999999999999 224
14.726600000000001 21.625 3.3613 68
15.101600000000001 22.1875 4.0859 60
14.835899999999999 21.7812 4.6406 239
4.4414 6.4727 -1.3769999999999998 94
5.0312 7.3359000000000005 -1.3506 89
18.625 27.1562 1.1484 219
5.7773 8.4219 -1.3086000000000002 26
18.6094 27.1406 1.9121000000000001 150
6.824199999999999 9.9531 -1.2637 56
8.2891 12.085899999999999 -1.1934 233
15.75 22.9688 2.9219 50
10.710899999999999 15.6094 -1.0986 251
14.875 21.6875 3.377 214
15.085899999999999 22.0 4.0625 78
14.8672 21.6719 4.6289 132
4.457 6.449199999999999 -1.375 198
5.0703 7.3398 -1.3535 134
18.7969 27.1875 1.1523 3
5.8125 8.4062 -1.3096 185
18.7656 27.1406 1.9169999999999998 248
6.8515999999999995 9.9141 -1.2627 211
8.3516 12.085899999999999 -1.1963 105
15.8594 22.9375 2.9257999999999997 187
10.75 15.5469 -1.0967 206
17.4375 25.2188 3.9375 90
14.781199999999998 21.3906 3.9589999999999996 200
15.101600000000001 21.8438 4.6758 9
4.4883 6.449199999999999 -1.3779 229
5.0859 7.3086 -1.3516 180
22.5 32.3125 1.3730000000000002 154
5.8477 8.3984 -1.3115 47
18.9219 27.1875 1.9247999999999998 206
6.894500000000001 9.9062 -1.2646 70
8.3984 12.0625 -1.1963 124
15.898399999999999 22.8438 2.9199 48
10.8047 15.523399999999999 -1.0977 174
17.4688 25.0938 3.9276999999999997 252
14.875 21.3594 3.9629000000000003 81
15.148399999999999 21.7656 4.668 116
4.5117 6.4336 -1.3779 109
5.1172 7.296900000000001 -1.3525 8
22.5 32.0938 1.3672 110
5.8828 8.3906 -1.3135 27
19.0312 27.1406 1.9258000000000002 236
6.9297 9.8828 -1.2646 132
8.4531 12.0547 -1.1992 223
16.7188 23.8594 3.0586 200
10.8906 15.539100000000001 -1.1016 148
17.9219 25.5781 4.0117 178
14.898399999999999 21.25 3.9512 35
15.375 21.9375 4.7148 165
4.543 6.4336 -1.3818000000000001 166
5.144500000000001 7.2852 -1.3535 26
22.5469 31.9375 1.3633000000000002 161
5.9140999999999995 8.375 -1.3135 142
19.0781 27.0312 1.9219 73
6.984400000000001 9.8906 -1.2676 247
16.6406 23.5625 2.3516 137
8.5 12.039100000000001 -1.2002 250
10.9453 15.5 -1.1016 167
18.0469 25.5625 4.0195 59
15.398399999999999 21.7969 4.0625 157
15.4531 21.8906 4.7188 97
4.5586 6.4140999999999995 -1.3799000000000001 137
5.1836 7.2852 -1.3563999999999998 219
17.2656 24.2812 1.0391 197
5.9453 8.3594 -1.3144999999999998 31
17.2812 24.3125 1.7324000000000002 182
7.015599999999999 9.8672 -1.2676 8
16.7188 23.5156 2.3535 220
8.5547 12.031199999999998 -1.2021 186
18.25 25.6562 3.3047000000000004 194
11.0469 15.539100000000001 -1.1064 208
18.1562 25.5312 4.0234 246
15.4375 21.7031 4.0547 14
15.4297 21.6875 4.6875 181
4.5781 6.390599999999999 -1.3788999999999998 64
5.2188 7.2812 -1.3594 82
16.9844 23.7031 1.0166 163
5.980499999999999 8.3438 -1.3144999999999998 92
16.9062 23.5781 1.6855000000000002 156
7.0547 9.8438 -1.2686 172
17.6406 24.6094 2.4707 251
8.6094 12.0078 -1.2031 39
17.8438 24.8906 3.2129000000000003 162
11.0781 15.4531 -1.1035 52
16.9844 23.7031 3.7441000000000004 2
15.1953 21.2031 3.9707 238
15.4453 21.5469 4.668 101
4.6094 6.3828 -1.3809 67
17.2969 23.9531 0.3447 92
5.234400000000001 7.25 -1.3574000000000002 115
17.0781 23.6406 1.0166 80
6.015599999999999 8.3359 -1.3163999999999998 85
16.9844 23.5312 1.6855000000000002 107
7.0938 9.8281 -1.2695 215
17.7656 24.6094 2.4766 225
8.6484 11.976600000000001 -1.2031 51
17.9062 24.7969 3.2089999999999996 15
11.1406 15.4375 -1.1055 100
15.8594 21.9688 3.4785000000000004 27
15.1875 21.0312 3.9512 52
15.5547 21.5469 4.6797 158
4.6445 6.3828 -1.3847999999999998 65
17.3438 23.8594 0.344 201
5.265599999999999 7.238300000000001 -1.3584 216
17.2031 23.6406 1.0195 55
6.0586 8.3281 -1.3193000000000001 114
19.7656 27.1719 1.9521000000000002 11
7.140599999999999 9.8203 -1.2715 225
19.5469 26.875 2.7108999999999996 232
8.7031 11.968800000000002 -1.2051 140
18.0 24.7344 3.2108999999999996 204
15.9219 21.8906 3.4766000000000004 180
15.2578 20.9688 3.9492000000000003 97
15.8281 21.7656 4.7383 188
4.6758 6.3789 -1.3877000000000002 203
17.4844 23.875 0.3452 36
5.3047 7.2422 -1.3622999999999998 4
19.8594 27.0938 1.1719 229
6.0898 8.3125 -1.3203 108
19.8594 27.1094 1.9521000000000002 235
7.1953 9.8203 -1.2754 180
8.7578 11.9531 -1.207 5
18.1406 24.7656 3.2226999999999997 4
16.0312 21.875 3.4824 149
15.343800000000002 20.9531 3.9531 111
15.7422 21.4844 4.6875 231
4.6953 6.363300000000001 -1.3877000000000002 99
5.3398 7.234400000000001 -1.3643 60
20.0156 27.1406 1.1758 139
6.1289 8.3047 -1.3222999999999998 41
19.9844 27.0938 1.9561000000000002 101
7.2422 9.8125 -1.2773 41
19.9062 26.9844 2.7363 204
8.8047 11.9375 -1.208 108
16.1562 21.9062 3.4961 248
15.460899999999999 20.9531 3.9648000000000003 87
15.6094 21.1562 4.6289 247
4.7148 6.3477 -1.3866999999999998 210
5.363300000000001 7.2227 -1.3652000000000002 242
20.1562 27.125 1.1787 191
6.1523 8.2812 -1.3222999999999998 244
20.125 27.0781 1.9609 241
7.2852 9.8047 -1.2793 133
19.9688 26.875 2.7305 82
8.8672 11.9375 -1.2109 230
16.75 22.5312 2.9452999999999996 18
16.2344 21.8438 3.4961 124
15.851600000000001 21.3438 4.0469 129
15.6172 21.0156 4.6094 82
4.7461 6.3359000000000005 -1.3887 24
20.4062 27.2344 0.397 212
5.4023 7.2109000000000005 -1.3672 160
20.3906 27.2188 1.1855 183
6.1914 8.2656 -1.3232 142
20.3125 27.1094 1.9678 133
7.3203 9.7734 -1.2783 192
20.125 26.8594 2.7382999999999997 234
8.9375 11.9297 -1.2139 62
16.8438 22.4844 2.9492000000000003 213
10.6875 14.2656 -1.0342 6
15.8203 21.1094 3.3887 6
15.835899999999999 21.1406 4.0195 219
15.6875 20.9375 4.6055 203
4.7812 6.332000000000001 -1.3916 184
20.5781 27.25 0.39840000000000003 8
5.425800000000001 7.1875 -1.3662 44
20.5625 27.2344 1.1895 162
6.234400000000001 8.2578 -1.3262 224
20.4844 27.125 1.9746000000000001 201
7.3672 9.7578 -1.2803 5
8.9688 11.875 -1.2119 227
16.5312 21.9062 2.8789 157
10.773399999999999 14.273399999999999 -1.0381 130
15.8906 21.0469 3.3867000000000003 99
10.7578 14.25 -0.6215999999999999 254
15.906199999999998 21.0781 4.0195 235
15.7656 20.8906 4.6055 61
4.8047 6.324199999999999 -1.3936000000000002 218
20.6875 27.2344 0.39890000000000003 165
5.457000000000001 7.1836 -1.3691 149
20.6875 27.2188 1.1924 20
6.261699999999999 8.2422 -1.3262 121
20.6094 27.125 1.9794999999999998 17
7.4023 9.7422 -1.2812000000000001 232
20.4062 26.875 2.752 148
9.0156 11.875 -1.2139 83
16.5469 21.7812 2.8711 242
15.898399999999999 20.9375 3.375 174
10.843800000000002 14.281199999999998 -0.6245 233
15.9453 20.9844 4.0117 108
15.851600000000001 20.8594 4.6133 165
4.8242 6.3086 -1.3936000000000002 84
5.4922 7.1797 -1.3721 92
20.8281 27.2344 1.1953 127
6.300800000000001 8.2344 -1.3281 176
20.75 27.125 1.9844 98
7.453099999999999 9.7422 -1.2852000000000001 252
20.5625 26.8906 2.7617000000000003 84
9.0781 11.8672 -1.2168 242
16.5469 21.6406 2.8574 232
15.9844 20.9062 3.3789 51
10.976600000000001 14.351600000000001 -0.6289 231
15.968800000000002 20.875 4.0039 120
16.1406 21.0938 4.6758 120
4.8516 6.292999999999999 -1.3936000000000002 69
21.0625 27.3125 0.4023 38
5.5312 7.175800000000001 -1.375 39
21.0 27.2344 1.1992 82
6.3359000000000005 8.2188 -1.3291 252
20.8906 27.1094 1.9883000000000002 246
7.5 9.7266 -1.2861000000000002 49
20.7188 26.875 2.7695 88
9.1328 11.843800000000002 -1.2178 210
16.6406 21.5781 2.8594 128
11.726600000000001 15.210899999999999 -1.1143 210
16.0469 20.8125 3.375 43
16.0781 20.8438 4.0078 234
16.2031 21.0156 4.6719 217
4.8867 6.292999999999999 -1.3975 166
21.1562 27.25 0.4023 154
5.5547 7.1523 -1.374 151
21.1562 27.25 1.2031 131
6.3672 8.1953 -1.3300999999999998 169
21.0469 27.0938 1.9931999999999999 206
7.519500000000001 9.6875 -1.2841999999999998 178
20.8438 26.8438 2.7733999999999996 247
9.1953 11.835899999999999 -1.2207 219
16.7812 21.6094 2.8711 117
11.789100000000001 15.1797 -1.1152 81
16.1719 20.8281 3.3887 212
16.2656 20.9375 4.0352 112
16.2031 20.8594 4.6484 41
4.9219 6.292999999999999 -1.4013999999999998 172
21.3438 27.2812 0.4043 117
5.582000000000001 7.136699999999999 -1.375 88
21.2969 27.2188 1.2051 237
6.4062 8.1953 -1.3319999999999999 218
21.1875 27.0781 1.9980000000000002 246
7.578099999999999 9.6875 -1.2881 75
20.9531 26.7969 2.7754000000000003 75
9.2422 11.8203 -1.2217 53
17.2031 22.0 2.9297000000000004 200
11.8672 15.1719 -1.1181999999999999 54
16.7344 21.3906 3.4882999999999997 227
16.5 21.0938 4.0781 52
16.2656 20.7969 4.6484 164
4.9414 6.2734000000000005 -1.4003999999999999 28
21.5 27.2969 0.40549999999999997 58
5.609400000000001 7.1211 -1.376 62
21.4531 27.2344 1.209 102
6.4414 8.1797 -1.3330000000000002 215
21.3594 27.1094 2.0059 191
7.625 9.6797 -1.29 181
19.4531 24.7031 2.5645 249
9.2812 11.781199999999998 -1.2207 113
17.3281 22.0 2.9375 44
11.914100000000001 15.125 -1.1172 29
16.8281 21.375 3.4941000000000004 222
16.5156 20.9688 4.0664 71
16.3281 20.7188 4.6445 216
4.9648 6.2539 -1.4003999999999999 100
21.6406 27.2656 0.40619999999999995 50
5.6562 7.1289 -1.3809 254
21.5938 27.2188 1.2109 70
6.4727 8.1562 -1.334 253
21.4688 27.0469 2.0059 125
7.667999999999999 9.6641 -1.2919999999999998 17
19.5312 24.625 2.5645 145
9.3281 11.7578 -1.2217 225
17.4062 21.9375 2.9395 203
11.968800000000002 15.085899999999999 -1.1181999999999999 41
16.9062 21.2969 3.4922000000000004 2
16.625 20.9531 4.0703 18
16.375 20.6406 4.6367 37
4.9844 6.238300000000001 -1.4003999999999999 87
21.7812 27.25 0.4072 198
5.6797 7.109400000000001 -1.3809 193
21.7188 27.1875 1.2129 164
6.5234000000000005 8.1641 -1.3388999999999998 140
21.6094 27.0469 2.0117 29
7.7109000000000005 9.6484 -1.2930000000000001 159
19.625 24.5469 2.5625 167
9.3906 11.75 -1.2256 88
17.5312 21.9375 2.9473000000000003 251
12.031199999999998 15.0625 -1.1191 225
17.0 21.2656 3.4961 116
17.2031 21.5312 4.1953 116
21.6719 27.125 -0.4053 20
16.4531 20.5938 4.6406 181
5.0156 6.234400000000001 -1.4033000000000002 242
21.9062 27.2344 0.4077 225
5.703099999999999 7.0938 -1.3818000000000001 37
21.8906 27.2188 1.2178 182
6.5625 8.1562 -1.3418 230
21.75 27.0469 2.0176 105
7.7539 9.6406 -1.2959 101
9.4375 11.7344 -1.2266 28
17.6094 21.8906 2.9473000000000003 17
12.1406 15.093800000000002 -1.124 166
17.0781 21.2344 3.5 215
17.375 21.6094 4.2227 241
21.8438 27.1562 -0.4065 63
18.1875 22.6094 5.1094 182
5.043 6.2265999999999995 -1.4053 32
22.0781 27.2656 0.4094 134
5.7227 7.0664 -1.3799000000000001 241
22.0156 27.1875 1.2197 107
6.5938 8.1406 -1.3418 178
21.8906 27.0312 2.0215 170
7.792999999999999 9.625 -1.2969 218
9.4844 11.710899999999999 -1.2275 245
17.6875 21.8438 2.9492000000000003 119
12.218800000000002 15.093800000000002 -1.127 172
17.1406 21.1719 3.498 105
17.5 21.6094 4.2344 158
21.9688 27.125 -0.4072 249
18.3125 22.6094 5.125 84
5.0703 6.2148 -1.4072 154
5.761699999999999 7.0586 -1.3828 114
22.1562 27.1406 1.2217 0
6.6328 8.125 -1.3437999999999999 98
22.0625 27.0156 2.0273 33
7.8398 9.6094 -1.2988 189
9.5469 11.6953 -1.2295 41
17.7656 21.7656 2.9473000000000003 30
12.2578 15.0156 -1.125 237
17.3125 21.2188 3.5176 187
17.5625 21.5156 4.2305 75
22.1406 27.125 -0.40840000000000004 193
18.7031 22.9219 5.207000000000001 42
5.0938 6.1953 -1.4072 76
5.8047 7.0586 -1.3866999999999998 138
22.2188 27.0312 1.2207 126
6.6640999999999995 8.1016 -1.3437999999999999 76
22.2031 27.0 2.0312 64
7.890599999999999 9.6016 -1.3018 159
9.5938 11.6719 -1.2305 197
17.7969 21.6562 2.9414 85
12.289100000000001 14.9453 -1.123 156
17.3125 21.0469 3.5 200
17.5469 21.3438 4.207 178
22.2969 27.1094 -0.4097 200
18.8125 22.8906 5.2148 29
5.1133 6.175800000000001 -1.4062000000000001 254
5.8477 7.0664 -1.3916 175
22.4062 27.0625 1.2256 63
6.6953 8.0938 -1.3457 165
22.3594 27.0156 2.0371 42
7.9297 9.5781 -1.3027000000000002 181
9.6484 11.656199999999998 -1.2324 78
17.9062 21.6406 2.9473000000000003 243
12.3125 14.8828 -1.1211 52
17.5781 21.25 3.543 215
21.4531 25.9219 -1.1729 163
17.625 21.2969 4.2109 33
22.4375 27.1094 -0.4106 158
20.4062 24.6562 5.636699999999999 144
5.144500000000001 6.171900000000001 -1.4091999999999998 151
5.8672 7.042999999999999 -1.3916 185
22.5312 27.0469 1.2275 82
6.7422 8.0938 -1.3496000000000001 16
22.5 27.0156 2.043 96
7.9727 9.5703 -1.3047 74
22.3594 26.8438 2.8495999999999997 7
9.7031 11.6406 -1.2344 197
17.9844 21.5781 2.9473000000000003 86
12.3672 14.843800000000002 -1.1211 69
17.625 21.1562 3.5370999999999997 42
17.7188 21.2656 4.2148 101
22.5938 27.1094 -0.41159999999999997 92
20.5469 24.6562 5.6523 252
5.171900000000001 6.1640999999999995 -1.4111000000000002 179
5.8789 7.0039 -1.3877000000000002 195
22.6875 27.0312 1.2305 116
6.7812 8.0781 -1.3516 235
22.6719 27.0 2.0488 45
8.0234 9.5625 -1.3075999999999999 132
20.4531 24.375 2.5957 226
9.7344 11.593800000000002 -1.2334 15
18.7969 22.3906 3.0664 109
12.4219 14.7969 -1.1220999999999999 68
18.1562 21.6406 3.6289 163
18.2188 21.7188 4.3164 45
5.203099999999999 6.1562 -1.4141 130
5.925800000000001 7.0078 -1.3925999999999998 44
22.8906 27.0781 1.2363 255
6.8125 8.0625 -1.3525 34
22.8281 27.0 2.0547 211
8.0703 9.5469 -1.3086000000000002 148
20.4688 24.2188 2.5879000000000003 244
9.7891 11.5781 -1.2344 209
18.4531 21.8438 3.0 32
12.4531 14.7344 -1.1201 109
18.2812 21.6406 3.6387 255
18.3125 21.6562 4.3164 157
5.230499999999999 6.144500000000001 -1.415 26
5.957000000000001 7.0 -1.3955000000000002 80
23.0156 27.0469 1.2383 207
6.855499999999999 8.0547 -1.3555000000000001 242
22.9844 27.0 2.0605 80
8.1094 9.5312 -1.3105000000000002 245
18.9688 22.2812 2.3867 187
9.8438 11.5703 -1.2373 18
18.5312 21.7656 3.0 50
12.5078 14.7031 -1.1201 10
19.4531 22.8594 3.8574 157
18.375 21.5938 4.3164 111
5.2461 6.125 -1.415 82
5.9961 6.9961 -1.3984 145
22.9688 26.8125 1.2314 126
6.890599999999999 8.0391 -1.3563999999999998 16
23.125 26.9844 2.0645 192
8.1484 9.5078 -1.3115 0
19.0938 22.2812 2.3926 234
9.8906 11.539100000000001 -1.2373 167
19.8281 23.1562 3.1992000000000003 17
12.601600000000001 14.710899999999999 -1.125 254
19.625 22.9062 3.875 80
22.2188 25.9219 -1.1904000000000001 171
18.6094 21.7188 4.3555 244
5.2773 6.109400000000001 -1.416 203
6.015599999999999 6.9688 -1.3975 74
23.125 26.7812 1.2334 90
6.9453 8.0391 -1.3613 8
23.2969 26.9844 2.0723 175
8.1953 9.4922 -1.3135 102
19.1562 22.1875 2.3906 70
9.9453 11.523399999999999 -1.2393 41
19.9688 23.125 3.207 23
12.7344 14.75 -1.1309 198
20.1875 23.375 3.9688 41
22.3125 25.8438 -1.1904000000000001 149
18.8438 21.8125 4.3906 157
20.6719 23.9375 5.5664 18
5.3086 6.105499999999999 -1.4188999999999998 167
6.0390999999999995 6.9453 -1.3975 193
23.2812 26.7656 1.2373 158
6.980499999999999 8.0312 -1.3633000000000002 50
23.4531 26.9688 2.0762 24
8.25 9.4844 -1.3163999999999998 85
19.25 22.125 2.3926 217
9.9922 11.4922 -1.2402 8
19.375 22.2812 3.0976999999999997 157
12.7969 14.718800000000002 -1.1318000000000001 141
18.5938 21.3906 3.6406 64
22.4688 25.8438 -1.1943000000000001 187
18.8125 21.6406 4.3672 230
20.7344 23.8438 5.5664 132
5.3438 6.1015999999999995 -1.4228999999999998 6
6.074199999999999 6.9375 -1.3994 162
23.4375 26.75 1.2402 134
7.015599999999999 8.0078 -1.3643 227
23.625 26.9844 2.084 92
8.2891 9.4609 -1.3174000000000001 31
19.3438 22.0938 2.3945 175
10.0469 11.468800000000002 -1.2412 212
20.0938 22.9375 3.2012 192
12.8672 14.6875 -1.1338 180
18.6719 21.3125 3.6387 180
18.875 21.5625 4.3633 143
23.7188 27.0781 -0.4202 213
5.359400000000001 6.078099999999999 -1.4219 66
23.875 27.0625 0.4211 229
6.109400000000001 6.9297 -1.4022999999999999 161
23.7969 26.9844 1.2549 167
7.050800000000001 7.9922 -1.3652000000000002 13
23.7969 26.9688 2.0898 53
8.3516 9.4688 -1.3222999999999998 240
19.6562 22.2812 2.4238 98
10.0938 11.4453 -1.2431999999999999 42
20.1875 22.8906 3.2031 28
12.914100000000001 14.6406 -1.1328 165
18.7812 21.2812 3.6464999999999996 244
19.7031 22.3438 -1.0391 115
23.875 27.0781 -0.4214 116
5.390599999999999 6.0703 -1.4238 184
6.1484000000000005 6.925800000000001 -1.4053 94
23.9688 27.0 1.2588 133
7.0859000000000005 7.980499999999999 -1.3672 242
23.9531 26.9844 2.0957 78
8.375 9.4297 -1.3213 148
19.5469 22.0156 2.4004 26
10.1562 11.4375 -1.2461 163
19.4062 21.8594 3.0664 214
12.9375 14.5703 -1.1309 125
19.1406 21.5625 3.7031 255
19.7344 22.2344 -1.0361 21
24.0469 27.0781 -0.4226 218
5.417999999999999 6.0625 -1.4258000000000002 167
6.167999999999999 6.8984000000000005 -1.4043 201
24.125 27.0 1.2627 139
7.125 7.9688 -1.3691 27
24.1094 26.9688 2.1016 34
8.4141 9.4062 -1.3222999999999998 150
19.6094 21.9375 2.4004 35
10.2266 11.4375 -1.25 120
19.5156 21.8281 3.0723000000000003 162
13.0156 14.5625 -1.1338 235
19.7812 22.1406 -1.0352 247
24.3281 27.2188 -0.426 199
5.453099999999999 6.0586 -1.4297 57
24.4844 27.1875 0.42700000000000005 179
6.203099999999999 6.886699999999999 -1.4072 217
24.4062 27.1094 1.2725 72
7.167999999999999 7.957000000000001 -1.3721 179
24.2969 26.9844 2.1094 22
8.4766 9.4141 -1.3271000000000002 145
19.7188 21.8906 2.4023 94
10.281199999999998 11.414100000000001 -1.251 122
13.085899999999999 14.531199999999998 -1.1348 228
19.75 21.9375 -1.0283 6
24.5156 27.2344 -0.4275 51
5.480499999999999 6.042999999999999 -1.4306999999999999 191
24.6562 27.2031 0.4285 141
6.2227 6.863300000000001 -1.4062000000000001 17
24.625 27.1562 1.2783 131
7.207000000000001 7.949199999999999 -1.375 177
24.4531 26.9688 2.1152 123
8.5234 9.3984 -1.3291 138
19.7969 21.8281 2.4043 137
10.3203 11.3828 -1.252 204
13.156199999999998 14.5078 -1.1367 94
19.7969 21.8438 -1.0273 76
24.75 27.2969 -0.4302 236
5.5 6.0234000000000005 -1.4306999999999999 99
24.8906 27.2656 0.43090000000000006 88
6.261699999999999 6.855499999999999 -1.4091999999999998 19
24.8281 27.1875 1.2832 12
7.2461 7.9336 -1.3769999999999998 58
24.625 26.9688 2.123 141
8.5625 9.375 -1.3300999999999998 174
19.8438 21.7344 2.4004 55
10.3906 11.375 -1.2549 229
13.2031 14.460899999999999 -1.1367 85
19.7969 21.6875 -1.0234 178
24.8438 27.2188 -0.4299 9
5.5273 6.011699999999999 -1.4325999999999999 255
25.0 27.1875 0.43119999999999997 248
6.2890999999999995 6.8359000000000005 -1.4102000000000001 74
24.9844 27.1719 1.2871000000000001 240
7.292999999999999 7.9297 -1.3799000000000001 254
24.7812 26.9531 2.127 28
8.6016 9.3516 -1.3311000000000002 174
20.0 21.75 2.4102 185
10.460899999999999 11.375 -1.2588 138
13.2578 14.4219 -1.1367 160
19.7812 21.5 -1.0186 77
25.0312 27.2188 -0.4314 5
5.5586 6.0039 -1.4355000000000002 216
25.1094 27.1406 0.4314 247
6.3164 6.828099999999999 -1.4121000000000001 221
25.1094 27.1406 1.2891 169
7.332000000000001 7.925800000000001 -1.3838 101
24.9375 26.9375 2.1328 150
8.6328 9.3281 -1.3311000000000002 137
10.5469 11.3906 -1.2646 111
13.335899999999999 14.414100000000001 -1.1396 80
19.7344 21.3281 -1.0127 17
25.2031 27.2344 -0.43310000000000004 129
5.5898 6.0 -1.4385 200
6.3477 6.8125 -1.4131 88
25.2812 27.1406 1.2938999999999998 229
7.3672 7.9102 -1.3847999999999998 138
8.6797 9.3203 -1.334 32
10.5781 11.3594 -1.2637 234
13.398399999999999 14.3828 -1.1406 227
19.7344 21.1875 -1.0088 179
25.375 27.2344 -0.4343 58
5.6211 5.988300000000001 -1.4413999999999998 183
25.5312 27.2031 0.4353 177
6.390599999999999 6.8086 -1.4180000000000001 154
25.4531 27.125 1.2969 91
7.4140999999999995 7.8984000000000005 -1.3877000000000002 203
8.7344 9.3047 -1.3369 154
10.6172 11.3125 -1.2637 154
13.4531 14.3281 -1.1406 9
19.8125 21.1094 -1.0088 238
5.640599999999999 5.9648 -1.4404 80
25.7344 27.2188 0.43729999999999997 137
6.4336 6.8086 -1.4219 126
25.6406 27.125 1.3018 188
7.449199999999999 7.8789 -1.3896000000000002 68
25.4844 26.9531 2.1562 14
8.7891 9.2969 -1.3397999999999999 121
10.6797 11.2969 -1.2656 60
13.5078 14.289100000000001 -1.1416 172
19.9375 21.0938 -1.0117 202
5.6602 5.9453 -1.4404 31
25.875 27.1875 0.43799999999999994 72
6.4688 6.796900000000001 -1.4247999999999998 146
25.7969 27.1094 1.3056999999999999 61
7.4922 7.875 -1.3925999999999998 194
25.625 26.9219 2.1602 176
8.8203 9.2656 -1.3397999999999999 91
10.726600000000001 11.273399999999999 -1.2676 94
13.5625 14.25 -1.1416 6
5.6875 5.9375 -1.4424000000000001 220
26.0312 27.1719 0.43920000000000003 32
6.4922 6.7773 -1.4247999999999998 26
25.9688 27.1094 1.3096 155
7.5390999999999995 7.8672 -1.3965 2
25.8125 26.9375 2.168 179
8.8672 9.2578 -1.3428 25
10.7969 11.2656 -1.2705 239
13.625 14.226600000000001 -1.1436 65
5.7265999999999995 5.9297 -1.4463 197
6.5273 6.761699999999999 -1.4268 141
26.0938 27.0312 1.3105000000000002 67
7.574199999999999 7.8438 -1.3975 170
26.0 26.9219 2.1758 200
8.9141 9.2344 -1.3447 34
10.835899999999999 11.226600000000001 -1.2705 229
13.710899999999999 14.2031 -1.1465 205
20.3438 21.0781 -1.0215 69
5.7461 5.9102 -1.4463 195
26.2656 27.0156 0.4399 188
6.5664 6.7578 -1.4306999999999999 208
26.1719 26.9219 1.3096 202
7.613300000000001 7.828099999999999 -1.3994 45
26.1406 26.8906 2.1797 255
8.9688 9.2266 -1.3477000000000001 70
10.8906 11.2031 -1.2725 106
13.7656 14.164100000000001 -1.1465 94
20.5312 21.1094 -1.0264 3
5.769500000000001 5.894500000000001 -1.4463 237
6.5977 6.7422 -1.4316 44
26.3438 26.9219 1.3135 140
7.636699999999999 7.800800000000001 -1.3984 231
26.3438 26.9219 2.1895 190
9.0234 9.2188 -1.3516 30
10.9531 11.1953 -1.2754 141
13.8281 14.1328 -1.1475 2
20.6406 21.0938 -1.0293 58
5.7890999999999995 5.8789 -1.4472999999999998 136
26.5938 26.9844 0.4421 83
6.6289 6.730499999999999 -1.4336000000000002 135
26.5312 26.9375 1.3184 109
7.6875 7.800800000000001 -1.4033000000000002 174
26.5156 26.9062 2.1953 174
9.0469 9.1875 -1.3506 28
10.9922 11.164100000000001 -1.2764 208
13.875 14.085899999999999 -1.1475 130
20.8125 21.125 -1.0332 207
5.824199999999999 5.8672 -1.4502000000000002 209
26.875 27.0781 0.44530000000000003 197
6.667999999999999 6.7148 -1.4365 156
26.7188 26.9219 1.3232 229
7.738300000000001 7.792999999999999 -1.4072 181
26.7188 26.9219 2.2051 73
9.1016 9.1641 -1.3525 207
11.0781 11.164100000000001 -1.2812000000000001 216
13.9531 14.0547 -1.1494 124
20.8906 21.0469 -1.0332 171
21.1094 21.2656 -0.3494 27
5.859400000000001 5.859400000000001 -1.4541 181
27.0469 27.0625 0.4465 52
6.699199999999999 6.699199999999999 -1.4385 74
26.8906 26.9062 1.3262 235
7.7852 7.7890999999999995 -1.4111000000000002 26
26.875 26.8906 2.209 46
9.1562 9.1562 -1.3563999999999998 27
11.101600000000001 11.1094 -1.2793 168
14.031199999999998 14.039100000000001 -1.1523 230
57.7188 57.75 10.5 12
21.1875 21.1875 -0.3494 223
5.894500000000001 5.855499999999999 -1.4569999999999999 234
6.7265999999999995 6.6836 -1.4394999999999998 209
26.8125 26.6406 1.3184 166
7.8047 7.7539 -1.4102000000000001 236
27.0781 26.9062 2.2188 246
9.1953 9.1406 -1.3584 80
11.1719 11.093800000000002 -1.2822 133
14.125 14.031199999999998 -1.1562000000000001 68
21.2812 21.1406 -0.34990000000000004 255
5.9102 5.832000000000001 -1.4569999999999999 119
27.4688 27.0938 0.45039999999999997 233
6.7734000000000005 6.6797 -1.4443000000000001 156
26.9219 26.5625 1.3184 31
7.8515999999999995 7.7461 -1.4131 1
27.2656 26.9062 2.2266 119
9.2422 9.1172 -1.3603999999999998 61
11.226600000000001 11.0781 -1.2841999999999998 109
14.1875 14.0 -1.1572 167
21.2969 21.0 -0.3489 46
5.9414 5.824199999999999 -1.46 178
27.625 27.0625 0.4514 210
6.800800000000001 6.6640999999999995 -1.4453 17
27.125 26.5781 1.3241999999999998 226
7.8984000000000005 7.738300000000001 -1.4169999999999998 70
27.4375 26.8906 2.2324 164
9.2891 9.1016 -1.3622999999999998 115
11.2578 11.031199999999998 -1.2832 122
14.25 13.960899999999999 -1.1582 171
5.9609000000000005 5.8047 -1.46 219
27.75 27.0156 0.45189999999999997 171
6.8398 6.6602 -1.4491999999999998 145
27.3125 26.5781 1.3291 179
7.9375 7.7265999999999995 -1.4188999999999998 232
27.6094 26.875 2.2383 239
9.3281 9.0781 -1.3633000000000002 180
11.3047 11.0078 -1.2852000000000001 77
14.3047 13.9297 -1.1592 146
6.0039 5.800800000000001 -1.4647999999999999 140
6.8711 6.640599999999999 -1.4512 214
27.4688 26.5469 1.3319999999999999 148
7.9727 7.707000000000001 -1.4209 18
27.8125 26.875 2.248 105
9.375 9.0625 -1.3662 213
11.3672 10.9844 -1.2871000000000001 244
14.3906 13.906199999999998 -1.1621 189
6.0625 5.8203 -1.4746000000000001 109
6.917999999999999 6.636699999999999 -1.4550999999999998 76
28.0 26.875 1.3535 122
8.0078 7.6836 -1.4219 124
28.0 26.875 2.2559 76
9.4297 9.0547 -1.3691 159
11.4297 10.968800000000002 -1.29 120
14.460899999999999 13.8828 -1.1641 46
6.9609000000000005 6.6328 -1.46 84
8.0469 7.671900000000001 -1.4247999999999998 183
28.2031 26.875 2.2637 172
9.4844 9.0312 -1.3721 196
11.468800000000002 10.9297 -1.291 206
14.539100000000001 13.8594 -1.166 136
28.5781 27.0469 0.4592 171
7.0273 6.6484000000000005 -1.4687999999999999 142
30.4219 28.7812 1.4609 9
8.0938 7.6640999999999995 -1.4287 39
28.375 26.8594 2.2715 57
9.5078 9.0 -1.3721 220
11.5547 10.9375 -1.2959 198
14.585899999999999 13.8047 -1.166 102
30.375 28.5469 0.4866 138
7.050800000000001 6.625 -1.4687999999999999 98
28.7656 27.0312 1.3769999999999998 116
8.1406 7.6484000000000005 -1.4306999999999999 55
28.5938 26.8594 2.2793 245
9.5625 8.9844 -1.374 55
11.585899999999999 10.8828 -1.2949000000000002 72
14.6797 13.7969 -1.1699 244
22.5469 21.1875 -1.0791 134
30.3594 28.3281 0.48460000000000003 43
28.9688 27.0312 1.3818000000000001 41
8.1797 7.6328 -1.4336000000000002 110
28.75 26.8281 2.2852 137
9.5938 8.9531 -1.375 12
11.656199999999998 10.875 -1.2978999999999998 40
14.75 13.7656 -1.1709 86
0.5996 0.5557 -0.1367 209
30.4219 28.2031 0.4841 165
29.125 27.0 1.3857 28
8.2109 7.609400000000001 -1.4346 146
28.9688 26.8438 2.2949 241
9.6406 8.9375 -1.3769999999999998 5
27.7344 25.7188 3.0858999999999996 160
11.6953 10.835899999999999 -1.2988 107
14.8125 13.726600000000001 -1.1719 100
22.9688 21.2812 -0.3652 45
0.584 0.5376 -0.1326 184
30.375 27.9688 0.4819 241
29.3281 27.0 1.3906 60
8.25 7.5938 -1.4365 114
29.1562 26.8438 2.3027 197
9.7031 8.9297 -1.3809 201
27.8906 25.6875 3.0938 188
11.7344 10.8047 -1.2988 158
14.843800000000002 13.664100000000001 -1.1709 191
58.3125 53.7188 10.1953 251
22.9844 21.1719 -1.0898 144
23.2188 21.375 -0.3682 211
0.5801 0.5303 -0.13119999999999998 244
30.375 27.7656 0.4805 240
29.5312 26.9844 1.3955000000000002 95
8.2969 7.582000000000001 -1.4404 87
29.3594 26.8281 2.3105 17
9.75 8.9141 -1.3838 163
27.7344 25.3438 3.0664 219
11.7969 10.781199999999998 -1.3018 146
14.9297 13.648399999999999 -1.1738 216
58.6562 53.625 10.2188 40
23.1562 21.1562 -1.0937999999999999 152
0.5938 0.5386 -0.13390000000000002 102
30.4219 27.6094 0.47950000000000004 194
29.7344 26.9844 1.4003999999999999 231
8.3438 7.5703 -1.4434 232
27.7031 25.1406 2.1738 106
9.7734 8.8672 -1.3828 41
11.843800000000002 10.75 -1.3027000000000002 215
15.023399999999999 13.6406 -1.1777 96
23.3281 21.1719 -1.0986 110
30.25 27.4531 -0.4768 147
0.5981000000000001 0.5396 -0.1346 172
0.6679999999999999 0.6025 -0.1307 57
30.2969 27.3125 1.4228999999999998 137
8.375 7.550800000000001 -1.4443000000000001 35
27.8594 25.125 2.1797 180
9.8125 8.8516 -1.3847999999999998 240
27.9844 25.2344 3.0742000000000003 101
11.8906 10.726600000000001 -1.3047 176
15.1094 13.625 -1.1816 48
0.5854 0.5244 -0.13119999999999998 201
0.6698999999999999 0.6001 -0.1307 169
30.125 26.9844 1.4102000000000001 73
8.4141 7.5352 -1.4472999999999998 180
27.5625 24.6875 2.1504 200
9.875 8.8438 -1.3887 120
28.1406 25.2031 3.082 88
11.9297 10.6797 -1.3037 254
15.148399999999999 13.5625 -1.1806999999999999 29
30.0938 26.9531 -0.4714 63
0.5815 0.5171 -0.1298 41
0.6724 0.5977 -0.1307 166
30.2031 26.8438 1.4091999999999998 66
8.4375 7.5 -1.4463 86
27.6875 24.625 2.1523 68
9.9141 8.8203 -1.3906 130
28.2344 25.1094 3.082 222
12.0078 10.6797 -1.3086000000000002 98
28.6562 25.4688 4.0234 3
15.25 13.5547 -1.1845999999999999 98
30.3125 26.9531 -0.47340000000000004 31
0.5893999999999999 0.52 -0.13119999999999998 18
0.6743000000000001 0.5952000000000001 -0.1307 30
30.4062 26.8438 1.4141 29
8.4844 7.4922 -1.4512 124
27.75 24.5 2.1504 38
9.9531 8.7812 -1.3906 239
28.0469 24.75 3.0526999999999997 94
12.0703 10.656199999999998 -1.3115 184
15.2969 13.5078 -1.1845999999999999 200
0.585 0.5127 -0.1298 2
28.9375 25.375 1.3428 165
8.5469 7.4922 -1.4561000000000002 88
27.7031 24.2812 2.1406 89
9.9844 8.75 -1.3906 168
28.1875 24.7188 3.0586 224
12.101600000000001 10.6094 -1.3105000000000002 230
15.3594 13.460899999999999 -1.1855 178
0.6138 0.5342 -0.136 17
29.4375 25.625 1.3613 245
8.5781 7.4688 -1.4569999999999999 226
28.5781 24.875 2.2031 233
10.0234 8.7188 -1.3916 88
28.7031 25.0 3.1055 11
12.125 10.5547 -1.3096 209
15.4219 13.4297 -1.1875 246
31.6094 27.5156 -0.4893 250
0.5977 0.5166 -0.1318 92
31.7031 27.4062 0.4893 147
29.4531 25.4531 1.3574000000000002 26
8.6172 7.449199999999999 -1.46 47
28.0156 24.2188 2.1523 59
10.0859 8.7188 -1.3965 237
28.8125 24.9062 3.1074 113
12.164100000000001 10.5156 -1.3096 163
15.5 13.398399999999999 -1.1895 76
0.5845 0.5015 -0.1284 202
31.7812 27.2812 0.4888 159
31.2656 26.8438 1.4375 80
8.6562 7.425800000000001 -1.4619 215
27.7812 23.8438 2.127 229
10.1406 8.7031 -1.4003999999999999 69
27.25 23.3906 2.9297000000000004 66
12.218800000000002 10.4922 -1.3115 143
15.5625 13.351600000000001 -1.1904000000000001 135
0.5771000000000001 0.4919 -0.1263 232
31.5 26.8438 1.4434 124
8.6953 7.4102 -1.4638999999999998 164
27.7812 23.6875 2.1211 59
10.1797 8.6797 -1.4013999999999998 232
28.875 24.625 3.0957 177
12.2656 10.4531 -1.3125 215
15.6328 13.3281 -1.1924 208
0.5845 0.4951 -0.1277 154
31.7656 26.9062 0.4858 16
0.6865000000000001 0.5815 -0.1307 7
28.8438 24.4219 1.3184 205
8.7266 7.394500000000001 -1.4658000000000002 31
28.1094 23.8125 2.1406 209
10.2109 8.6484 -1.4022999999999999 50
29.0156 24.5781 3.1016000000000004 201
12.3125 10.4219 -1.3135 217
15.718800000000002 13.3047 -1.1953 22
0.5835 0.4905 -0.127 17
29.0781 24.4375 1.3241999999999998 198
8.7656 7.3672 -1.4678 223
28.3438 23.8281 2.1523 38
10.273399999999999 8.6328 -1.4062000000000001 172
29.0625 24.4219 3.0976999999999997 220
12.351600000000001 10.3828 -1.3144999999999998 40
15.7656 13.25 -1.1953 233
26.375 22.1562 -1.2012 161
0.6123 0.5112 -0.1333 120
29.125 24.2969 1.3232 209
8.8047 7.3477 -1.4697 112
27.8125 23.2031 2.1035 181
10.3203 8.6094 -1.4082 214
12.4297 10.3672 -1.3184 45
28.7344 23.9844 3.9297000000000004 102
15.835899999999999 13.210899999999999 -1.1973 99
0.623 0.5166 -0.1354 77
0.6929000000000001 0.5742 -0.1307 78
29.1875 24.1875 1.3222999999999998 71
8.8438 7.328099999999999 -1.4716999999999998 177
27.7656 23.0156 2.0957 222
10.3906 8.6094 -1.4141 116
12.5 10.3594 -1.3222999999999998 5
28.7188 23.7969 3.9160000000000004 205
15.9219 13.1953 -1.2002 63
25.625 21.2344 -0.3882 16
0.5977 0.4919 -0.129 228
0.6943 0.5718 -0.1307 30
29.0781 23.9375 1.3135 108
8.8828 7.3164 -1.4746000000000001 59
27.8438 22.9219 2.0957 71
10.4297 8.5859 -1.415 201
29.6875 24.4375 3.1367000000000003 211
12.5703 10.351600000000001 -1.3262 123
29.1719 24.0156 3.9668 1
15.9922 13.164100000000001 -1.2021 237
25.6406 21.1094 -0.3875 208
0.6177 0.5049 -0.1333 162
29.2188 23.875 0.44020000000000004 141
30.8594 25.2188 1.3896000000000002 175
8.9453 7.3086 -1.4805000000000001 139
28.0625 22.9219 2.1055 230
10.460899999999999 8.5469 -1.415 25
28.4688 23.2656 3.0 128
12.648399999999999 10.335899999999999 -1.3300999999999998 58
28.8438 23.5625 3.9101999999999997 132
16.0781 13.1328 -1.2051 237
25.6875 20.9844 -0.387 111
0.6103999999999999 0.4951 -0.13119999999999998 7
8.9922 7.292999999999999 -1.4834 47
28.1719 22.8594 2.1074 133
10.5078 8.5234 -1.4169999999999998 136
28.4844 23.1094 2.9922000000000004 211
12.6875 10.289100000000001 -1.3300999999999998 15
29.1875 23.6719 3.9452999999999996 242
16.1406 13.101600000000001 -1.207 208
25.7812 20.9062 -0.3872 24
0.6333 0.5103 -0.136 93
0.7006999999999999 0.5645 -0.1307 188
9.0625 7.300800000000001 -1.4912 119
28.5 22.9531 2.127 206
10.5469 8.5 -1.4188999999999998 137
28.4062 22.875 2.9745999999999997 247
12.7344 10.2578 -1.3319999999999999 201
29.9844 24.1406 4.043 192
16.2188 13.0625 -1.209 242
25.8906 20.8594 -0.38789999999999997 18
0.6045 0.48340000000000005 -0.129 11
0.7026 0.562 -0.1307 64
9.1016 7.2773 -1.4931999999999999 196
28.7031 22.9531 2.1348 119
10.6172 8.4922 -1.4238 42
29.25 23.3906 3.0547000000000004 95
12.781199999999998 10.2188 -1.3330000000000002 2
30.0312 24.0156 4.0352 152
16.3281 13.0547 -1.2139 21
26.0781 20.8438 -0.38939999999999997 184
0.6093999999999999 0.4839 -0.1298 67
29.625 23.5312 0.4414 17
0.7045999999999999 0.5596 -0.1307 117
9.1562 7.2734000000000005 -1.499 206
28.6719 22.7656 2.127 135
10.6406 8.4531 -1.4238 194
29.2656 23.2344 3.0488 200
12.835899999999999 10.1953 -1.335 164
16.3906 13.0156 -1.2148 19
26.2188 20.8281 -0.3906 7
0.6015999999999999 0.4744 -0.1277 232
0.7065 0.5571 -0.1307 130
29.8438 23.5312 1.3252000000000002 101
9.2188 7.269500000000001 -1.5049000000000001 150
28.8438 22.7344 2.1348 225
10.7031 8.4375 -1.4277000000000002 94
29.375 23.1562 3.0507999999999997 141
12.8906 10.1641 -1.3369 39
16.4688 12.9844 -1.2178 109
26.4219 20.8281 -0.3926 58
0.6157 0.4819 -0.1305 104
0.7084999999999999 0.5547 -0.1307 96
29.75 23.2969 1.3174000000000001 113
9.2656 7.2539 -1.5088 200
28.6719 22.4531 2.1152 15
10.7422 8.4062 -1.4287 129
29.4375 23.0469 3.0507999999999997 127
12.9531 10.1406 -1.3397999999999999 108
29.6406 23.2188 3.9531 249
16.5312 12.9453 -1.2187999999999999 132
26.5938 20.8125 -0.39399999999999996 24
0.6108 0.47509999999999997 -0.129 163
0.6323 0.4915 -0.11560000000000001 198
30.0156 23.3438 1.3262 226
9.3125 7.2422 -1.5116999999999998 33
28.9688 22.5312 2.1328 211
10.8047 8.3984 -1.4336000000000002 162
29.2812 22.7656 3.0254000000000003 103
12.976600000000001 10.0938 -1.3388999999999998 77
16.6406 12.9453 -1.2236 18
26.75 20.8125 -0.39549999999999996 143
0.6313 0.48729999999999996 -0.1333 219
0.7123999999999999 0.5498 -0.1307 62
31.25 24.125 1.3769999999999998 3
9.3438 7.2109000000000005 -1.5127000000000002 137
29.3125 22.625 2.1523 205
10.843800000000002 8.375 -1.4355000000000002 224
29.5156 22.7812 3.0410000000000004 14
13.0547 10.0781 -1.3437999999999999 19
29.7031 22.9219 3.9395 247
16.7188 12.906199999999998 -1.2266 39
26.9375 20.7969 -0.3972 151
0.605 0.4636 -0.127 167
0.7139 0.5474 -0.1307 243
31.25 23.9375 1.3730000000000002 130
9.3828 7.1914 -1.5156 21
29.1875 22.3594 2.1367 182
10.914100000000001 8.3594 -1.4404 89
29.5781 22.6562 3.0391000000000004 151
13.125 10.0547 -1.3466999999999998 80
29.6562 22.7188 3.9219 59
16.7969 12.875 -1.2295 178
27.125 20.7812 -0.3987 107
0.6411 0.4878 -0.1346 157
0.6626000000000001 0.5039 -0.1204 43
31.2969 23.8125 1.3711000000000002 17
9.4453 7.1875 -1.5215 76
28.3438 21.5625 2.0684 233
10.9375 8.3203 -1.4394999999999998 183
29.8125 22.6875 3.0566000000000004 242
13.1875 10.0312 -1.3496000000000001 67
29.5312 22.4688 3.8945 83
16.8594 12.8281 -1.2305 179
27.2812 20.75 -0.39990000000000003 32
0.6396000000000001 0.4832 -0.13390000000000002 215
0.6577 0.4968 -0.1192 145
35.3438 26.6875 1.5449000000000002 227
9.4844 7.1602 -1.5234 228
29.5312 22.2969 2.1504 100
10.9922 8.3047 -1.4434 200
30.0781 22.7031 3.0742000000000003 135
13.2422 10.0 -1.3516 216
29.7969 22.5 3.9199 251
16.9375 12.789100000000001 -1.2314 112
27.5 20.7656 -0.4021 199
0.6318 0.47409999999999997 -0.1318 59
0.6816 0.5112 -0.1234 232
9.5234 7.1484000000000005 -1.5263999999999998 128
29.4844 22.125 2.1426 133
11.039100000000001 8.2812 -1.4463 160
29.9844 22.5 3.0586 127
13.289100000000001 9.9688 -1.3535 117
29.6875 22.2812 3.8964999999999996 45
17.0469 12.789100000000001 -1.2373 15
27.6562 20.75 -0.4036 75
0.6079 0.4531 -0.1263 137
0.6768000000000001 0.5044 -0.1223 33
35.8125 26.6875 1.5586000000000002 237
9.4375 7.0312 -1.5088 188
30.1562 22.4688 2.1855 175
11.093800000000002 8.2656 -1.4491999999999998 13
29.5938 22.0469 3.0098000000000003 43
13.3594 9.9531 -1.3574000000000002 218
29.7969 22.2031 3.9023000000000003 193
17.125 12.7578 -1.2402 15
27.875 20.7656 -0.4058 178
0.6225999999999999 0.46 -0.129 34
0.6567000000000001 0.4854 -0.11800000000000001 131
36.0938 26.6719 1.5654 110
9.4531 6.984400000000001 -1.5068000000000001 212
30.3125 22.3906 2.1895 80
11.1406 8.2266 -1.4512 61
29.8594 22.0625 3.0293 185
13.4219 9.9141 -1.3594 33
30.0 22.1719 3.9160000000000004 20
17.1875 12.7031 -1.2412 110
28.0625 20.7344 -0.4072 136
0.6338 0.4646 -0.13119999999999998 72
0.6679999999999999 0.48969999999999997 -0.1198 52
36.3438 26.6562 1.5722999999999998 217
9.4766 6.949199999999999 -1.5068000000000001 248
30.5469 22.3906 2.2012 104
11.1953 8.2109 -1.4541 212
29.2031 21.4062 2.9551 247
13.4922 9.8906 -1.3633000000000002 18
29.9375 21.9531 3.8964999999999996 119
17.2969 12.6875 -1.2451 2
28.25 20.7188 -0.4089 17
0.6416 0.4675 -0.1326 134
0.6729 0.4902 -0.1204 155
36.5938 26.6719 1.5791 173
9.5156 6.9336 -1.5088 175
30.2969 22.0781 2.1797 207
11.2344 8.1875 -1.4561000000000002 112
29.2656 21.3281 2.9551 88
13.531199999999998 9.8594 -1.3643 22
29.9531 21.8281 3.8906 71
17.375 12.656199999999998 -1.248 62
31.875 23.2188 -1.375 147
28.4844 20.75 -0.4111 108
0.6367 0.4607 -0.13119999999999998 72
0.6489 0.46950000000000003 -0.11560000000000001 1
36.8438 26.6562 1.5859 126
9.5234 6.890599999999999 -1.5068000000000001 229
31.0 22.4375 2.2246 28
11.281199999999998 8.1641 -1.459 62
29.375 21.25 2.9589999999999996 194
13.5781 9.8281 -1.3662 68
30.3438 21.9688 3.9336 85
17.4531 12.6328 -1.251 28
28.6719 20.75 -0.4131 35
0.6128 0.4399 -0.12560000000000002 213
0.6631 0.4763 -0.11800000000000001 19
37.0938 26.6406 1.5937999999999999 145
9.5625 6.863300000000001 -1.5088 72
31.25 22.4375 2.2363 157
11.335899999999999 8.1406 -1.4619 74
29.4219 21.125 2.9551 187
13.648399999999999 9.7969 -1.3691 27
30.4688 21.875 3.9375 238
17.5469 12.601600000000001 -1.2549 243
28.8438 20.7188 -0.4143 206
0.624 0.4448 -0.1277 58
0.6679999999999999 0.4763 -0.1186 31
37.3438 26.625 1.6006 135
9.5625 6.8164 -1.5049000000000001 0
31.4844 22.4375 2.248 135
11.375 8.1094 -1.4638999999999998 15
29.4531 20.9844 2.9512 42
13.6875 9.7578 -1.3700999999999999 124
30.5312 21.7656 3.9355 240
17.625 12.5625 -1.2559 86
29.0781 20.7344 -0.4167 24
0.6157 0.43579999999999997 -0.12560000000000002 121
0.7343999999999999 0.5195000000000001 -0.1307 94
37.625 26.6094 1.6074000000000002 67
9.5859 6.7812 -1.5049000000000001 4
31.6406 22.3906 2.252 162
11.4219 8.0781 -1.4658000000000002 222
30.75 21.75 3.0723000000000003 195
13.7578 9.7344 -1.3730000000000002 101
30.6406 21.6875 3.9414 157
17.75 12.5625 -1.2627 235
29.3125 20.7344 -0.4189 144
0.6108 0.429 -0.1242 229
8.3438 5.863300000000001 -1.5488 18
37.875 26.5938 1.6143 43
9.6172 6.7539 -1.5059 108
31.7969 22.3281 2.2578 104
11.460899999999999 8.0547 -1.4678 209
31.1094 21.8438 3.1016000000000004 199
13.7969 9.6953 -1.374 14
17.7969 12.5 -1.2627 67
29.5312 20.7344 -0.4211 47
0.606 0.4224 -0.1229 132
8.3125 5.792999999999999 -1.5391 225
9.625 6.707000000000001 -1.5038999999999998 181
43.3125 30.1875 3.0702999999999996 26
11.5 8.0156 -1.4687999999999999 6
13.8828 9.6719 -1.3788999999999998 98
17.9375 12.5 -1.2695 75
29.7812 20.75 -0.4236 251
0.6528 0.4514 -0.1326 179
8.3203 5.7539 -1.5352000000000001 139
38.5 26.625 1.6328 188
9.6406 6.667999999999999 -1.5019999999999998 243
43.3125 29.9531 3.0605 190
11.5625 8.0 -1.4736000000000002 167
31.3125 21.6562 3.1074 120
13.960899999999999 9.6562 -1.3828 199
18.0156 12.460899999999999 -1.2725 187
30.0156 20.7656 -0.42579999999999996 145
0.6479 0.4448 -0.13119999999999998 72
8.3203 5.7148 -1.5332 89
38.7188 26.5781 1.6377000000000002 108
9.6797 6.6484000000000005 -1.5049000000000001 154
43.3125 29.7344 3.0526999999999997 27
11.6094 7.9688 -1.4756 8
14.0078 9.6172 -1.3847999999999998 18
18.125 12.4375 -1.2764 130
