# .PCD v0.7 - Point Cloud Data file format
VERSION 0.7
FIELDS x y z intensity
SIZE 4 4 4 4
TYPE F F F F
COUNT 1 1 1 1
WIDTH 1257
HEIGHT 1
VIEWPOINT 0 0 0 1 0 0 0
POINTS 1257
DATA ascii
-13.601600000000001 -2.6562 1.1289 222
-6.292999999999999 -1.2285 -0.52 128
-13.468800000000002 -2.6289 1.4375 18
-12.2656 -2.3965 1.6025 138
-13.476600000000001 -2.6308999999999996 -0.4775 77
-12.101600000000001 -2.3633 1.8730000000000002 108
-13.4453 -2.627 -0.1593 189
-11.773399999999999 -2.2988 2.1074 39
-6.1289 -1.1748 -1.0928 18
-13.375 -2.5625 0.1583 33
-6.171900000000001 -1.1826 -0.9517 95
-13.5703 -2.6016000000000004 0.4807 182
-6.171900000000001 -1.1826 -0.8027 68
-13.585899999999999 -2.6035000000000004 0.8022 81
-6.2890999999999995 -1.2061 -0.6685 204
-13.593800000000002 -2.6055 1.127 192
-6.3125 -1.21 -0.5215 14
-13.460899999999999 -2.5801 1.4365 197
-12.2422 -2.3457 1.5977000000000001 14
-13.468800000000002 -2.582 -0.4771 74
-11.9219 -2.2852 1.8447 70
-13.4531 -2.5781 -0.1593 191
-11.7578 -2.2539 2.1035 70
-6.1328 -1.1533 -1.0928 78
-13.3672 -2.5137 0.1582 251
-6.1562 -1.1582 -0.9487000000000001 175
-13.5781 -2.5527 0.4805 153
-6.1875 -1.1631 -0.8042 103
-13.601600000000001 -2.5566 0.8027 234
-6.3125 -1.1875 -0.6704000000000001 145
-13.5781 -2.5527 1.125 233
-6.296900000000001 -1.1845999999999999 -0.52 88
-13.476600000000001 -2.5352 1.4375 192
-12.226600000000001 -2.2988 1.5947 243
-13.4531 -2.5293 -0.47609999999999997 117
-11.8594 -2.2305 1.8330000000000002 7
-13.4531 -2.5293 -0.1592 227
-11.7656 -2.2129 2.1035 197
-6.140599999999999 -1.1328 -1.0937999999999999 138
-13.3828 -2.4668 0.1582 187
-6.144500000000001 -1.1328 -0.9462999999999999 212
-13.5625 -2.5 0.4797 129
-6.1797 -1.1396 -0.8027 81
-13.593800000000002 -2.5078 0.8018000000000001 58
-6.3477 -1.1709 -0.6738 181
-13.5781 -2.5039 1.124 241
-6.3047 -1.1631 -0.52 95
-13.4844 -2.4863 1.4365 190
-12.25 -2.2578 1.5966999999999998 165
-13.4531 -2.4805 -0.4758 119
-11.851600000000001 -2.1855 1.8319999999999999 86
-13.4531 -2.4805 -0.1591 58
-11.773399999999999 -2.1719 2.1035 164
-6.1484000000000005 -1.1123 -1.0947 112
-13.398399999999999 -2.4219 0.1583 150
-6.1523 -1.1123 -0.9468000000000001 249
-13.5469 -2.4512 0.479 137
-6.171900000000001 -1.1162 -0.8012999999999999 201
-13.601600000000001 -2.459 0.8012999999999999 147
-6.3515999999999995 -1.1484 -0.6738 202
-13.593800000000002 -2.459 1.125 132
-6.300800000000001 -1.1396 -0.5195000000000001 75
-13.468800000000002 -2.4355 1.4346 36
-12.25 -2.2148 1.5957 123
-13.468800000000002 -2.4355 -0.47609999999999997 150
-11.851600000000001 -2.1426 1.8300999999999998 146
-13.4375 -2.4297 -0.1588 181
-11.781199999999998 -2.1309 2.1035 154
-13.406199999999998 -2.375 0.1583 240
-6.1640999999999995 -1.0928 -0.9481999999999999 59
-13.5625 -2.4043 0.4792 246
-6.171900000000001 -1.0937999999999999 -0.8008 77
-13.5781 -2.4062 0.7998000000000001 206
-6.3984000000000005 -1.1338 -0.6781999999999999 242
-13.601600000000001 -2.4102 1.124 158
-6.3125 -1.1191 -0.52 244
-13.4844 -2.3887 1.4346 126
-7.2227 -1.2793 -0.4241 106
-12.2578 -2.1719 1.5957 12
-13.468800000000002 -2.3867 -0.4758 244
-12.023399999999999 -2.1309 1.8555000000000001 108
-13.4297 -2.3809 -0.1586 74
-11.773399999999999 -2.0859 2.0996 254
-6.4609000000000005 -1.1220999999999999 -1.1484 164
-13.406199999999998 -2.3281 0.1582 128
-6.1523 -1.0684 -0.9458 18
-13.5625 -2.3555 0.479 209
-6.175800000000001 -1.0723 -0.8008 183
-13.5781 -2.3574 0.7993000000000001 169
-6.359400000000001 -1.1045 -0.6738 82
-13.585899999999999 -2.3574 1.1220999999999999 76
-6.3203 -1.0977 -0.5205 234
-13.4844 -2.3418 1.4336000000000002 153
-12.2578 -2.127 1.5947 71
-13.468800000000002 -2.3379 -0.4756 185
-12.125 -2.1055 1.8700999999999999 248
-13.4297 -2.332 -0.15839999999999999 94
-11.7656 -2.043 2.0977 80
-6.4922 -1.1035 -1.1533 106
-13.414100000000001 -2.2793 0.1582 111
-6.144500000000001 -1.0449 -0.9438 100
-13.5625 -2.3066 0.4788 125
-6.1836 -1.0518 -0.8012999999999999 146
-13.5625 -2.3066 0.7979 244
-6.3125 -1.0732 -0.6685 134
-13.5703 -2.3066 1.1211 103
-6.328099999999999 -1.0762 -0.5205 195
-13.5 -2.2949 1.4346 135
-7.425800000000001 -1.2627 -0.4355 115
-12.25 -2.084 1.5937999999999999 149
-13.460899999999999 -2.2891 -0.47490000000000004 234
-12.125 -2.0605 1.8691 248
-13.4375 -2.2852 -0.15839999999999999 226
-11.7578 -1.999 2.0957 3
-6.5352 -1.0879 -1.1602 115
-13.4531 -2.2402 0.1586 93
-6.140599999999999 -1.0215 -0.9423999999999999 91
-13.5625 -2.2578 0.4783 51
-6.171900000000001 -1.0273 -0.7993000000000001 191
-13.585899999999999 -2.2617 0.7988 129
-6.2852 -1.0459 -0.665 226
-13.5625 -2.2578 1.1191 120
-13.523399999999999 -2.25 1.4365 20
-7.636699999999999 -1.2705 -0.44780000000000003 179
-12.25 -2.0391 1.5918 130
-13.4453 -2.2383 -0.47409999999999997 9
-12.1094 -2.0156 1.8652000000000002 65
-13.4375 -2.2363 -0.15839999999999999 177
-11.7656 -1.959 2.0957 175
-6.5234000000000005 -1.0645 -1.1582 3
-13.4453 -2.1953 0.15839999999999999 123
-6.1484000000000005 -1.0029000000000001 -0.9434 23
-13.539100000000001 -2.2109 0.47729999999999995 40
-6.171900000000001 -1.0078 -0.7988 177
-13.5547 -2.2129 0.7964 52
-6.269500000000001 -1.0234 -0.6631 143
-13.5703 -2.2148 1.1191 142
-13.5156 -2.2051 1.4346 123
-7.7265999999999995 -1.2617 -0.45289999999999997 237
-12.2656 -2.002 1.5937999999999999 158
-13.4531 -2.1953 -0.47409999999999997 242
-12.101600000000001 -1.9756 1.8633000000000002 178
-13.4219 -2.1914 -0.1582 248
-11.781199999999998 -1.9228999999999998 2.0977 135
-6.2109000000000005 -0.9926999999999999 -1.1016 45
-13.4453 -2.1484 0.1583 210
-6.1484000000000005 -0.9829000000000001 -0.9434 49
-13.539100000000001 -2.1641 0.4771 179
-6.171900000000001 -0.9863 -0.7983 134
-13.531199999999998 -2.1641 0.7948999999999999 122
-6.261699999999999 -1.001 -0.6620999999999999 210
-13.523399999999999 -2.1621 1.1152 151
-13.4531 -2.1504 1.4268 108
-7.730499999999999 -1.2354 -0.45289999999999997 28
-12.2656 -1.96 1.5918 160
-13.460899999999999 -2.1504 -0.47409999999999997 230
-12.1094 -1.9355000000000002 1.8633000000000002 148
-13.4219 -2.1445 -0.15810000000000002 152
-11.7656 -1.8809 2.0938 161
-6.1484000000000005 -0.9584999999999999 -1.0898 105
-13.4375 -2.0938 0.15810000000000002 2
-6.1602 -0.9604 -0.9443 78
-13.4922 -2.1035 0.47509999999999997 214
-6.171900000000001 -0.9619 -0.7979 56
-13.460899999999999 -2.0977 0.79 212
-6.269500000000001 -0.9771 -0.6620999999999999 199
-13.4531 -2.0977 1.1084 105
-6.7461 -1.0518 -0.5542 174
-13.4531 -2.0977 1.4258000000000002 219
-7.734400000000001 -1.2061 -0.45289999999999997 123
-12.2656 -1.9121000000000001 1.5908000000000002 192
-13.460899999999999 -2.0977 -0.4739 117
-12.1172 -1.8887 1.8633000000000002 7
-13.4297 -2.0938 -0.15810000000000002 77
-11.75 -1.8319999999999999 2.0898 69
-6.136699999999999 -0.9346 -1.0869 40
-13.4297 -2.0449 0.158 250
-6.144500000000001 -0.9359999999999999 -0.9414 121
-13.4453 -2.0469 0.4731 139
-6.1797 -0.9409000000000001 -0.7983 190
-13.4375 -2.0469 0.7881 237
-6.261699999999999 -0.9536 -0.6611 205
-13.4375 -2.0469 1.1064 81
-13.4531 -2.0488 1.4258000000000002 96
-13.414100000000001 -2.043 -0.7870999999999999 188
-12.2656 -1.8672 1.5897999999999999 91
-13.4453 -2.0469 -0.4731 237
-12.1328 -1.8477000000000001 1.8643 107
-13.4375 -2.0469 -0.158 114
-11.7422 -1.7891 2.0879 129
-6.109400000000001 -0.9081999999999999 -1.0811 159
-13.460899999999999 -2.002 0.1582 174
-6.136699999999999 -0.9126000000000001 -0.9395 192
-13.4375 -1.9980000000000002 0.47240000000000004 137
-6.1914 -0.9209 -0.7993000000000001 197
-13.4453 -2.0 0.7881 164
-6.269500000000001 -0.9320999999999999 -0.6616 246
-13.4297 -1.9971 1.1055 24
-13.468800000000002 -2.0039 1.4268 56
-13.4453 -2.0 -0.7881 142
-12.273399999999999 -1.8262 1.5908000000000002 34
-13.4531 -2.002 -0.4731 52
-12.1094 -1.8018 1.8613 79
-13.4375 -1.999 -0.158 176
-11.7578 -1.749 2.0898 127
-6.109400000000001 -0.8872 -1.0811 48
-13.4375 -1.9512 0.1578 122
-6.144500000000001 -0.8920999999999999 -0.9404 202
-13.4375 -1.9502000000000002 0.4722 30
-6.1797 -0.897 -0.7974 90
-13.4531 -1.9531 0.7881 218
-6.2734000000000005 -0.9111 -0.6620999999999999 17
-13.4453 -1.9512 1.1055 254
-13.4375 -1.9512 1.4228999999999998 40
-13.5 -1.959 -0.7909999999999999 250
-12.281199999999998 -1.7822 1.5908000000000002 211
-13.4453 -1.9521000000000002 -0.4727 51
-12.101600000000001 -1.7568000000000001 1.8584 14
-13.4297 -1.9502000000000002 -0.1578 58
-11.7656 -1.709 2.0898 92
-6.105499999999999 -0.8656999999999999 -1.0801 35
-13.4531 -1.9082 0.15810000000000002 66
-6.1562 -0.873 -0.9419 249
-13.4297 -1.9043 0.4719 238
-6.171900000000001 -0.875 -0.7964 14
-13.4375 -1.9053 0.7866 86
-6.2773 -0.8901 -0.6620999999999999 247
-13.4453 -1.9072 1.1055 37
-6.9297 -0.9829000000000001 -0.5684 110
-13.4531 -1.9072 1.4238 44
-13.4531 -1.9082 -0.7881 57
-12.289100000000001 -1.7422 1.5908000000000002 40
-12.1094 -1.7168 1.8584 105
-13.4297 -1.9043 -0.1577 150
-11.7656 -1.6680000000000001 2.0879 136
-6.105499999999999 -0.8447 -1.0791 236
-13.4375 -1.8594 0.1577 141
-6.175800000000001 -0.8545 -0.9438 217
-13.4375 -1.8603999999999998 0.4719 195
-6.175800000000001 -0.855 -0.7964 216
-13.4219 -1.8584 0.7856000000000001 28
-6.265599999999999 -0.8672 -0.6602 211
-13.4531 -1.8622999999999998 1.1055 41
-6.9023 -0.9551000000000001 -0.5654 39
-13.4297 -1.8594 1.4209 242
-13.414100000000001 -1.8563999999999998 -0.7852 197
-12.2656 -1.6982 1.5878999999999999 165
-12.1094 -1.6758000000000002 1.8574000000000002 28
-13.4297 -1.8594 -0.1577 130
-11.75 -1.626 2.084 133
-6.1328 -0.8247 -1.083 81
-13.4219 -1.8056999999999999 0.1575 186
-6.203099999999999 -0.8340000000000001 -0.9478 131
-13.4375 -1.8075999999999999 0.4717 130
-6.1875 -0.8320000000000001 -0.7974 204
-13.4375 -1.8075999999999999 0.7861 42
-6.265599999999999 -0.8428 -0.6597 192
-13.4375 -1.8075999999999999 1.1035 171
-6.9648 -0.937 -0.5703 16
-12.523399999999999 -1.6846 1.3241999999999998 30
-13.4219 -1.8047 -0.7852 5
-12.2656 -1.6494 1.5869 160
-13.4375 -1.8075999999999999 -0.4717 121
-12.1328 -1.6309 1.8594 136
-13.4219 -1.8047 -0.1575 148
-11.75 -1.5800999999999998 2.082 251
-6.1523 -0.8057 -1.0869 10
-13.4219 -1.7578 0.1575 132
-6.1914 -0.8109999999999999 -0.9458 156
-13.4297 -1.7588 0.47119999999999995 229
-6.199199999999999 -0.8115000000000001 -0.7983 124
-12.5156 -1.6387 0.7314 4
-6.269500000000001 -0.8208 -0.6602 127
-12.4922 -1.6357 1.0254 17
-7.203099999999999 -0.9429000000000001 -0.5898 54
-12.523399999999999 -1.6396000000000002 1.3232 75
-13.4219 -1.7578 -0.7852 203
-12.2578 -1.6055000000000001 1.585 181
-13.4453 -1.7607 -0.4719 116
-12.125 -1.5869 1.8574000000000002 225
-13.4453 -1.7597999999999998 -0.1576 64
-11.75 -1.5391 2.082 155
-6.1914 -0.79 -1.0928 148
-12.5078 -1.5957 0.1466 110
-6.1523 -0.7847 -0.9395 248
-12.4844 -1.5928 0.43770000000000003 27
-6.1836 -0.7890999999999999 -0.7964 1
-12.5156 -1.5966999999999998 0.7314 41
-6.265599999999999 -0.7993000000000001 -0.6592 235
-12.5 -1.5947 1.0254 26
-7.3086 -0.9320999999999999 -0.5981000000000001 13
-12.476600000000001 -1.5908000000000002 1.3174000000000001 251
-13.4297 -1.7138999999999998 -0.7852 66
-12.281199999999998 -1.5663999999999998 1.5869 14
-12.4922 -1.5937999999999999 -0.43799999999999994 129
-12.0781 -1.541 1.8506 65
-12.4844 -1.5928 -0.1464 237
-11.7578 -1.5 2.082 149
-6.175800000000001 -0.7670999999999999 -1.0898 221
-12.5156 -1.5547 0.1466 25
-6.1602 -0.7651 -0.9399 119
-12.5 -1.5527000000000002 0.43799999999999994 206
-6.1836 -0.7681 -0.7959 246
-12.4453 -1.5459 0.7271 209
-6.2812 -0.7803 -0.6606000000000001 120
-12.4453 -1.5449000000000002 1.0205 104
-7.3125 -0.9081999999999999 -0.5981000000000001 112
-12.351600000000001 -1.5341999999999998 1.3037 238
-12.5 -1.5527000000000002 -0.73 10
-12.2656 -1.5234 1.585 8
-12.523399999999999 -1.5556999999999999 -0.439 140
-11.8828 -1.4756 1.8193000000000001 42
-12.4844 -1.5508000000000002 -0.1462 202
-11.7578 -1.4609 2.082 91
-6.1602 -0.7437 -1.0869 134
-12.460899999999999 -1.5038999999999998 0.1459 248
-6.1640999999999995 -0.7441 -0.9404 18
-12.351600000000001 -1.4902000000000002 0.4326 198
-6.1914 -0.7471 -0.7964 126
-12.3281 -1.4872999999999998 0.7197 129
-6.2812 -0.7578 -0.6606000000000001 251
-12.3594 -1.4912 1.0127 65
-12.343800000000002 -1.4893 1.3018 194
-12.4922 -1.5068000000000001 -0.7295 197
-12.2656 -1.4794999999999998 1.5830000000000002 23
-11.8828 -1.4346 1.8193000000000001 33
-11.7422 -1.4169999999999998 2.0781 27
-6.1875 -0.7261 -1.0918 228
-12.398399999999999 -1.4541 0.1451 61
-6.1484000000000005 -0.7212000000000001 -0.938 132
-12.3203 -1.4453 0.4314 45
-6.199199999999999 -0.7271 -0.7974 161
-12.2969 -1.4424000000000001 0.7178 87
-6.269500000000001 -0.7354 -0.6592 75
-12.335899999999999 -1.4463 1.0107 19
-12.3281 -1.4463 1.3008000000000002 192
-12.335899999999999 -1.4463 -0.7197 208
-12.2578 -1.4375 1.5819999999999999 81
-12.335899999999999 -1.4463 -0.43189999999999995 23
-11.8828 -1.3936000000000002 1.8184 219
-12.289100000000001 -1.4424000000000001 -0.1438 218
-11.7422 -1.3779 2.0781 127
-6.2188 -0.7065 -1.0967 97
-12.351600000000001 -1.4022999999999999 0.1444 237
-6.1484000000000005 -0.6981999999999999 -0.937 23
-12.2969 -1.3965 0.4302 23
-6.199199999999999 -0.7041 -0.7968999999999999 189
-12.289100000000001 -1.3955000000000002 0.7168000000000001 107
-6.2890999999999995 -0.7143999999999999 -0.6606000000000001 42
-12.289100000000001 -1.3965 1.0068000000000001 245
-12.3125 -1.3984 1.2978999999999998 204
-12.3281 -1.4003999999999999 -0.7192000000000001 140
-12.25 -1.3916 1.5811000000000002 148
-12.2969 -1.3965 -0.4304 86
-11.9922 -1.3613 1.8330000000000002 64
-12.289100000000001 -1.3955000000000002 -0.1437 109
-11.75 -1.335 2.0781 31
-6.2188 -0.6846 -1.0957 102
-12.3047 -1.3544999999999998 0.1439 224
-6.144500000000001 -0.6762999999999999 -0.9359999999999999 149
-12.281199999999998 -1.3516 0.42969999999999997 235
-6.1914 -0.6816 -0.7959 133
-12.2969 -1.3535 0.7173 33
-6.3086 -0.6938 -0.6620999999999999 165
-12.3281 -1.3563999999999998 1.0098 74
-7.324199999999999 -0.8057 -0.5981000000000001 71
-12.3125 -1.3544999999999998 1.2969 201
-12.3047 -1.3535 -0.7173 38
-12.2578 -1.3486000000000002 1.5811000000000002 234
-12.2969 -1.3525 -0.4302 131
-12.1094 -1.3319999999999999 1.8506 59
-12.2578 -1.3496000000000001 -0.1433 190
-11.7656 -1.2949000000000002 2.0801 106
-6.234400000000001 -0.6640999999999999 -1.0977 113
-12.3281 -1.3135 0.14400000000000002 222
-6.1562 -0.6557999999999999 -0.938 232
-12.281199999999998 -1.3086000000000002 0.4294 79
-6.1953 -0.6597 -0.7959 35
-12.3125 -1.3115 0.7178 207
-6.300800000000001 -0.6709 -0.6611 131
-12.3594 -1.3163999999999998 1.0117 92
-7.1172 -0.7578 -0.5811 18
-12.351600000000001 -1.3154 1.3008000000000002 216
-12.273399999999999 -1.3075999999999999 -0.7158 149
-12.2578 -1.3056999999999999 1.5811000000000002 91
-12.289100000000001 -1.3096 -0.4299 130
-12.1094 -1.29 1.8496000000000001 118
-12.281199999999998 -1.3075999999999999 -0.1434 141
-11.7422 -1.251 2.0742 174
-6.2265999999999995 -0.6416 -1.0967 53
-12.335899999999999 -1.2705 0.1442 223
-6.1562 -0.6343 -0.9375 7
-12.3125 -1.2676 0.4304 65
-6.1953 -0.6382 -0.7959 200
-12.343800000000002 -1.2715 0.7192000000000001 215
-6.3203 -0.6509 -0.6631 17
-12.3906 -1.2764 1.0137 184
-7.1640999999999995 -0.7378 -0.5845 224
-12.414100000000001 -1.2783 1.3066 165
-12.289100000000001 -1.2656 -0.7162999999999999 82
-12.2578 -1.2627 1.5800999999999998 88
-12.3125 -1.2686 -0.4304 175
-12.1094 -1.2470999999999999 1.8506 151
-12.2656 -1.2637 -0.1433 249
-11.7344 -1.208 2.0723 72
-6.261699999999999 -0.623 -1.1025 183
-12.375 -1.2305 0.1445 120
-6.1484000000000005 -0.6118 -0.9359999999999999 47
-12.351600000000001 -1.2285 0.4316 7
-6.207000000000001 -0.6177 -0.7968999999999999 69
-12.3828 -1.2314 0.7217 175
-6.324199999999999 -0.6289 -0.6636 241
-12.4844 -1.2412 1.0205 112
-7.2227 -0.7188 -0.5893999999999999 179
-12.5 -1.2431999999999999 1.3154 18
-12.2969 -1.2236 -0.7162999999999999 226
-12.4531 -1.2383 1.6035 19
-12.3281 -1.2256 -0.4307 158
-12.1172 -1.2051 1.8496000000000001 129
-12.3203 -1.2256 -0.1439 186
-11.7422 -1.168 2.0742 142
-6.269500000000001 -0.6015999999999999 -1.1025 48
-12.4531 -1.1953 0.1454 12
-6.1484000000000005 -0.5898 -0.9355 147
-12.468800000000002 -1.1963 0.4355 57
-6.2148 -0.5962 -0.7974 174
-12.5078 -1.2002 0.728 219
-6.3359000000000005 -0.6079 -0.6646 124
-12.4844 -1.1982 1.0205 199
-7.265599999999999 -0.6973 -0.5928 197
-12.4922 -1.1982 1.3144999999999998 5
-12.351600000000001 -1.1845999999999999 -0.7192000000000001 134
-12.3281 -1.1826 1.5878999999999999 29
-12.375 -1.1875 -0.4324 107
-12.1094 -1.1611 1.8477000000000001 119
-12.3906 -1.1885 -0.1447 35
-11.7422 -1.127 2.0723 28
-6.261699999999999 -0.5786 -1.1016 59
-12.5 -1.1553 0.1459 163
-6.1523 -0.5684 -0.9355 137
-12.476600000000001 -1.1533 0.43579999999999997 115
-6.2148 -0.5742 -0.7974 136
-12.5 -1.1553 0.7275 135
-6.359400000000001 -0.5874 -0.6665000000000001 69
-12.4922 -1.1543 1.0215 255
-7.296900000000001 -0.6743000000000001 -0.5947 39
-12.4922 -1.1543 1.3135 38
-12.4531 -1.1504 -0.7245999999999999 195
-12.4844 -1.1533 1.6063999999999998 218
-12.4922 -1.1543 -0.4363 164
-12.1797 -1.125 1.8584 87
-12.476600000000001 -1.1533 -0.1456 102
-11.75 -1.0859 2.0742 10
-6.265599999999999 -0.5566 -1.1016 74
-12.5078 -1.1113 0.1459 68
-6.1602 -0.5474 -0.9359999999999999 22
-12.4844 -1.1094 0.43579999999999997 35
-6.2109000000000005 -0.5522 -0.7964 165
-12.4922 -1.1104 0.7271 173
-6.375 -0.5664 -0.6679999999999999 20
-12.4922 -1.1104 1.0205 4
-7.363300000000001 -0.6543000000000001 -0.6001 231
-12.4922 -1.1104 1.3135 85
-12.476600000000001 -1.1094 -0.7261 134
-12.4844 -1.1104 1.6063999999999998 88
-12.5156 -1.1123 -0.43700000000000006 42
-12.343800000000002 -1.0967 1.8828 144
-12.4922 -1.1104 -0.1458 117
-11.7344 -1.043 2.0703 237
-6.2812 -0.5361 -1.1045 237
-12.5 -1.0674 0.1458 6
-6.175800000000001 -0.5273 -0.9384999999999999 122
-12.4922 -1.0664 0.436 1
-6.2188 -0.5312 -0.7974 5
-12.4844 -1.0664 0.7265999999999999 174
-6.390599999999999 -0.5454 -0.6694 114
-12.5 -1.0674 1.0205 61
-7.390599999999999 -0.6313 -0.6025 196
-12.4844 -1.0664 1.3125 206
-12.468800000000002 -1.0645 -0.7256 208
-12.476600000000001 -1.0654000000000001 1.6055000000000001 147
-12.5078 -1.0674 -0.4365 198
-12.335899999999999 -1.0537 1.8818000000000001 141
-12.4922 -1.0664 -0.1458 98
-11.718800000000002 -1.0 2.0664 44
-12.4922 -1.0225 0.1456 145
-6.175800000000001 -0.5059 -0.9384999999999999 33
-12.4922 -1.0225 0.43579999999999997 78
-6.234400000000001 -0.5103 -0.7988 178
-12.4531 -1.0195 0.7245999999999999 63
-6.4140999999999995 -0.5254 -0.6718999999999999 223
-12.4453 -1.0195 1.0166 201
-12.5 -1.0234 -1.0205 217
-12.460899999999999 -1.0195 1.3096 185
-12.476600000000001 -1.0215 -0.7256 244
-12.414100000000001 -1.0166 1.5966999999999998 219
-12.5078 -1.0234 -0.4363 158
-12.343800000000002 -1.0107 1.8818000000000001 0
-12.4844 -1.0215 -0.1456 37
-11.7422 -0.9609000000000001 2.0703 104
-6.1484000000000005 -0.4807 -1.0801 32
-12.4531 -0.9736 0.1451 133
-6.167999999999999 -0.4824 -0.937 80
-12.4453 -0.9727 0.4341 32
-12.468800000000002 -0.9751000000000001 0.7251000000000001 71
-6.4297 -0.5029 -0.6733 193
-12.460899999999999 -0.9745999999999999 1.0176 95
-12.468800000000002 -0.9745999999999999 -1.0176 197
-12.4922 -0.9765999999999999 1.3125 162
-12.4453 -0.9727 -0.7236 28
-12.460899999999999 -0.9741 1.6025 46
-12.4375 -0.9722 -0.4338 203
-12.343800000000002 -0.9648 1.8818000000000001 123
-12.4453 -0.9731000000000001 -0.1451 194
-11.726600000000001 -0.9165000000000001 2.0664 49
-6.1523 -0.4592 -1.0801 8
-12.4844 -0.9320999999999999 0.14550000000000002 19
-6.1797 -0.46140000000000003 -0.9384999999999999 14
-12.4844 -0.9320999999999999 0.4353 10
-12.4922 -0.9331 0.7265999999999999 107
-6.453099999999999 -0.4819 -0.6758 199
-12.4844 -0.9320999999999999 1.0195 67
-12.4375 -0.9287000000000001 -1.0156 23
-12.4844 -0.9320999999999999 1.3115 88
-12.460899999999999 -0.9307 -0.7245999999999999 48
-12.4844 -0.9320999999999999 1.6044999999999998 175
-12.4844 -0.9320999999999999 -0.4353 127
-12.3281 -0.9209 1.8788999999999998 68
-12.4922 -0.9326000000000001 -0.1456 4
-11.7422 -0.8765000000000001 2.0684 34
-6.140599999999999 -0.4368 -1.0781 177
-12.5078 -0.8901 0.1458 96
-6.1875 -0.4404 -0.9395 14
-12.4844 -0.8887 0.4353 191
-6.238300000000001 -0.44380000000000003 -0.7988 56
-12.4922 -0.8887 0.7261 115
-6.480499999999999 -0.4612 -0.6781999999999999 151
-12.5 -0.8896 1.0205 58
-12.476600000000001 -0.8876999999999999 -1.0186 22
-12.4844 -0.8881999999999999 1.3105000000000002 228
-12.476600000000001 -0.8876999999999999 -0.7251000000000001 238
-12.4844 -0.8881999999999999 1.6044999999999998 211
-12.5 -0.8892 -0.43579999999999997 180
-12.335899999999999 -0.8774 1.8788999999999998 187
-12.476600000000001 -0.8876999999999999 -0.1454 102
-11.726600000000001 -0.8340000000000001 2.0645 222
-6.144500000000001 -0.4155 -1.0781 69
-12.4922 -0.8452 0.14550000000000002 94
-6.203099999999999 -0.4194 -0.9414 157
-12.5 -0.8452 0.4355 50
-6.25 -0.4226 -0.8003 141
-12.476600000000001 -0.8442000000000001 0.7251000000000001 164
-6.5078 -0.44020000000000004 -0.6807 221
-12.5 -0.8456999999999999 1.0195 84
-12.4844 -0.8447 -1.0186 197
-12.4844 -0.8442000000000001 1.3105000000000002 94
-12.468800000000002 -0.8438 -0.7245999999999999 15
-12.476600000000001 -0.8442000000000001 1.6035 254
-12.5 -0.8456999999999999 -0.43579999999999997 209
-12.4297 -0.8412999999999999 1.8936000000000002 120
-12.4922 -0.8447 -0.14550000000000002 43
-11.7344 -0.7939 2.0664 97
-6.1484000000000005 -0.39649999999999996 -1.0791 182
-12.4844 -0.8051999999999999 0.1454 38
-6.199199999999999 -0.39990000000000003 -0.9409000000000001 92
-12.5 -0.8062 0.4355 253
-6.2539 -0.4033 -0.8008 105
-12.4922 -0.8057 0.7256 142
-6.5352 -0.4216 -0.6836 6
-12.4922 -0.8051999999999999 1.0186 21
-12.4844 -0.8051999999999999 -1.0186 164
-12.4844 -0.8051999999999999 1.3105000000000002 152
-12.476600000000001 -0.8047 -0.7251000000000001 40
-12.460899999999999 -0.8037000000000001 1.6006 183
-12.4922 -0.8051999999999999 -0.4353 242
-12.4531 -0.8027 1.8955000000000002 210
-12.4922 -0.8057 -0.14550000000000002 110
-12.25 -0.79 2.1562 77
-6.1640999999999995 -0.3772 -1.082 169
-12.5 -0.7646 0.14550000000000002 238
-6.1914 -0.3787 -0.9395 20
-12.4844 -0.7637 0.4351 31
-6.2461 -0.3818 -0.7993000000000001 160
-12.4922 -0.7637 0.7256 70
-6.5625 -0.4014 -0.6865000000000001 219
-12.4844 -0.7637 1.0176 231
-12.476600000000001 -0.7626999999999999 -1.0176 143
-12.4844 -0.7637 1.3096 253
-12.4844 -0.7637 -0.7251000000000001 243
-12.468800000000002 -0.7622 1.6006 4
-12.476600000000001 -0.7631999999999999 -0.43479999999999996 215
-12.4453 -0.7612000000000001 1.8944999999999999 245
-12.5 -0.7646 -0.14550000000000002 6
-12.3828 -0.7573000000000001 2.1797 152
-6.171900000000001 -0.35350000000000004 -1.082 223
-12.4922 -0.7158 0.1454 194
-6.207000000000001 -0.3557 -0.9414 227
-12.476600000000001 -0.7148 0.4346 219
-6.2227 -0.3567 -0.7964 225
-12.4922 -0.7158 0.7251000000000001 191
-6.5898 -0.37770000000000004 -0.6895 210
-12.4844 -0.7153 1.0176 137
-12.460899999999999 -0.7143999999999999 -1.0166 146
-12.476600000000001 -0.7148 1.3086000000000002 109
-12.4844 -0.7153 -0.7251000000000001 204
-12.476600000000001 -0.7153 1.6025 236
-12.4844 -0.7153 -0.43479999999999996 175
-12.468800000000002 -0.7148 1.8984 179
-12.468800000000002 -0.7143999999999999 -0.1451 209
-10.1953 -0.5845 1.7930000000000001 197
-6.167999999999999 -0.3318 -1.082 183
-12.5078 -0.6729 0.14550000000000002 52
-6.2188 -0.3347 -0.9434 6
-12.476600000000001 -0.6714 0.4346 149
-6.2265999999999995 -0.33520000000000005 -0.7968999999999999 180
-12.4922 -0.6718999999999999 0.7251000000000001 34
-6.6328 -0.3569 -0.6938 215
-12.4844 -0.6718999999999999 1.0176 41
-12.468800000000002 -0.6709 -1.0166 79
-12.4844 -0.6718999999999999 1.3096 27
-12.4844 -0.6714 -0.7245999999999999 24
-12.476600000000001 -0.6714 1.6016 215
-12.5 -0.6724 -0.4353 97
-12.460899999999999 -0.6704000000000001 1.8965 100
-12.476600000000001 -0.6714 -0.1451 27
-12.375 -0.6659999999999999 2.1777 118
-6.1640999999999995 -0.31129999999999997 -1.0811 23
-12.4922 -0.6309 0.1454 13
-6.2227 -0.31420000000000003 -0.9438 199
-12.4844 -0.6304 0.4346 31
-6.238300000000001 -0.31489999999999996 -0.7979 59
-12.476600000000001 -0.6299 0.7241 26
-6.667999999999999 -0.3367 -0.6968000000000001 59
-12.4844 -0.6304 1.0176 46
-12.476600000000001 -0.6299 -1.0166 80
-12.476600000000001 -0.6299 1.3086000000000002 154
-12.468800000000002 -0.6294 -0.7236 134
-12.468800000000002 -0.6294 1.6006 191
-12.4922 -0.6309 -0.4351 215
-12.476600000000001 -0.6299 1.8984 80
-12.4844 -0.6299 -0.14529999999999998 237
-10.2266 -0.5161 1.7978999999999998 223
-6.1836 -0.2915 -1.084 7
-12.4922 -0.5889 0.14529999999999998 175
-6.2188 -0.2932 -0.9423999999999999 98
-12.4844 -0.5889 0.4346 240
-12.476600000000001 -0.5884 0.7236 148
-6.6953 -0.3157 -0.6997 43
-12.468800000000002 -0.5884 1.0166 17
-12.4844 -0.5889 -1.0176 200
-12.4844 -0.5884 1.3086000000000002 30
-12.476600000000001 -0.5884 -0.7236 75
-12.468800000000002 -0.5879 1.5996000000000001 26
-12.4844 -0.5889 -0.4346 40
-12.4844 -0.5889 1.8994 88
-12.4844 -0.5889 -0.14529999999999998 244
-12.3828 -0.584 2.1777 226
-6.1914 -0.2693 -1.085 165
-12.476600000000001 -0.5425 0.1451 75
-6.2227 -0.2705 -0.9434 179
-12.476600000000001 -0.5425 0.4343 218
-6.363300000000001 -0.2766 -0.8134999999999999 93
-12.4844 -0.5429999999999999 0.7245999999999999 179
-6.7188 -0.2922 -0.7026 12
-12.468800000000002 -0.542 1.0156 20
-12.476600000000001 -0.5425 -1.0166 71
-12.4922 -0.5429999999999999 1.3096 255
-12.4844 -0.5429999999999999 -0.7241 236
-12.468800000000002 -0.542 1.5996000000000001 125
-12.468800000000002 -0.5425 -0.4341 122
-12.468800000000002 -0.542 1.8965 26
-12.468800000000002 -0.542 -0.145 71
-12.3828 -0.5386 2.1777 196
-6.199199999999999 -0.24789999999999998 -1.0869 232
-12.4922 -0.49979999999999997 0.1454 119
-6.234400000000001 -0.2493 -0.9448000000000001 16
-12.476600000000001 -0.499 0.4343 81
-6.355499999999999 -0.25420000000000004 -0.813 61
-12.4922 -0.49950000000000006 0.7245999999999999 172
-6.7773 -0.271 -0.7084999999999999 161
-12.460899999999999 -0.4985 1.0156 28
-12.468800000000002 -0.4988 -1.0156 10
-12.4844 -0.4993 1.3086000000000002 195
-12.4844 -0.4993 -0.7241 197
-12.468800000000002 -0.4985 1.5996000000000001 67
-12.476600000000001 -0.499 -0.4343 236
-12.460899999999999 -0.49829999999999997 1.8955000000000002 30
-12.476600000000001 -0.499 -0.1451 8
-12.3906 -0.4954 2.1797 88
-6.1914 -0.226 -1.085 156
-12.4922 -0.4558 0.14529999999999998 110
-6.25 -0.228 -0.9473 11
-12.468800000000002 -0.4548 0.4338 121
-6.3711 -0.2325 -0.8145 173
-12.468800000000002 -0.4551 0.7236 114
-6.863300000000001 -0.2505 -0.7173 144
-12.476600000000001 -0.45530000000000004 1.0166 29
-12.476600000000001 -0.45530000000000004 -1.0156 127
-12.468800000000002 -0.4551 1.3066 183
-12.476600000000001 -0.45530000000000004 -0.7236 0
-12.4844 -0.4556 1.6016 148
-12.4844 -0.4556 -0.4343 178
-12.460899999999999 -0.4548 1.8944999999999999 13
-12.460899999999999 -0.4548 -0.1449 31
-12.3672 -0.4514 2.1758 221
-6.1953 -0.2045 -1.0859 236
-12.476600000000001 -0.4119 0.1451 228
-6.2773 -0.2072 -0.9512 40
-12.476600000000001 -0.41159999999999997 0.4341 243
-6.3828 -0.21059999999999998 -0.8159000000000001 50
-12.468800000000002 -0.41159999999999997 0.7231000000000001 60
-6.894500000000001 -0.2275 -0.7202 249
-12.4844 -0.4119 1.0166 244
-12.4844 -0.4121 -1.0166 141
-12.476600000000001 -0.41159999999999997 1.3075999999999999 194
-12.476600000000001 -0.41159999999999997 -0.7236 193
-12.468800000000002 -0.4114 1.5986000000000002 238
-12.5 -0.41259999999999997 -0.4351 168
-12.468800000000002 -0.41159999999999997 1.8965 169
-12.468800000000002 -0.4114 -0.145 4
-12.3594 -0.4077 2.1738 103
-6.2109000000000005 -0.1832 -1.0879 212
-12.468800000000002 -0.3679 0.145 241
-6.265599999999999 -0.18489999999999998 -0.9497 169
-12.476600000000001 -0.3682 0.4341 239
-6.421900000000001 -0.1895 -0.8208 146
-12.468800000000002 -0.3677 0.7231000000000001 142
-6.9336 -0.2046 -0.7245999999999999 33
-12.468800000000002 -0.3679 1.0156 75
-12.476600000000001 -0.3682 -1.0166 137
-12.4844 -0.36840000000000006 1.3086000000000002 122
-12.468800000000002 -0.3677 -0.7231000000000001 11
-12.460899999999999 -0.3677 1.5977000000000001 99
-12.4844 -0.36840000000000006 -0.4343 165
-12.476600000000001 -0.3682 1.8975 99
-12.476600000000001 -0.3682 -0.1451 124
-12.3828 -0.3652 2.1758 41
-6.2227 -0.16190000000000002 -1.0908 100
-12.4844 -0.3247 0.1451 0
-6.292999999999999 -0.1637 -0.9531000000000001 84
-12.468800000000002 -0.3245 0.4338 155
-6.4648 -0.16820000000000002 -0.8267 15
-12.476600000000001 -0.3247 0.7236 6
-6.9727 -0.1813 -0.7284999999999999 145
-12.4531 -0.3237 1.0137 221
-12.476600000000001 -0.3245 -1.0156 41
-12.4844 -0.3247 1.3086000000000002 72
-12.4844 -0.3247 -0.7236 93
-12.468800000000002 -0.32420000000000004 1.5986000000000002 142
-12.476600000000001 -0.3247 -0.4341 126
-12.468800000000002 -0.32420000000000004 1.8944999999999999 244
-12.4844 -0.3247 -0.1451 154
-10.0547 -0.2615 1.7656 173
-6.234400000000001 -0.14150000000000001 -1.0928 172
-12.4922 -0.2834 0.1451 89
-6.3125 -0.1433 -0.9565 164
-12.460899999999999 -0.2827 0.43329999999999996 110
-6.457000000000001 -0.1465 -0.8251999999999999 237
-12.476600000000001 -0.2832 0.7236 194
-7.0352 -0.1597 -0.7349 116
-12.460899999999999 -0.2827 1.0146 71
-12.468800000000002 -0.28300000000000003 -1.0146 214
-12.476600000000001 -0.2832 1.3075999999999999 172
-12.476600000000001 -0.2832 -0.7236 116
-12.468800000000002 -0.28300000000000003 1.5986000000000002 116
-12.476600000000001 -0.2832 -0.4341 154
-12.460899999999999 -0.2827 1.8944999999999999 119
-12.468800000000002 -0.28300000000000003 -0.145 199
-12.3672 -0.2808 2.1738 10
-6.2422 -0.1209 -1.0928 150
-12.4922 -0.2421 0.14529999999999998 121
-6.3438 -0.1229 -0.9614 99
-12.476600000000001 -0.24170000000000003 0.4338 176
-6.5 -0.126 -0.8311 81
-12.468800000000002 -0.24170000000000003 0.7231000000000001 180
-12.4922 -0.2421 -1.3086000000000002 40
-12.468800000000002 -0.2416 1.0146 64
-12.468800000000002 -0.24170000000000003 -1.0156 58
-12.468800000000002 -0.2416 1.3066 27
-12.468800000000002 -0.2416 -0.7227 173
-12.476600000000001 -0.24170000000000003 1.5996000000000001 154
-12.4844 -0.2418 -0.4341 2
-12.460899999999999 -0.2415 1.8944999999999999 83
-12.4531 -0.2413 -0.1448 85
-12.375 -0.23989999999999997 2.1758 172
-6.261699999999999 -0.0984 -1.0967 211
-12.476600000000001 -0.196 0.145 124
-6.3711 -0.1 -0.9648 9
-12.476600000000001 -0.196 0.4338 205
-6.5352 -0.1027 -0.835 124
-12.460899999999999 -0.1957 0.7222 166
-12.476600000000001 -0.1959 -1.3066 12
-12.4922 -0.1963 1.0166 227
-12.476600000000001 -0.1959 -1.0156 228
-12.460899999999999 -0.19579999999999997 1.3056999999999999 244
-12.460899999999999 -0.19579999999999997 -0.7227 129
-12.460899999999999 -0.19579999999999997 1.5977000000000001 33
-12.4844 -0.196 -0.4341 175
-12.460899999999999 -0.19579999999999997 1.8944999999999999 13
-12.468800000000002 -0.19579999999999997 -0.1449 225
-12.3672 -0.1942 2.1738 31
-6.292999999999999 -0.07690000000000001 -1.1025 247
-12.468800000000002 -0.1523 0.1449 113
-6.3828 -0.0779 -0.9668000000000001 197
-12.4844 -0.1525 0.4341 241
-6.5898 -0.0805 -0.8423 121
-12.468800000000002 -0.1523 0.7227 89
-12.4531 -0.1521 -1.3047 200
-12.460899999999999 -0.1522 1.0146 142
-12.476600000000001 -0.1523 -1.0156 202
-12.4922 -0.15259999999999999 1.3086000000000002 64
-12.460899999999999 -0.1522 -0.7227 161
-12.460899999999999 -0.1522 1.5977000000000001 108
-12.476600000000001 -0.1525 -0.4338 163
-12.476600000000001 -0.1523 1.8955000000000002 67
-12.476600000000001 -0.1525 -0.145 249
-12.375 -0.1512 2.1738 7
-6.3438 -0.0576 -1.1113 128
-12.468800000000002 -0.11320000000000001 0.1449 185
-6.394500000000001 -0.057999999999999996 -0.9688 83
-12.468800000000002 -0.11320000000000001 0.4336 105
-6.640599999999999 -0.0602 -0.8486 240
-12.468800000000002 -0.11320000000000001 0.7231000000000001 139
-12.460899999999999 -0.1131 -1.3047 9
-12.460899999999999 -0.1131 1.0146 74
-12.468800000000002 -0.11320000000000001 -1.0146 156
-12.4922 -0.1133 1.3086000000000002 146
-12.460899999999999 -0.1131 -0.7222 65
-12.4453 -0.113 1.5957 122
-12.476600000000001 -0.11320000000000001 -0.4338 56
-12.4531 -0.113 1.8925999999999998 29
-12.460899999999999 -0.1131 -0.1449 146
-12.3672 -0.11230000000000001 2.1738 70
-6.3515999999999995 -0.0366 -1.1123 133
-12.468800000000002 -0.0718 0.1449 215
-6.4336 -0.037000000000000005 -0.9745999999999999 103
-12.4531 -0.0717 0.43310000000000004 152
-6.671900000000001 -0.0384 -0.853 205
-12.476600000000001 -0.0718 0.7231000000000001 168
-12.476600000000001 -0.0718 -1.3066 205
-12.476600000000001 -0.0718 1.0156 165
-12.4531 -0.0717 -1.0137 136
-12.468800000000002 -0.0718 1.3066 132
-12.468800000000002 -0.0718 -0.7231000000000001 190
-12.460899999999999 -0.0718 1.5977000000000001 127
-12.476600000000001 -0.0718 -0.4338 185
-12.4531 -0.0717 1.8916 207
-12.460899999999999 -0.0718 -0.1448 57
-12.3672 -0.0712 2.1738 109
-6.363300000000001 -0.013300000000000001 -1.1143 55
-12.4844 -0.026099999999999998 0.145 174
-6.4765999999999995 -0.013600000000000001 -0.981 89
-12.468800000000002 -0.026099999999999998 0.4336 202
-6.7188 -0.0141 -0.8589 92
-12.468800000000002 -0.026099999999999998 0.7227 46
-12.476600000000001 -0.026099999999999998 -1.3066 16
-12.476600000000001 -0.026099999999999998 1.0156 223
-12.460899999999999 -0.026099999999999998 -1.0146 32
-12.5078 -0.0262 1.3096 24
-12.460899999999999 -0.026099999999999998 -0.7222 104
-12.4531 -0.026099999999999998 1.5966999999999998 183
-12.3828 -0.0259 -0.4304 198
-12.460899999999999 -0.026099999999999998 1.8936000000000002 221
-12.4453 -0.026099999999999998 -0.1447 223
-12.3594 -0.0259 2.1719 236
-6.3828 0.0089 -1.1181999999999999 172
-12.476600000000001 0.0174 0.145 129
-6.511699999999999 0.0091 -0.9863 214
-12.4453 0.0174 0.4329 95
-6.765599999999999 0.009399999999999999 -0.8647 170
-12.5 0.0175 0.7245999999999999 82
-12.4531 0.0174 -1.3037 168
-12.5547 0.0175 1.0225 242
-12.460899999999999 0.0174 -1.0146 149
-12.5547 0.0175 1.3154 249
-12.4453 0.0174 -0.7217 96
-12.460899999999999 0.0174 1.5966999999999998 125
-12.3828 0.0173 -0.4304 149
-12.460899999999999 0.0174 1.8936000000000002 26
-12.414100000000001 0.0173 -0.14429999999999998 125
-12.3672 0.0173 2.1738 11
-6.417999999999999 0.031400000000000004 -1.124 218
-12.5156 0.061200000000000004 0.1454 76
-6.5664 0.0321 -0.9951000000000001 14
-6.8398 0.0334 -0.8745 194
-12.539100000000001 0.0613 0.7271 199
-12.4531 0.060899999999999996 -1.3037 82
-12.5703 0.061399999999999996 1.0234 252
-12.468800000000002 0.060899999999999996 -1.0146 222
-12.6172 0.0617 1.3213 27
-12.4453 0.0608 -0.7217 233
-12.4375 0.0608 1.5947 235
-12.3672 0.0604 -0.4299 218
-12.468800000000002 0.060899999999999996 1.8944999999999999 18
-12.5078 0.0611 -0.1454 229
-12.3672 0.0604 2.1738 12
-6.4727 0.0542 -1.1338 145
-12.5469 0.1052 0.1459 74
-6.636699999999999 0.0556 -1.0049 59
-12.5703 0.10529999999999999 0.43700000000000006 122
-6.925800000000001 0.057999999999999996 -0.8856999999999999 7
-12.6172 0.1057 0.7314 181
-12.4453 0.1043 -1.3037 185
-12.710899999999999 0.1065 1.0352 240
-12.4531 0.1043 -1.0137 251
-12.7656 0.107 1.3378999999999999 126
-12.460899999999999 0.10439999999999999 -0.7227 242
-12.4453 0.1043 1.5957 131
-12.3594 0.1035 -0.42969999999999997 26
-12.460899999999999 0.10439999999999999 1.8936000000000002 167
-12.531199999999998 0.105 -0.1456 22
-12.3672 0.1036 2.1738 51
-6.550800000000001 0.07780000000000001 -1.1484 119
-12.6094 0.1497 0.1466 124
-6.734400000000001 0.08 -1.0205 228
-12.648399999999999 0.1501 0.4399 53
-11.210899999999999 0.1331 -1.4365 241
-12.718800000000002 0.1509 0.7373000000000001 181
-12.4531 0.1478 -1.3047 183
-12.7656 0.1515 1.0391 220
-12.4531 0.1478 -1.0137 217
-12.773399999999999 0.1516 1.3378999999999999 113
-12.4531 0.1478 -0.7217 18
-12.4531 0.1478 1.5966999999999998 115
-12.3594 0.1467 -0.4299 138
-12.4375 0.1477 1.8906 54
-12.468800000000002 0.1479 -0.1449 31
-12.375 0.1469 2.1758 26
-12.6094 0.1937 0.1466 136
-6.859400000000001 0.10529999999999999 -1.0391 217
-12.5547 0.19269999999999998 0.4365 23
-11.1875 0.1718 -1.4336000000000002 214
-12.75 0.19579999999999997 0.7393000000000001 224
-12.4531 0.1913 -1.3047 38
-12.773399999999999 0.1963 1.04 170
-12.4531 0.1913 -1.0137 234
-12.75 0.19579999999999997 1.3359 179
-12.4531 0.1913 -0.7222 127
-12.4531 0.1913 1.5966999999999998 110
-12.3672 0.18989999999999999 -0.4299 208
-12.4453 0.1912 1.8916 181
-12.375 0.19010000000000002 -0.1438 223
-12.3672 0.18989999999999999 2.1738 165
-6.8984000000000005 0.13 -1.209 223
-12.664100000000001 0.23879999999999998 0.1472 105
-9.5703 0.1804 -1.4531 97
-12.6797 0.239 0.4409 231
-11.164100000000001 0.2104 -1.4306999999999999 135
-12.75 0.2404 0.7393000000000001 235
-12.4453 0.2346 -1.3037 43
-12.781199999999998 0.24100000000000002 1.04 100
-12.4531 0.2349 -1.0137 165
-12.7578 0.24059999999999998 1.3369 222
-12.4453 0.2346 -0.7217 189
-12.4453 0.2346 1.5957 130
-12.3828 0.2334 -0.4307 87
-12.4531 0.2347 1.8925999999999998 154
-12.398399999999999 0.23379999999999998 -0.1442 43
-12.3594 0.2329 2.1719 90
-8.375 0.18710000000000002 -1.4697 85
-12.6328 0.2822 0.1469 124
-9.5391 0.213 -1.4482 62
-12.6797 0.2832 0.4412 36
-11.156199999999998 0.2493 -1.4297 71
-12.7344 0.2847 0.7383 106
-12.4453 0.2781 -1.3037 10
-12.7578 0.2849 1.0391 17
-12.4531 0.2783 -1.0137 23
-12.7656 0.2854 1.3378999999999999 63
-12.4453 0.2781 -0.7217 31
-12.4375 0.2778 1.5947 203
-12.3828 0.2766 -0.4307 91
-12.460899999999999 0.2783 1.8936000000000002 184
-12.398399999999999 0.27690000000000003 -0.14400000000000002 183
-12.351600000000001 0.2761 2.1719 89
-8.3828 0.2151 -1.4707 22
-12.648399999999999 0.3247 0.1471 67
-9.5156 0.2443 -1.4453 18
-12.531199999999998 0.3215 0.436 249
-11.156199999999998 0.2864 -1.4306999999999999 12
-12.7422 0.32689999999999997 0.7387999999999999 13
-12.4453 0.3193 -1.3037 206
-12.7578 0.3274 1.0391 39
-12.460899999999999 0.31980000000000003 -1.0146 177
-12.7656 0.3276 1.3378999999999999 239
-12.4375 0.3193 -0.7212000000000001 74
-12.4453 0.3193 1.5957 250
-12.375 0.3176 -0.4304 189
-12.4531 0.3196 1.8936000000000002 242
-12.3906 0.3181 -0.14400000000000002 87
-12.343800000000002 0.31670000000000004 2.1699 91
-8.3828 0.24280000000000002 -1.4707 198
-12.6172 0.3657 0.1467 41
-9.5312 0.2764 -1.4482 160
-12.648399999999999 0.3667 0.44020000000000004 222
-11.1328 0.3225 -1.4268 143
-12.7578 0.3699 0.7402 49
-12.4453 0.36060000000000003 -1.3037 104
-12.75 0.3696 1.0381 61
-12.4531 0.3608 -1.0137 93
-12.7656 0.3699 1.3378999999999999 171
-12.4531 0.3608 -0.7222 110
-12.460899999999999 0.3611 1.5977000000000001 177
-12.3828 0.3589 -0.4307 68
-12.4297 0.3604 1.8906 233
-12.4375 0.3604 -0.1445 80
-12.3672 0.35840000000000005 2.1738 125
-8.3438 0.2725 -1.4647999999999999 110
-12.656199999999998 0.4133 0.1472 105
-9.5312 0.31129999999999997 -1.4482 89
-12.6172 0.4119 0.439 98
-11.093800000000002 0.36229999999999996 -1.4228999999999998 125
-12.7344 0.4158 0.7387999999999999 121
-12.4531 0.4067 -1.3047 22
-12.7656 0.4167 1.04 134
-12.4531 0.4065 -1.0137 32
-12.75 0.4163 1.3359 205
-12.4375 0.406 -0.7212000000000001 18
-12.4531 0.4065 1.5966999999999998 87
-12.406199999999998 0.405 -0.4316 245
-12.4375 0.406 1.8906 205
-12.5078 0.40840000000000004 -0.14550000000000002 118
-12.343800000000002 0.4028 2.1699 16
-8.3281 0.3013 -1.4628999999999999 30
-12.625 0.45649999999999996 0.1469 97
-9.5078 0.34380000000000005 -1.4443000000000001 12
-12.648399999999999 0.457 0.44020000000000004 235
-11.093800000000002 0.40090000000000003 -1.4219 137
-12.648399999999999 0.4573 0.7339 217
-12.4375 0.4497 -1.3037 95
-12.7578 0.46090000000000003 1.0391 54
-12.4531 0.45020000000000004 -1.0146 36
-12.7578 0.4612 1.3369 195
-12.4375 0.4495 -0.7212000000000001 57
-12.4453 0.45 1.5966999999999998 24
-12.4297 0.44920000000000004 -0.4326 222
-12.4531 0.45 1.8936000000000002 156
-12.539100000000001 0.4531 -0.1459 192
-12.343800000000002 0.446 2.1699 145
-8.3438 0.3306 -1.4647999999999999 23
-12.5781 0.4988 0.1464 80
-9.5156 0.3772 -1.4453 119
-12.5703 0.498 0.43729999999999997 102
-11.101600000000001 0.4399 -1.4228999999999998 74
-12.7031 0.5034000000000001 0.7368000000000001 149
-12.4375 0.4932 -1.3037 114
-12.7422 0.5054 1.0381 48
-12.4453 0.49340000000000006 -1.0137 3
-12.7578 0.5059 1.3369 252
-12.4375 0.4929 -0.7217 89
-12.4375 0.4929 1.5957 196
-12.4297 0.4927 -0.4326 241
-12.4531 0.49369999999999997 1.8936000000000002 168
-12.523399999999999 0.4963 -0.1456 120
-12.335899999999999 0.4893 2.1699 215
-8.3516 0.3604 -1.4668 168
-12.6328 0.5449 0.147 58
-9.4922 0.4094 -1.4413999999999998 104
-12.6094 0.5439 0.439 109
-11.085899999999999 0.478 -1.4219 53
-12.7344 0.5493 0.7393000000000001 188
-12.4453 0.5366 -1.3047 239
-12.7422 0.5493 1.0381 218
-12.4375 0.5366 -1.0137 125
-12.7656 0.5503 1.3378999999999999 80
-12.4453 0.5371 -0.7222 117
-12.4453 0.5371 1.5977000000000001 27
-12.4375 0.5366 -0.43310000000000004 151
-12.4375 0.5366 1.8916 2
-12.5703 0.542 -0.1462 222
-12.3594 0.5332 2.1738 241
-8.3438 0.3892 -1.4658000000000002 233
-12.648399999999999 0.5898 0.1471 218
-9.4844 0.4424 -1.4413999999999998 154
-12.6328 0.5893999999999999 0.4399 223
-11.0547 0.5151 -1.4180000000000001 201
-12.7422 0.5942000000000001 0.7397 98
-12.4375 0.5801 -1.3047 128
-12.75 0.5947 1.0391 76
-12.4297 0.5796 -1.0127 211
-12.7422 0.5942000000000001 1.3369 45
-12.4375 0.5801 -0.7217 213
-12.4453 0.5806 1.5977000000000001 15
-12.4453 0.5806 -0.43329999999999996 240
-12.4219 0.5796 1.8906 57
-12.5625 0.5859000000000001 -0.1461 237
-12.3672 0.5767 2.1758 98
-8.3203 0.41700000000000004 -1.4609 179
-12.664100000000001 0.6347999999999999 0.14730000000000001 171
-9.4766 0.47509999999999997 -1.4404 174
-12.5469 0.6294 0.43700000000000006 24
-11.031199999999998 0.5532 -1.416 62
-12.718800000000002 0.6377 0.7383 70
-12.4453 0.624 -1.3056999999999999 140
-12.7578 0.6396000000000001 1.04 166
-12.4219 0.623 -1.0127 8
-12.7422 0.6386999999999999 1.3359 247
-12.4297 0.623 -0.7217 87
-12.4453 0.624 1.5977000000000001 155
-12.4531 0.6245 -0.4336 122
-12.4375 0.6235 1.8925999999999998 238
-12.468800000000002 0.625 -0.1451 226
-12.343800000000002 0.6187 2.1719 218
-8.2812 0.4456 -1.4550999999999998 100
-12.625 0.6792 0.147 92
-9.4531 0.5088 -1.4375 105
-12.664100000000001 0.6816 0.4412 208
-11.023399999999999 0.5932999999999999 -1.415 83
-12.726600000000001 0.6846 0.7387999999999999 147
-12.4375 0.6694 -1.3047 7
-12.7578 0.6865000000000001 1.04 191
-12.4453 0.6698999999999999 -1.0146 154
-12.75 0.6859999999999999 1.3369 239
-12.414100000000001 0.6679999999999999 -0.7206999999999999 32
-12.4375 0.6689 1.5966999999999998 228
-12.460899999999999 0.6704000000000001 -0.4338 7
-12.4453 0.6694 1.8936000000000002 13
-12.5547 0.6753 -0.1461 248
-12.335899999999999 0.6640999999999999 2.1719 9
-8.2969 0.4753 -1.4580000000000002 211
-12.648399999999999 0.7245999999999999 0.1472 239
-9.4531 0.5415 -1.4375 62
-12.664100000000001 0.7261 0.4412 25
-11.0156 0.6313 -1.4141 52
-12.726600000000001 0.7295 0.7393000000000001 254
-12.4297 0.7123999999999999 -1.3037 19
-12.7422 0.7304999999999999 1.0391 58
-12.4375 0.7129000000000001 -1.0146 226
-12.75 0.731 1.3378999999999999 225
-12.4219 0.7119 -0.7212000000000001 87
-12.4297 0.7123999999999999 1.5957 234
-12.4453 0.7134 -0.4336 75
-12.4531 0.7134 1.8944999999999999 19
-12.5703 0.7206999999999999 -0.1464 200
-12.351600000000001 0.7075 2.1738 121
-8.3203 0.5044 -1.4628999999999999 5
-12.648399999999999 0.7670999999999999 0.14730000000000001 123
-9.4297 0.5718 -1.4346 221
-12.656199999999998 0.7676000000000001 0.4409 36
-11.023399999999999 0.6685 -1.415 94
-12.648399999999999 0.7670999999999999 0.7349 138
-12.4297 0.7534000000000001 -1.3037 2
-12.7344 0.772 1.0381 162
-12.4297 0.7539 -1.0137 124
-12.75 0.7734000000000001 1.3378999999999999 218
-12.4375 0.7539 -0.7222 95
-12.4453 0.7548999999999999 1.5986000000000002 64
-12.4453 0.7544 -0.4336 189
-12.4375 0.7539 1.8936000000000002 192
-12.5703 0.7622 -0.1464 153
-12.3594 0.7490000000000001 2.1758 164
-8.3047 0.5312 -1.46 103
-12.601600000000001 0.8062 0.1467 134
-9.4297 0.6035 -1.4346 127
-12.5469 0.8027 0.43729999999999997 24
-10.976600000000001 0.7021 -1.4091999999999998 147
-12.726600000000001 0.8145 0.7397 114
-12.4375 0.7954000000000001 -1.3056999999999999 81
-12.75 0.8154 1.04 248
-12.4297 0.7948999999999999 -1.0137 83
-12.710899999999999 0.8134999999999999 1.334 5
-12.4297 0.7954000000000001 -0.7222 137
-12.4453 0.7964 1.5986000000000002 192
-12.4531 0.7964 -0.4338 196
-12.4219 0.7944 1.8906 155
-12.351600000000001 0.79 2.1758 175
-8.3047 0.5600999999999999 -1.46 147
-12.6719 0.855 0.1476 17
-9.4297 0.6362 -1.4346 211
-12.656199999999998 0.8540000000000001 0.4412 98
-10.9922 0.7417 -1.4121000000000001 97
-12.6719 0.855 0.7363 15
-12.4375 0.8389 -1.3056999999999999 198
-12.5703 0.8481000000000001 1.0254 61
-12.4297 0.8389 -1.0146 188
-12.539100000000001 0.8456999999999999 1.3163999999999998 84
-12.468800000000002 0.8412999999999999 1.6016 145
-8.7812 0.5922999999999999 -0.3054 229
-12.4297 0.8389 1.8936000000000002 171
-8.7266 0.5889 -0.1014 75
-12.335899999999999 0.8325 2.1738 159
-8.2891 0.5869 -1.4580000000000002 135
-12.601600000000001 0.8920999999999999 0.1469 196
-9.3984 0.6655 -1.4306999999999999 235
-12.5547 0.8892 0.43770000000000003 15
-10.9844 0.7778 -1.4111000000000002 41
-12.5156 0.8862000000000001 0.7275 223
-12.4297 0.8798999999999999 -1.3047 244
-12.531199999999998 0.8872 1.0225 234
-8.7734 0.6215999999999999 -0.7148 225
-12.523399999999999 0.8867 1.3154 86
-8.9062 0.6304 -0.5166 248
-12.468800000000002 0.8828 1.6025 170
-8.7734 0.6211 -0.30519999999999997 235
-12.4375 0.8804000000000001 1.8944999999999999 134
-8.7812 0.6221 -0.10210000000000001 214
-12.335899999999999 0.8734999999999999 2.1738 200
-8.2891 0.6172 -1.4580000000000002 55
-12.5 0.9312 0.1458 242
-9.2891 0.6923999999999999 -1.4141 108
-12.5 0.9312 0.43579999999999997 22
-8.7734 0.6537999999999999 -1.127 194
-12.4922 0.9307 0.7261 162
-8.7578 0.6523 -0.9179999999999999 9
-12.5078 0.9316 1.0215 81
-12.523399999999999 0.9326000000000001 1.3154 139
-8.7656 0.6533 -0.5088 142
-12.460899999999999 0.9281999999999999 1.6016 124
-8.7344 0.6504000000000001 -0.304 185
-12.4375 0.9262999999999999 1.8955000000000002 137
-8.7031 0.6479 -0.1011 96
-12.3281 0.9185 2.1738 166
-8.2891 0.6465000000000001 -1.4580000000000002 222
-12.4922 0.9745999999999999 0.1456 253
-8.7578 0.6831 -1.3330000000000002 2
-12.5 0.9745999999999999 0.43579999999999997 233
-8.7656 0.6836 -1.125 34
-12.5078 0.9756 0.7271 56
-8.7578 0.6831 -0.9185 31
-12.5 0.9751000000000001 1.0205 237
-8.7656 0.6836 -0.7143999999999999 250
-12.523399999999999 0.9765999999999999 1.3154 68
-8.7656 0.6836 -0.5088 222
-12.460899999999999 0.9722 1.6025 56
-12.4375 0.9702 1.8955000000000002 116
-8.7266 0.6801999999999999 -0.1014 130
-12.335899999999999 0.9623999999999999 2.1758 44
-8.2812 0.6748000000000001 -1.4569999999999999 69
-12.5078 1.0195 0.1459 101
-8.7656 0.7143999999999999 -1.335 22
-12.4922 1.0186 0.43579999999999997 28
-8.75 0.7134 -1.124 166
-12.5156 1.0195 0.728 215
-12.4375 1.0137 -1.3066 118
-12.5 1.0186 1.0205 31
-12.5156 1.0195 1.3154 78
-12.4219 1.0127 -0.7227 102
-12.468800000000002 1.0166 1.6035 155
-12.414100000000001 1.0117 1.8925999999999998 224
-12.5078 1.0195 -0.1459 28
-12.335899999999999 1.0059 2.1758 212
-8.2578 0.7017 -1.4531 231
-12.5078 1.0635 0.1459 100
-9.3516 0.7954000000000001 -1.4247999999999998 66
-12.4844 1.0615 0.43579999999999997 17
-10.9297 0.9297 -1.4062000000000001 92
-12.468800000000002 1.0605 0.7256 11
-12.4375 1.0576 -1.3075999999999999 101
-12.5156 1.0645 1.0225 213
-12.4219 1.0566 -1.0146 215
-12.5156 1.0645 1.3154 243
-12.4219 1.0566 -0.7227 70
-12.468800000000002 1.0605 1.6044999999999998 122
-12.4531 1.0586 -0.4346 188
-12.4297 1.0566 1.8955000000000002 201
-12.3203 1.0479 2.1738 80
-8.2266 0.7284999999999999 -1.4491999999999998 215
