# .PCD v0.7 - Point Cloud Data file format
VERSION 0.7
FIELDS x y z intensity
SIZE 4 4 4 4
TYPE F F F F
COUNT 1 1 1 1
WIDTH 1261
HEIGHT 1
VIEWPOINT 0 0 0 1 0 0 0
POINTS 1261
DATA ascii
-12.375 2.4961 1.6181999999999999 1
-12.3828 2.5 -0.4395 41
-12.3672 2.4961 1.9180000000000001 137
-12.3594 2.4941 -0.1466 113
-12.3047 2.4824 2.2051 174
-8.1094 1.666 -1.4521000000000002 3
-12.3828 2.5449 0.147 70
-9.0312 1.8555000000000001 -1.3994 11
-12.3672 2.541 0.439 224
-10.460899999999999 2.1484 -1.3681999999999999 118
-12.3828 2.5449 0.7329000000000001 215
-12.375 2.543 -1.3232 112
-12.375 2.543 1.0283 208
-12.3672 2.541 -1.0283 35
-12.3828 2.543 1.3241999999999998 250
-12.3672 2.541 -0.7319 104
-12.3828 2.543 1.6200999999999999 116
-12.398399999999999 2.5469 -0.44020000000000004 217
-12.375 2.543 1.9199000000000002 101
-12.351600000000001 2.5371 -0.1466 221
-12.289100000000001 2.5234 2.2051 181
-8.1094 1.6943000000000001 -1.4531 250
-12.3672 2.5839999999999996 0.1469 155
-9.0078 1.8818000000000001 -1.3965 90
-12.375 2.5858999999999996 0.4397 83
-10.4375 2.1816 -1.3662 103
-12.375 2.5858999999999996 0.7329000000000001 163
-12.3594 2.582 -1.3222999999999998 105
-12.375 2.5858999999999996 1.0293 19
-12.3828 2.5858999999999996 -1.0293 34
-12.3906 2.5898000000000003 1.3262 183
-12.3672 2.582 -0.7323999999999999 145
-12.3594 2.582 1.6191 161
-12.3906 2.5879000000000003 -0.44020000000000004 131
-12.3828 2.5879000000000003 1.9228999999999998 239
-12.3594 2.582 -0.1467 67
-12.281199999999998 2.5645 2.2051 100
-8.1172 1.7236000000000002 -1.4561000000000002 217
-12.3672 2.625 0.1469 156
-8.9922 1.9102000000000001 -1.3955000000000002 44
-12.375 2.6289 0.44020000000000004 205
-10.4453 2.2188 -1.3681999999999999 108
-12.3672 2.627 0.7329000000000001 43
-12.3594 2.625 -1.3232 72
-12.3672 2.627 1.0293 150
-12.375 2.6289 -1.0303 45
-12.3906 2.6308999999999996 1.3262 245
-12.3672 2.627 -0.7329000000000001 112
-12.351600000000001 2.623 1.6191 25
-12.3906 2.6308999999999996 -0.4404 74
-12.3828 2.6289 1.9238 198
-12.3672 2.627 -0.147 205
-12.281199999999998 2.6074 2.207 106
-8.1328 1.7578 -1.46 182
-12.3672 2.6738 0.1471 197
-8.9609 1.9375 -1.3916 248
-12.3672 2.6738 0.44020000000000004 158
-10.406199999999998 2.25 -1.3643 76
-12.3828 2.6776999999999997 0.7349 159
-12.3594 2.6719 -1.3241999999999998 62
-12.3672 2.6738 1.0303 31
-12.3672 2.6738 -1.0303 169
-12.3828 2.6776999999999997 1.3271000000000002 48
-12.375 2.6757999999999997 -0.7339 19
-12.3594 2.6719 1.6211000000000002 133
-12.375 2.6757999999999997 -0.44020000000000004 132
-12.3672 2.6738 1.9228999999999998 67
-12.3672 2.6738 -0.1471 162
-12.289100000000001 2.6562 2.209 94
-8.125 1.7871000000000001 -1.46 1
-12.3828 2.7226999999999997 0.14730000000000001 45
-8.9688 1.9716999999999998 -1.3936000000000002 243
-12.351600000000001 2.7168 0.4399 240
-10.3906 2.2852 -1.3633000000000002 55
-12.3906 2.7245999999999997 0.7354 75
-12.3672 2.7188 -1.3262 145
-12.3672 2.7188 1.0312000000000001 232
-12.375 2.7207 -1.0312000000000001 5
-12.3828 2.7226999999999997 1.3281 106
-12.3672 2.7188 -0.7339 46
-12.375 2.7207 1.624 201
-12.375 2.7207 -0.4407 26
-12.3672 2.7188 1.9238 99
-12.3672 2.7188 -0.1472 248
-12.289100000000001 2.7031 2.2109 191
-8.125 1.8154 -1.46 253
-12.3672 2.7656 0.14730000000000001 184
-8.9609 2.0039 -1.3936000000000002 91
-12.3594 2.7637 0.4404 234
-10.398399999999999 2.3242 -1.3652000000000002 3
-12.3672 2.7637 0.7343999999999999 47
-12.3672 2.7656 -1.3271000000000002 88
-12.375 2.7656 1.0322 242
-12.3594 2.7637 -1.0312000000000001 54
-12.375 2.7656 1.3281 149
-12.3594 2.7617000000000003 -0.7343999999999999 174
-12.375 2.7656 1.625 215
-12.375 2.7656 -0.4409 163
-12.3672 2.7637 1.9258000000000002 16
-12.351600000000001 2.7598000000000003 -0.1471 191
-12.273399999999999 2.7422000000000004 2.209 87
-8.1172 1.8437999999999999 -1.46 180
-12.375 2.8125 0.1476 14
-8.9375 2.0312 -1.3916 172
-12.3672 2.8105 0.4412 28
-10.3828 2.3594 -1.3643 220
-12.3672 2.8086 0.7349 140
-12.3672 2.8086 -1.3281 47
-12.3672 2.8105 1.0322 80
-12.3594 2.8066000000000004 -1.0312000000000001 18
-12.3828 2.8125 1.3300999999999998 20
-12.3594 2.8086 -0.7349 122
-12.3594 2.8086 1.625 209
-12.375 2.8125 -0.4414 96
-12.375 2.8105 1.9277000000000002 204
-12.3594 2.8086 -0.14730000000000001 251
-12.2578 2.7851999999999997 2.209 6
-8.1172 1.8730000000000002 -1.4609 100
-12.3594 2.8535000000000004 0.1475 224
-8.9141 2.0586 -1.3887 96
-12.375 2.8574 0.44170000000000004 90
-10.3672 2.3945 -1.3633000000000002 185
-12.3672 2.8555 0.7358 118
-12.3594 2.8535000000000004 -1.3281 48
-12.375 2.8555 1.0332 245
-12.3672 2.8555 -1.0332 177
-12.375 2.8574 1.3300999999999998 162
-12.3594 2.8535000000000004 -0.7354 48
-12.351600000000001 2.8516000000000004 1.626 103
-12.3594 2.8535000000000004 -0.4412 230
-12.3828 2.8594 1.9316 210
-12.375 2.8574 -0.1476 0
-12.2656 2.832 2.2129 2
-8.1172 1.9043 -1.4628999999999999 250
-12.351600000000001 2.8964999999999996 0.1475 92
-8.8906 2.0859 -1.3866999999999998 94
-12.3594 2.9004000000000003 0.44170000000000004 116
-10.351600000000001 2.4277 -1.3622999999999998 25
-12.375 2.9023000000000003 0.7368000000000001 28
-12.3672 2.9004000000000003 -1.3300999999999998 32
-12.3594 2.8983999999999996 1.0332 78
-12.3594 2.8983999999999996 -1.0332 125
-12.3828 2.9043 1.3319999999999999 107
-12.3672 2.9004000000000003 -0.7363 38
-12.3594 2.8983999999999996 1.6269999999999998 143
-12.3594 2.8983999999999996 -0.44170000000000004 165
-12.375 2.9023000000000003 1.9316 62
-12.3672 2.9004000000000003 -0.1476 24
-12.273399999999999 2.8789 2.2148 63
-8.125 1.9336000000000002 -1.4647999999999999 222
-12.375 2.9452999999999996 0.1478 11
-8.9062 2.1211 -1.3896000000000002 152
-12.351600000000001 2.9414 0.44170000000000004 63
-10.3281 2.459 -1.3603999999999998 150
-12.3672 2.9433999999999996 0.7368000000000001 151
-12.375 2.9452999999999996 -1.3319999999999999 53
-12.3594 2.9414 1.0342 221
-12.351600000000001 2.9414 -1.0332 182
-12.3672 2.9452999999999996 1.3319999999999999 175
-12.3672 2.9433999999999996 -0.7368000000000001 79
-12.3594 2.9414 1.6288999999999998 31
-12.351600000000001 2.9414 -0.44170000000000004 206
-12.3594 2.9414 1.9306999999999999 127
-12.351600000000001 2.9395 -0.1476 104
-12.273399999999999 2.9219 2.2168 52
-8.1094 1.959 -1.4638999999999998 205
-12.3906 2.9922000000000004 0.1481 168
-8.8828 2.1445 -1.3866999999999998 88
-12.3594 2.9844 0.4421 56
-10.351600000000001 2.5 -1.3643 132
-12.3594 2.9863 0.7373000000000001 79
-12.375 2.9882999999999997 -1.3330000000000002 185
-12.3594 2.9844 1.0352 218
-12.3594 2.9844 -1.0352 228
-12.3672 2.9863 1.3319999999999999 65
-12.351600000000001 2.9844 -0.7368000000000001 216
-12.351600000000001 2.9844 1.6288999999999998 143
-12.375 2.9901999999999997 -0.4429 114
-12.3672 2.9863 1.9336000000000002 163
-12.351600000000001 2.9844 -0.1477 125
-12.2656 2.9629000000000003 2.2168 80
-8.1016 1.9893 -1.4638999999999998 233
-12.3594 3.0332 0.1478 190
-8.8906 2.1816 -1.3896000000000002 44
-12.3672 3.0351999999999997 0.4429 132
-10.3594 2.543 -1.3662 89
-12.351600000000001 3.0312 0.7373000000000001 223
-12.3594 3.0332 -1.3330000000000002 113
-12.351600000000001 3.0332 1.0352 67
-12.351600000000001 3.0332 -1.0352 77
-12.375 3.0370999999999997 1.335 88
-12.343800000000002 3.0293 -0.7368000000000001 198
-12.343800000000002 3.0293 1.6299000000000001 8
-12.375 3.0370999999999997 -0.44310000000000005 19
-12.3672 3.0351999999999997 1.9355000000000002 231
-12.351600000000001 3.0312 -0.1478 98
-12.2656 3.0098000000000003 2.2188 61
-8.1016 2.0195 -1.4658000000000002 168
-12.351600000000001 3.0781 0.1479 106
-8.8516 2.2051 -1.3838 45
-12.3594 3.0781 0.4429 34
-10.3203 2.5702999999999996 -1.3622999999999998 127
-12.351600000000001 3.0781 0.7378 127
-12.351600000000001 3.0781 -1.334 132
-12.3594 3.0781 1.0361 175
-12.3594 3.0801 -1.0371 42
-12.3672 3.0801 1.335 85
-12.343800000000002 3.0742000000000003 -0.7373000000000001 124
-12.343800000000002 3.0762 1.6309 57
-12.3672 3.082 -0.4434 17
-12.3672 3.082 1.9375 109
-12.3672 3.082 -0.1482 141
-12.2578 3.0526999999999997 2.2188 247
-8.1094 2.0508 -1.4668 247
-12.351600000000001 3.123 0.1481 21
-8.8438 2.2363 -1.3838 216
-12.343800000000002 3.1211 0.4429 116
-10.3281 2.6113 -1.3652000000000002 150
-12.3594 3.125 0.7393000000000001 125
-12.3594 3.125 -1.335 245
-12.351600000000001 3.123 1.0371 240
-12.343800000000002 3.1211 -1.0371 69
-12.375 3.1289 1.3369 30
-12.343800000000002 3.1211 -0.7383 232
-12.351600000000001 3.123 1.6328 79
-12.351600000000001 3.123 -0.44310000000000005 58
-12.3594 3.125 1.9375 36
-12.351600000000001 3.123 -0.1481 229
-12.2656 3.1016000000000004 2.2227 114
-8.1094 2.082 -1.4697 229
-12.351600000000001 3.1699 0.1483 106
-8.8359 2.2656 -1.3838 66
-12.343800000000002 3.1660000000000004 0.44310000000000005 58
-10.2969 2.6426 -1.3622999999999998 82
-12.3594 3.1699 0.7397 253
-12.351600000000001 3.168 -1.335 99
-12.351600000000001 3.1699 1.0381 154
-12.335899999999999 3.1641000000000004 -1.0361 162
-12.375 3.1757999999999997 1.3378999999999999 32
-12.351600000000001 3.1699 -0.7393000000000001 231
-12.351600000000001 3.1699 1.6347999999999998 0
-12.3672 3.1719 -0.44409999999999994 130
-12.343800000000002 3.1660000000000004 1.9365 123
-12.3594 3.1699 -0.1483 200
-12.281199999999998 3.1504000000000003 2.2285 76
-8.1094 2.1094 -1.4697 221
-12.351600000000001 3.2168 0.1484 190
-8.8125 2.293 -1.3818000000000001 57
-12.335899999999999 3.2108999999999996 0.4434 92
-10.273399999999999 2.6757999999999997 -1.3603999999999998 64
-12.351600000000001 3.2168 0.7402 170
-12.351600000000001 3.2148000000000003 -1.3369 131
-12.3672 3.2188 1.04 199
-12.343800000000002 3.2129000000000003 -1.0381 134
-12.3594 3.2168 1.3369 111
-12.343800000000002 3.2129000000000003 -0.7393000000000001 51
-12.3594 3.2168 1.6377000000000002 162
-12.375 3.2207 -0.4448 174
-12.343800000000002 3.2129000000000003 1.9385 236
-12.335899999999999 3.2108999999999996 -0.1482 105
-12.2578 3.1914 2.2266 116
-8.0938 2.1387 -1.4697 163
-12.343800000000002 3.2598000000000003 0.1484 218
-8.8047 2.3242 -1.3818000000000001 105
-12.343800000000002 3.2598000000000003 0.44409999999999994 204
-10.2578 2.7089999999999996 -1.3594 94
-12.343800000000002 3.2598000000000003 0.7402 229
-12.335899999999999 3.2577999999999996 -1.3369 196
-12.3594 3.2637 1.04 185
-12.351600000000001 3.2598000000000003 -1.04 213
-12.3672 3.2637 1.3397999999999999 215
-12.335899999999999 3.2577999999999996 -0.7397 71
-12.343800000000002 3.2577999999999996 1.6366999999999998 221
-12.3828 3.2695 -0.44530000000000003 22
-12.351600000000001 3.2617000000000003 1.9413999999999998 49
-12.335899999999999 3.2558999999999996 -0.1483 138
-12.2578 3.2363 2.2266 248
-8.1016 2.1699 -1.4716999999999998 192
-12.343800000000002 3.3047000000000004 0.14859999999999998 16
-8.7891 2.3535 -1.3809 240
-12.343800000000002 3.3066000000000004 0.4446 216
-10.2422 2.7441000000000004 -1.3584 188
-12.351600000000001 3.3086 0.7417 101
-12.3125 3.2969 -1.3359 189
-12.351600000000001 3.3066000000000004 1.041 203
-12.3594 3.3086 -1.041 77
-12.3594 3.3086 1.3397999999999999 40
-12.335899999999999 3.3026999999999997 -0.7402 39
-12.343800000000002 3.3066000000000004 1.6387 225
-12.3594 3.3086 -0.4451 97
-12.351600000000001 3.3066000000000004 1.9434 161
-12.351600000000001 3.3066000000000004 -0.14859999999999998 82
-12.2578 3.2832 2.2305 195
-8.1094 2.2012 -1.4746000000000001 179
-12.351600000000001 3.3535000000000004 0.14880000000000002 175
-8.7656 2.3809 -1.3788999999999998 3
-12.335899999999999 3.3495999999999997 0.4446 89
-10.2422 2.7793 -1.3594 29
-12.351600000000001 3.3535000000000004 0.7417 16
-12.281199999999998 3.3358999999999996 -1.3330000000000002 21
-12.351600000000001 3.3535000000000004 1.042 232
-12.343800000000002 3.3516000000000004 -1.041 213
-12.3672 3.3574 1.3428 23
-12.343800000000002 3.3516000000000004 -0.7417 1
-12.343800000000002 3.3495999999999997 1.6396000000000002 11
-12.3594 3.3555 -0.44530000000000003 14
-12.343800000000002 3.3516000000000004 1.9434 170
-12.343800000000002 3.3516000000000004 -0.1487 22
-12.2578 3.3281 2.2324 237
-8.1094 2.2324 -1.4756 153
-12.351600000000001 3.4004000000000003 0.1489 52
-8.75 2.4102 -1.3779 69
-12.335899999999999 3.3945 0.4451 185
-10.2188 2.8125 -1.3574000000000002 88
-12.3594 3.4004000000000003 0.7432 149
-12.289100000000001 3.3827999999999996 -1.335 171
-12.343800000000002 3.3964999999999996 1.042 231
-12.343800000000002 3.3964999999999996 -1.042 161
-12.351600000000001 3.4004000000000003 1.3418 202
-12.351600000000001 3.4004000000000003 -0.7426999999999999 113
-12.343800000000002 3.3983999999999996 1.6416 229
-12.3594 3.4023000000000003 -0.4458 6
-12.335899999999999 3.3945 1.9443000000000001 33
-12.335899999999999 3.3945 -0.1487 160
-12.2656 3.375 2.2344 187
-8.1016 2.2598 -1.4756 154
-12.351600000000001 3.4473000000000003 0.149 188
-8.7578 2.4434 -1.3799000000000001 50
-12.335899999999999 3.4414 0.44530000000000003 91
-10.1797 2.8398000000000003 -1.3535 124
-12.343800000000002 3.4452999999999996 0.7432 79
-12.2578 3.4199 -1.3330000000000002 139
-12.3594 3.4492000000000003 1.0449 140
-12.335899999999999 3.4414 -1.042 221
-12.335899999999999 3.4414 1.3418 55
-12.351600000000001 3.4452999999999996 -0.7432 223
-12.343800000000002 3.4433999999999996 1.6425999999999998 183
-12.3672 3.4492000000000003 -0.4465 205
-12.343800000000002 3.4433999999999996 1.9472999999999998 139
-12.335899999999999 3.4414 -0.14880000000000002 95
-12.2578 3.4199 2.2363 52
-8.0859 2.2832 -1.4746000000000001 153
-12.343800000000002 3.4863 0.149 79
-8.7734 2.4766 -1.3838 1
-12.343800000000002 3.4863 0.44630000000000003 78
-10.1875 2.877 -1.3563999999999998 157
-12.335899999999999 3.4844 0.7432 250
-12.2578 3.4629000000000003 -1.334 230
-12.3594 3.4901999999999997 1.0449 227
-12.351600000000001 3.4863 -1.0449 255
-12.351600000000001 3.4882999999999997 1.3447 190
-12.343800000000002 3.4844 -0.7437 70
-12.335899999999999 3.4824 1.6436000000000002 58
-12.3672 3.4922000000000004 -0.447 133
-12.343800000000002 3.4863 1.9502000000000002 217
-12.335899999999999 3.4844 -0.149 216
-12.2578 3.4608999999999996 2.2383 179
-8.0938 2.3145 -1.4775 192
-12.343800000000002 3.5293 0.1492 61
-8.7344 2.498 -1.3788999999999998 76
-12.351600000000001 3.5332 0.447 61
-10.1797 2.9120999999999997 -1.3563999999999998 211
-12.343800000000002 3.5293 0.7441 3
-12.226600000000001 3.4961 -1.3319999999999999 122
-12.343800000000002 3.5312 1.0449 86
-12.3594 3.5332 -1.0459 199
-12.3594 3.5351999999999997 1.3466999999999998 32
-12.335899999999999 3.5293 -0.7441 116
-12.3281 3.5254000000000003 1.6436000000000002 146
-12.3594 3.5332 -0.447 136
-12.398399999999999 3.5469 1.96 91
-12.343800000000002 3.5293 -0.1492 142
-12.25 3.5039 2.2402 237
-8.0859 2.3457 -1.4775 236
-12.351600000000001 3.582 0.1495 217
-8.7266 2.5293 -1.3788999999999998 67
-12.343800000000002 3.5781 0.4468 172
-10.1797 2.9512 -1.3574000000000002 155
-12.351600000000001 3.582 0.7456 118
-12.210899999999999 3.5410000000000004 -1.3319999999999999 109
-12.335899999999999 3.5762 1.0449 176
-12.343800000000002 3.5781 -1.0459 167
-18.9844 5.5078 2.0742 18
-12.351600000000001 3.5801 -0.7451000000000001 194
-12.351600000000001 3.582 -0.4473 120
-12.789100000000001 3.707 2.0234 206
-12.351600000000001 3.582 -0.1495 82
-12.2656 3.5566000000000004 2.2441 203
-8.0938 2.377 -1.4794999999999998 70
-12.335899999999999 3.625 0.1495 88
-8.7031 2.5566 -1.3769999999999998 191
-12.3281 3.6211 0.4468 121
-10.1719 2.9882999999999997 -1.3584 0
-12.2031 3.5858999999999996 -1.3319999999999999 188
-12.3281 3.6211 -1.0459 239
-19.0781 5.605499999999999 2.0859 39
-12.3594 3.6289 -0.7465999999999999 210
-12.351600000000001 3.6289 -0.44780000000000003 78
-12.781199999999998 3.7539 2.0254 198
-12.343800000000002 3.625 -0.1495 5
-12.2578 3.6016000000000004 2.2461 73
-8.1016 2.4121 -1.4834 83
-8.6953 2.5879000000000003 -1.3769999999999998 214
-10.1406 3.0195 -1.3555000000000001 203
-12.1875 3.6289 -1.3319999999999999 82
-12.335899999999999 3.6719 -1.0479 111
-19.2188 5.7188 2.1016 227
-12.3906 3.6895 -0.7495 150
-12.664100000000001 3.7695 -0.4595 47
-17.9531 5.3438 2.8495999999999997 171
-19.2344 5.730499999999999 3.5332 240
-8.0703 2.4336 -1.4785 202
-8.6875 2.6191000000000004 -1.3769999999999998 35
-10.1406 3.0586 -1.3574000000000002 173
-12.148399999999999 3.6641000000000004 -1.3291 255
-12.6875 3.8242000000000003 -1.0781 6
-19.25 5.8047 2.1094 234
-19.8281 5.980499999999999 -1.2021 194
-17.9375 5.4062 2.8495999999999997 187
-28.9219 8.7188 -0.35229999999999995 101
-19.2812 5.8125 3.543 41
-8.0703 2.4629 -1.4805000000000001 254
-8.6562 2.6426 -1.3730000000000002 251
-10.1328 3.0938 -1.3574000000000002 183
-12.125 3.7031 -1.3281 72
-14.8906 4.5469 -1.2686 70
-18.9531 5.7890999999999995 2.0781 157
-19.7656 6.0352 -1.2002 162
-17.9062 5.4688 2.8476999999999997 186
-28.8906 8.8203 -0.35229999999999995 63
-19.375 5.9140999999999995 3.5645 209
-8.0859 2.498 -1.4844 99
-8.6328 2.668 -1.3711000000000002 201
-10.1172 3.1289 -1.3563999999999998 33
-12.1172 3.7461 -1.3281 21
-14.8594 4.5938 -1.2666 226
-19.0625 5.890599999999999 2.0918 106
-19.6562 6.074199999999999 -1.1943000000000001 119
-17.9688 5.5586 2.8613 253
-19.3438 5.980499999999999 3.5645 8
-8.0781 2.5273 -1.4853999999999998 10
-8.6094 2.6933999999999996 -1.3691 105
-10.0938 3.1582 -1.3555000000000001 155
-12.101600000000001 3.7851999999999997 -1.3281 25
-14.8203 4.6367 -1.2646 235
-19.0781 5.9688 2.0957 33
-19.5469 6.1172 -1.1895 118
-17.9531 5.6172 2.8632999999999997 81
-28.8281 9.0156 -0.35229999999999995 189
-19.3281 6.046900000000001 3.5645 139
-8.0703 2.5547 -1.4853999999999998 207
-8.6094 2.7245999999999997 -1.3700999999999999 88
-10.0859 3.1933999999999996 -1.3555000000000001 187
-23.3438 7.3828 1.4219 161
-12.1094 3.832 -1.3311000000000002 87
-23.4375 7.4140999999999995 2.0039 213
-14.7969 4.6836 -1.2637 101
-19.0312 6.019500000000001 2.0938 189
-19.4375 6.1523 -1.1836 86
-18.1094 5.730499999999999 2.4375 179
-18.0156 5.703099999999999 2.877 6
-19.2969 6.109400000000001 3.5625 121
-8.0703 2.5858999999999996 -1.4863 95
-8.6016 2.7558999999999996 -1.3711000000000002 255
-23.375 7.488300000000001 0.855 208
-10.0625 3.2245999999999997 -1.3535 213
-23.3281 7.4765999999999995 1.4228999999999998 5
-12.0781 3.8691000000000004 -1.3281 80
-14.8047 4.7422 -1.2656 194
-19.0312 6.0977 2.0957 85
-19.375 6.207000000000001 -1.1806999999999999 185
-18.3594 5.8828 2.4746 173
-23.4375 7.511699999999999 -0.8573999999999999 248
-18.0 5.765599999999999 2.875 13
-19.5469 6.265599999999999 3.6113 13
-8.0703 2.6172000000000004 -1.4883000000000002 5
-8.5781 2.7832 -1.3691 7
-23.3906 7.5859000000000005 0.8569 65
-10.0625 3.2637 -1.3555000000000001 156
-23.3438 7.5703 1.4247999999999998 221
-12.0625 3.9120999999999997 -1.3281 22
-93.25 30.25 8.0078 75
-14.7344 4.7812 -1.2617 212
-19.3906 6.2890999999999995 -1.1836 74
-18.0625 5.855499999999999 2.4355 187
-23.3906 7.5859000000000005 -0.8569 195
-17.9375 5.8164 2.8691000000000004 99
-23.4219 7.5938 -0.2871 51
-16.8125 5.453099999999999 3.1074 224
-8.0781 2.6504000000000003 -1.4912 28
-8.5625 2.8105 -1.3672 201
-10.0391 3.2949 -1.3535 248
-12.0547 3.957 -1.3291 247
-14.6875 4.8203 -1.2588 205
-19.3125 6.3359000000000005 -1.1797 20
-17.9844 5.9023 2.4297 151
-16.8438 5.5273 2.6973000000000003 30
-19.3281 6.3438 3.5801 29
-8.0859 2.6855 -1.4950999999999999 145
-8.5547 2.8418 -1.3681999999999999 249
-10.0312 3.332 -1.3544999999999998 14
-23.3281 7.7461 1.4277000000000002 224
-12.0547 4.0039 -1.3300999999999998 161
-14.6719 4.8711 -1.2588 85
-19.5625 6.4961 2.1621 249
-19.2656 6.3984000000000005 -1.1787 162
-18.125 6.019500000000001 2.4512 172
-16.7812 5.574199999999999 2.6895 12
-17.5625 5.832000000000001 3.2558999999999996 2
-8.0703 2.7108999999999996 -1.4931999999999999 253
-93.25 31.3281 1.1494 159
-8.5469 2.8711 -1.3681999999999999 134
-9.9922 3.3574 -1.3506 44
-12.0547 4.0508 -1.3319999999999999 240
-14.6328 4.9141 -1.2568000000000001 197
-19.5312 6.5586 2.1602 35
-19.2031 6.449199999999999 -1.1758 217
-18.0 6.046900000000001 2.4355 211
-16.7656 5.6328 2.6895 151
-16.7969 5.644500000000001 3.1191000000000004 56
-8.0625 2.7401999999999997 -1.4941 188
-8.5312 2.9004000000000003 -1.3672 47
-9.9922 3.3964999999999996 -1.3525 135
-12.0547 4.0977 -1.3330000000000002 100
-14.601600000000001 4.9648 -1.2559 8
-19.6875 6.6875 2.1797 129
-19.125 6.5 -1.1729 210
-18.2344 6.1953 2.4707 213
-16.7812 5.703099999999999 2.6973000000000003 181
-16.7812 5.703099999999999 3.1191000000000004 163
-8.0703 2.7733999999999996 -1.4971 211
-8.5234 2.9297000000000004 -1.3672 67
-9.9766 3.4276999999999997 -1.3516 30
-12.039100000000001 4.1406 -1.334 25
-14.5703 5.0078 -1.2549 118
-19.5625 6.7265999999999995 2.1699 81
-19.0625 6.5547 -1.1699 187
-17.2031 5.9140999999999995 2.334 61
-16.7031 5.7422 3.1074 144
-8.5078 2.957 -1.3672 134
-9.9766 3.4688 -1.3535 112
-12.031199999999998 4.1797 -1.334 4
-14.539100000000001 5.0547 -1.2539 6
-19.9844 6.949199999999999 2.2188 124
-18.9531 6.5898 -1.165 102
-17.3125 6.015599999999999 2.3516 72
-21.9062 7.613300000000001 -0.8081 81
-16.6719 5.796900000000001 3.1055 219
-8.5469 3.002 -1.375 236
-10.0625 3.5370999999999997 -1.3672 61
-12.039100000000001 4.2305 -1.3369 248
-14.4922 5.0938 -1.251 62
-19.5 6.8515999999999995 2.168 28
-18.9531 6.6602 -1.167 133
-17.3594 6.0977 2.3613 101
-17.75 6.238300000000001 2.8613 175
-16.9531 5.957000000000001 3.1601999999999997 104
-4.5547 1.6172 -0.8447 55
-4.5352 1.6113 -0.7275 76
-4.6367 1.6465 -0.6274000000000001 113
-14.476600000000001 5.140599999999999 -1.251 235
-19.4844 6.917999999999999 2.168 98
-19.5156 6.9297 -1.2021 75
-18.0469 6.4102 2.459 10
-17.7188 6.292999999999999 2.8613 54
-16.7656 5.953099999999999 3.1289 128
-4.4844 1.6113 -0.7202 204
-4.543 1.6328 -0.6157 87
-4.7656 1.7119 -0.5278 183
-14.4453 5.1875 -1.25 52
-17.6719 6.3477 1.9687999999999999 30
-19.4688 6.9961 -1.2012 31
-18.125 6.5078 2.4707 125
-17.7031 6.355499999999999 2.8613 66
-16.9062 6.0703 3.1582 37
-4.332 1.5741999999999998 -0.8057 40
-4.418 1.6044999999999998 -0.71 87
-4.4609 1.6200999999999999 -0.605 145
-4.5938 1.6688999999999998 -0.5093 129
-14.3828 5.2227 -1.2461 5
-17.6406 6.4062 1.9687999999999999 210
-19.3438 7.0273 -1.1943000000000001 252
-19.6406 7.136699999999999 2.6836 78
-19.2188 6.980499999999999 3.1132999999999997 235
-17.0156 6.1836 3.1855 250
-4.2852 1.5732 -0.7974 26
-4.3242 1.5869 -0.6958 166
-4.3828 1.6094 -0.5952000000000001 222
-4.4727 1.6425999999999998 -0.4963 80
-14.4531 5.3047 -1.2539 127
-17.6719 6.4922 1.9746000000000001 188
-19.2969 7.0859000000000005 -1.1934 81
-19.7031 7.234400000000001 2.6952999999999996 200
-17.1094 6.2852 2.7733999999999996 201
-17.0312 6.25 3.1914 174
-4.2461 1.5752000000000002 -0.7909999999999999 58
-4.2695 1.584 -0.688 241
-4.3164 1.6016 -0.5864 81
-4.457 1.6543 -0.4951 251
-4.582 1.7002000000000002 -0.39549999999999996 180
-19.2969 7.1640999999999995 -1.1953 4
-19.5 7.238300000000001 2.6699 155
-18.6719 6.9297 3.0312 106
-23.0781 8.5703 -0.2871 85
-4.2031 1.5762 -0.7842 62
-4.2188 1.5819999999999999 -0.6801999999999999 236
-4.2344 1.5878999999999999 -0.5761999999999999 62
-4.3555 1.6328 -0.4841 166
-8.75 3.2812 0.7598 144
-4.5664 1.7128999999999999 -0.3948 108
-8.7422 3.2812 0.9771 211
-19.4062 7.2773 -1.2031 187
-8.7266 3.2733999999999996 1.1934 64
-23.0625 8.6484 -0.2871 190
-8.6328 3.2382999999999997 1.6181999999999999 224
-4.1445 1.5713 -0.7739 122
-4.2188 1.5996000000000001 -0.6816 41
-4.2305 1.6035 -0.5761999999999999 152
-4.2695 1.6191 -0.4753 229
-8.7109 3.3026999999999997 0.7573000000000001 112
-4.4883 1.7012 -0.3884 166
-8.6484 3.2793 0.9678 230
-4.5859 1.7393 -0.2827 233
-8.6172 3.2676 1.1806999999999999 139
-23.0938 8.75 -0.2878 85
-8.5703 3.25 1.6094 37
-4.1133 1.5741999999999998 -0.769 53
-4.1914 1.6044999999999998 -0.6777 3
-69.6875 26.6719 2.6035000000000004 146
-4.2148 1.6133000000000002 -0.5752 51
-8.625 3.3026999999999997 0.5347 45
-4.207 1.6103999999999998 -0.46880000000000005 30
-8.6484 3.3105 0.7524 100
-4.4102 1.6875 -0.3818 22
-8.6094 3.2969 0.9643999999999999 186
-4.582 1.7538999999999998 -0.2827 126
-8.5781 3.2832 1.1758 109
-21.8438 8.3672 -0.8154 17
-8.6016 3.2949 1.3984 187
-8.6328 3.3066000000000004 -0.1072 145
-8.5781 3.2851999999999997 1.6122999999999998 85
-4.1016 1.5859 -0.7676000000000001 201
-8.6875 3.3594 0.10800000000000001 120
-4.1875 1.6191 -0.6781999999999999 27
-4.168 1.6113 -0.5693 2
-8.5938 3.3223000000000003 0.5332 129
-4.1797 1.6152000000000002 -0.46630000000000005 189
-8.5938 3.3223000000000003 0.7490000000000001 111
-4.3516 1.6825999999999999 -0.3774 26
-8.6172 3.332 0.9668000000000001 77
-4.5469 1.7578 -0.2808 161
-8.5703 3.3125 1.1758 164
-8.6641 3.3516000000000004 -0.32280000000000003 62
-8.6016 3.3262 1.4003999999999999 35
-8.6016 3.3262 -0.1069 158
-8.5781 3.3164 1.6143 65
-4.0703 1.5908000000000002 -0.7626999999999999 11
-8.5938 3.3594 0.10710000000000001 161
-4.125 1.6133000000000002 -0.6689 197
-8.5781 3.3516000000000004 0.31980000000000003 65
-4.0781 1.5947 -0.5581 67
-8.5938 3.3574 0.5342 202
-4.1406 1.6191 -0.4629 167
-8.5703 3.3516000000000004 0.748 217
-4.2734 1.6709 -0.3711 58
-8.5859 3.3574 0.9643999999999999 164
-4.4766 1.75 -0.27690000000000003 55
-8.5781 3.3516000000000004 1.1787 240
-4.5859 1.7919999999999998 -0.1702 159
-8.5703 3.3516000000000004 -0.10679999999999999 123
-8.6016 3.3613 1.6200999999999999 127
-4.0312 1.5918 -0.7568 148
-8.5781 3.3887 0.107 64
-4.0898 1.6162 -0.6646 201
-8.5781 3.3867000000000003 0.32030000000000003 90
-4.0 1.5800999999999998 -0.5478999999999999 130
-8.5703 3.3848000000000003 0.5332 108
-4.0703 1.6074000000000002 -0.45530000000000004 28
-8.5781 3.3887 0.75 233
-4.25 1.6777000000000002 -0.3696 77
-8.6094 3.3983999999999996 0.9678 151
-4.4062 1.7402000000000002 -0.2729 37
-8.6094 3.4004000000000003 1.1855 183
-4.5781 1.8086000000000002 -0.1702 176
-18.4844 7.300800000000001 3.0254000000000003 25
-8.5547 3.3789 -0.1067 60
-17.6406 6.9688 3.3379000000000003 215
-3.9766000000000004 1.5869 -0.7476 249
-8.5938 3.4276999999999997 0.1072 67
-4.043 1.6133000000000002 -0.6572 194
-8.5781 3.4219 0.3208 38
-3.9492000000000003 1.5762 -0.5415 209
-8.5781 3.4219 0.5347 104
-4.0391 1.6113 -0.4524 209
-8.6406 3.4473000000000003 0.7563 74
-4.2148 1.6816 -0.3669 118
-4.5039 1.7978999999999998 -0.16760000000000003 25
-18.9844 7.5703 3.1094 138
-8.5703 3.4199 -0.107 17
-17.6094 7.0273 3.3358999999999996 248
-3.9589999999999996 1.5957 -0.7451000000000001 76
-8.5859 3.4589999999999996 0.1073 202
-17.8438 7.1953 0.6704000000000001 126
-3.9297000000000004 1.584 -0.5396 113
-17.4062 7.011699999999999 1.0889 7
-4.0 1.6122999999999998 -0.4487 141
-4.1406 1.6688999999999998 -0.3611 234
-4.4141 1.7793 -0.16440000000000002 42
-19.6875 7.9375 3.2324 144
-8.6328 3.4805 -0.10800000000000001 84
-19.4219 7.828099999999999 3.6855 143
-3.9336 1.6006 -0.7412000000000001 100
-17.8594 7.265599999999999 0.22460000000000002 75
-17.8281 7.25 0.6698999999999999 68
-3.918 1.5937999999999999 -0.5386 251
-17.4062 7.0859000000000005 1.0908 14
-3.9608999999999996 1.6113 -0.4448 52
-4.0977 1.6680000000000001 -0.3579 17
-8.8594 3.6055 1.2256 0
-4.3555 1.7725 -0.1625 219
-4.5742 1.8613 -0.056900000000000006 40
-18.5312 7.5390999999999995 3.5214999999999996 82
-17.9375 7.3711 0.226 26
-3.9531 1.624 -0.6455 54
-17.8281 7.324199999999999 0.6714 248
-3.875 1.5918 -0.5332 91
-17.8125 7.3164 1.1181999999999999 171
-3.9414 1.6191 -0.44310000000000005 98
-8.9219 3.6641000000000004 0.7842 231
-4.0781 1.6747999999999998 -0.3564 46
-8.7422 3.5898000000000003 0.9883 109
-8.8125 3.6191000000000004 1.2197 224
-4.293 1.7627000000000002 -0.1602 96
-4.5039 1.8506 -0.056100000000000004 32
-16.5625 6.800800000000001 3.1504000000000003 30
-3.8574 1.6016 -0.7290000000000001 197
-3.9336 1.6328 -0.6431 201
-17.9062 7.4375 0.6753 226
-3.8242000000000003 1.5878999999999999 -0.5268999999999999 100
-17.8906 7.4297 1.125 56
-3.9160000000000004 1.626 -0.4412 150
-17.875 7.417999999999999 1.5771000000000002 137
-4.0078 1.6631 -0.3506 112
-8.7109 3.6151999999999997 0.9863 232
-8.7969 3.6543 1.2197 19
-4.2539 1.7666 -0.1591 75
-17.3594 7.2109000000000005 2.8613 112
-4.4062 1.8300999999999998 -0.054900000000000004 230
-16.5625 6.8789 3.1543 112
-3.832 1.6074000000000002 -0.7256 204
-3.8964999999999996 1.6338 -0.6377 164
-18.0156 7.550800000000001 0.6801999999999999 1
-3.7812 1.5859 -0.522 212
-17.5156 7.3438 1.1025 27
-3.8711 1.6230000000000002 -0.4365 222
-17.8906 7.5039 1.5811000000000002 125
-8.7109 3.6523000000000003 0.9878 163
-8.7578 3.6719 1.2158 44
-4.2109 1.7666 -0.1577 153
-17.3438 7.2773 2.8632999999999997 8
-4.3516 1.8252000000000002 -0.054299999999999994 118
-16.5312 6.9336 3.1543 2
-3.8047000000000004 1.6094 -0.7206999999999999 134
-3.8691000000000004 1.6366999999999998 -0.6343 199
-3.7695 1.5947 -0.521 60
-17.8125 7.5352 1.123 53
-3.8281 1.6200999999999999 -0.4324 101
-18.0469 7.636699999999999 1.5977000000000001 13
-3.9941000000000004 1.6894999999999998 -0.3506 174
-8.7109 3.6855 0.9897 107
-8.7734 3.7129000000000003 1.2197 85
-4.1797 1.7686000000000002 -0.1567 0
-19.9688 8.4453 3.3007999999999997 223
-4.2852 1.8125 -0.0535 243
-16.4062 6.9414 3.1348000000000003 14
-3.7891000000000004 1.6181999999999999 -0.7192000000000001 220
-4.5625 1.9472999999999998 0.0571 155
-3.8339999999999996 1.6377000000000002 -0.6294 151
-3.7558999999999996 1.6035 -0.52 175
-17.8906 7.640599999999999 1.1299 210
-3.8164 1.6288999999999998 -0.4314 81
-68.5 29.2344 6.078099999999999 84
-8.7188 3.7226999999999997 0.9922 236
-8.7109 3.7188 1.2129 79
-4.125 1.7616999999999998 -0.1549 22
-19.9375 8.5078 3.2988 233
-4.2383 1.8096 -0.053 85
-16.375 6.988300000000001 3.1308999999999996 224
-3.7539 1.6200999999999999 -0.7134 71
-4.5547 1.9658000000000002 0.0571 140
-3.8105 1.6444999999999999 -0.6265 145
-68.625 29.5938 2.6074 192
-3.6855 1.5908000000000002 -0.5107 140
-68.5 29.5625 4.3398 187
-3.7870999999999997 1.6347999999999998 -0.429 176
-3.9824 1.7187999999999999 -0.3506 231
-8.7188 3.7598000000000003 0.9932 113
-8.6953 3.752 1.2129 97
-4.1211 1.7772999999999999 -0.1549 102
-19.9219 8.6016 3.3026999999999997 125
-4.1875 1.8066 -0.0524 33
-16.3125 7.0390999999999995 3.125 176
-3.7207 1.6200999999999999 -0.708 248
-4.4375 1.9336000000000002 0.0557 158
-3.7793 1.6465 -0.6221 53
-3.6952999999999996 1.6094 -0.5132 249
-66.1875 28.8438 4.1992 64
-3.7637 1.6396000000000002 -0.42700000000000005 178
-3.9297000000000004 1.7119 -0.3464 115
-16.8125 7.324199999999999 2.3535 207
-4.1133 1.7919999999999998 -0.1549 250
-19.8594 8.6484 3.2949 4
-4.1289 1.7988 -0.0518 18
-19.5 8.4922 3.7422000000000004 179
-3.7148000000000003 1.6338 -0.708 164
-4.3867 1.9297 0.055099999999999996 222
-3.7441000000000004 1.6465 -0.6172 68
-3.6620999999999997 1.6103999999999998 -0.5093 154
-65.75 28.9062 4.1758 207
-3.7441000000000004 1.6465 -0.4253 45
-16.8125 7.3984000000000005 2.3574 206
-4.0586 1.7852000000000001 -0.1531 49
-19.7969 8.7109 3.2910000000000004 71
-4.0977 1.8018 -0.051500000000000004 253
-19.7969 8.7031 3.8066000000000004 181
-4.3633 1.9375 0.054900000000000004 208
-3.7324 1.6572 -0.6162 52
-56.4688 25.0625 2.1562 91
-3.6504000000000003 1.6200999999999999 -0.5083 107
-65.0625 28.875 4.1367 74
-3.6895 1.6387 -0.41969999999999996 199
-3.8476999999999997 1.7080000000000002 -0.34009999999999996 229
-16.7812 7.4453 2.3555 16
-4.0312 1.79 -0.1522 177
-19.75 8.7734 3.2891000000000004 245
-4.0898 1.8163999999999998 -0.051500000000000004 149
-3.6543 1.6377000000000002 -0.6987000000000001 138
-4.2656 1.9111000000000002 0.0537 231
-56.5 25.3125 2.1602 203
-3.6387 1.6309 -0.5073 244
-64.375 28.8594 4.1016 74
-3.6952999999999996 1.6562000000000001 -0.4211 91
-3.7754000000000003 1.6924000000000001 -0.3342 125
-16.7969 7.5273 2.3633 203
-4.0508 1.8154 -0.051 74
-17.0625 7.6484000000000005 3.2891000000000004 146
-3.6367000000000003 1.6444999999999999 -0.6962999999999999 80
-4.2109 1.9053 0.053200000000000004 202
-3.6757999999999997 1.6631 -0.6089 124
-56.4688 25.5469 2.1621 209
-3.5976999999999997 1.6279 -0.5024000000000001 105
-63.6562 28.7969 4.0625 196
-3.6426 1.6475 -0.4155 8
-3.8066000000000004 1.7216999999999998 -0.33759999999999996 43
-16.8906 7.640599999999999 1.9434 42
-16.7031 7.5547 2.3516 115
-3.957 1.79 -0.1499 56
-4.0469 1.8300999999999998 -0.051 243
-19.5469 8.8438 3.7773000000000003 74
-3.6055 1.6444999999999999 -0.6914 148
-4.2031 1.9180000000000001 0.053200000000000004 188
-3.6562 1.6680000000000001 -0.6064 30
-56.4688 25.7656 2.166 127
-3.5702999999999996 1.6279 -0.4993 173
-63.7188 29.0625 4.0703 228
-3.6151999999999997 1.6494 -0.4131 155
-3.7656 1.7178 -0.3342 32
-16.8281 7.675800000000001 1.9394999999999998 106
-16.625 7.582000000000001 2.3457 181
-3.9512 1.8027000000000002 -0.1499 2
-17.6094 8.0312 2.9452999999999996 32
-3.9766000000000004 1.8144999999999998 -0.050199999999999995 180
-19.5312 8.9141 3.7793 32
-3.5410000000000004 1.6299000000000001 -0.6797 106
-4.1094 1.8906 0.052000000000000005 81
-3.6308999999999996 1.6699000000000002 -0.603 119
-3.5526999999999997 1.6347999999999998 -0.4978 24
-63.7188 29.3125 4.0781 70
-3.6132999999999997 1.6631 -0.41359999999999997 183
-3.7949 1.7461000000000002 -0.33759999999999996 166
-16.7656 7.7188 1.9355000000000002 25
-16.6094 7.644500000000001 2.3477 121
-3.8945 1.7919999999999998 -0.1479 6
-16.8906 7.7734000000000005 2.8301 23
-3.8945 1.7919999999999998 -0.0493 122
-19.4844 8.9688 3.7754000000000003 205
-3.498 1.625 -0.6724 162
-4.1016 1.9053 0.052000000000000005 214
-3.5995999999999997 1.6719 -0.5986 79
-3.5391000000000004 1.6444999999999999 -0.4963 229
-63.1562 29.3438 4.0508 234
-3.5723000000000003 1.6591999999999998 -0.4094 55
-62.9375 29.2344 5.6640999999999995 211
-3.6836 1.7119 -0.3281 204
-16.8906 7.8477 1.9531 126
-16.6406 7.730499999999999 2.3555 187
-17.5156 8.1406 2.9395 123
-3.9062 1.8154 -0.0495 46
-19.4219 9.0234 3.7695 131
-3.4707 1.6269999999999998 -0.6685 107
-4.0938 1.9199000000000002 0.052000000000000005 63
-3.5254000000000003 1.6522999999999999 -0.5869 48
-4.0586 1.9033000000000002 0.1548 143
-3.5176 1.6494 -0.49439999999999995 167
-62.625 29.3594 4.0195 32
-3.5547000000000004 1.6669999999999998 -0.408 184
-3.6562 1.7147999999999999 -0.3262 90
-17.25 8.0859 1.9980000000000002 208
-3.8827999999999996 1.8203 -0.1479 28
-17.4531 8.1875 2.9336 174
-3.8827999999999996 1.8203 -0.0493 254
-17.9219 8.4062 3.4844 106
-3.4531 1.6338 -0.6665000000000001 33
-4.0859 1.9336000000000002 0.052000000000000005 231
-3.4726999999999997 1.6425999999999998 -0.5791 119
-4.0117 1.8984 0.1532 198
-3.4901999999999997 1.6513999999999998 -0.491 242
-3.5449 1.6777000000000002 -0.4077 160
-3.6172000000000004 1.7119 -0.3232 96
-17.2656 8.1719 2.0039 12
-17.5312 8.2969 2.9512 163
-3.875 1.834 -0.0493 162
-17.875 8.4609 3.4805 48
-3.4276999999999997 1.6357 -0.6620999999999999 245
-4.082 1.9482 0.052000000000000005 73
-3.4589999999999996 1.6513999999999998 -0.5781000000000001 214
-3.9668 1.8936000000000002 0.1517 53
-3.4648000000000003 1.6533000000000002 -0.48829999999999996 158
-3.5214999999999996 1.6816 -0.40549999999999997 4
-3.627 1.7313999999999998 -0.3245 210
-17.2969 8.2578 2.0098 12
-18.4531 8.8047 3.1094 221
-3.7793 1.8037 -0.0481 77
-17.4844 8.3516 3.4101999999999997 19
-3.4062 1.6416 -0.6592 148
-4.0078 1.9316 0.051100000000000007 227
-3.4395 1.6572 -0.5757 12
-3.9062 1.8818000000000001 0.1495 140
-3.4551 1.665 -0.488 111
-3.5156 1.6943000000000001 -0.40549999999999997 110
-3.6601999999999997 1.7637 -0.3281 106
-17.2812 8.3281 2.0117 219
-18.5 8.9219 3.125 94
-3.7714999999999996 1.8174000000000001 -0.048 221
-17.4531 8.4062 3.4082 185
-3.4043 1.6553 -0.6602 107
-3.9766000000000004 1.9336000000000002 0.0508 233
-3.4219 1.6641 -0.5737 252
-3.9160000000000004 1.9043 0.1503 83
-3.4551 1.6797 -0.4888 241
-3.4805 1.6924000000000001 -0.4023 24
-3.5781 1.7402000000000002 -0.32130000000000003 219
-18.5 8.9922 3.1289 133
-3.7637 1.8300999999999998 -0.048 2
-17.4844 8.5 3.4199 147
-3.373 1.6553 -0.6553 247
-3.9707 1.9472999999999998 0.0508 99
-3.3964999999999996 1.666 -0.5703 206
-3.8242000000000003 1.876 0.147 65
-3.4238 1.6797 -0.4851 86
-3.4745999999999997 1.7050999999999998 -0.4023 94
-3.5723000000000003 1.7519999999999998 -0.32130000000000003 94
-18.4219 9.0312 3.1211 191
-3.7577999999999996 1.8437999999999999 -0.048 106
-17.375 8.5234 3.4062 44
-3.3594 1.6621000000000001 -0.6533 14
-3.3867000000000003 1.6758000000000002 -0.5698 252
-3.7891000000000004 1.875 0.1459 144
-3.4082 1.6865 -0.4836 123
-3.4551 1.71 -0.4006 38
-3.5938 1.7793 -0.324 216
-58.7188 29.0625 6.8828 18
-3.752 1.8563999999999998 -0.048 58
-17.4375 8.6328 3.4238 14
-3.332 1.6621000000000001 -0.6494 229
-3.373 1.6825999999999999 -0.5684 81
-3.7617000000000003 1.876 0.145 132
-3.3808999999999996 1.6865 -0.4807 138
-3.4276999999999997 1.71 -0.3979 229
-3.5254000000000003 1.7578 -0.3181 175
-58.2188 29.0312 6.832000000000001 173
-3.7461 1.8681999999999999 -0.048 39
-18.9375 9.4453 3.7226999999999997 166
-3.3105 1.665 -0.6459999999999999 2
-3.3516000000000004 1.6855000000000002 -0.5654 8
-3.752 1.8866999999999998 0.1449 186
-3.3535000000000004 1.6865 -0.47729999999999995 136
-3.4043 1.7119 -0.396 65
-3.5195 1.7694999999999999 -0.3181 180
-57.6875 29.0156 6.7812 55
-3.7401999999999997 1.8809 -0.048 203
-18.8438 9.4766 3.7129000000000003 106
-3.3007999999999997 1.6758000000000002 -0.645 134
-3.3301 1.6913999999999998 -0.563 186
-3.7089999999999996 1.8828 0.1434 204
-3.3574 1.7041 -0.4788 172
-3.3867000000000003 1.7197 -0.3948 134
-3.5117000000000003 1.7832 -0.3181 131
-57.2812 29.0938 6.75 138
-3.6426 1.8496000000000001 -0.046900000000000004 105
-18.7031 9.4922 3.6895 229
-3.2832 1.6816 -0.6431 140
-3.3066000000000004 1.6934 -0.5600999999999999 197
-3.6875 1.8887 0.1429 184
-3.3358999999999996 1.709 -0.4768 114
-57.25 29.3125 3.7401999999999997 125
-3.3808999999999996 1.7313999999999998 -0.3948 220
-57.25 29.3281 6.7578 151
-18.5781 9.5156 3.6738 142
-3.2714999999999996 1.6885 -0.6416 128
-3.3047000000000004 1.7061000000000002 -0.5605 204
-3.6327999999999996 1.875 0.141 133
-3.3183999999999996 1.7138999999999998 -0.47509999999999997 201
-45.25 23.3594 2.9589999999999996 92
-3.3651999999999997 1.7372999999999998 -0.3936 101
-55.5938 28.7031 6.5703 239
-55.4375 28.625 8.0156 116
-3.6308999999999996 1.875 -0.046900000000000004 101
-3.252 1.6924000000000001 -0.6392 215
-3.2832 1.709 -0.5581 197
-3.6191000000000004 1.8838 0.1406 101
-3.293 1.7147999999999999 -0.4722 43
-57.25 29.8125 3.7539 166
-3.3457 1.7412 -0.3918 165
-13.9453 7.261699999999999 1.2803 92
-13.9375 7.2539 1.6465 168
-55.125 28.6875 7.988300000000001 197
-55.5312 28.9062 9.5391 52
-3.5351999999999997 1.8408000000000002 -0.045700000000000005 3
-3.2305 1.6972999999999998 -0.6362 186
-3.2695 1.7178 -0.5566 139
-3.6074 1.8955000000000002 0.1405 254
-3.2793 1.7216999999999998 -0.47090000000000004 0
-55.9688 29.4062 3.6757999999999997 43
-3.332 1.75 -0.3909 196
-13.9531 7.328099999999999 1.2832 193
-54.875 28.8281 7.9688 179
-55.25 29.0312 9.5078 16
-3.6172000000000004 1.8994 -0.046900000000000004 94
-3.2108999999999996 1.7012 -0.6333 130
-3.2637 1.7285 -0.5566 227
-3.5976999999999997 1.9062000000000001 0.1404 18
-3.2558999999999996 1.7246000000000001 -0.4683 166
-44.3438 23.5 2.918 240
-3.3007999999999997 1.7480000000000002 -0.38789999999999997 206
-13.9375 7.3828 1.2852000000000001 177
-3.4805 1.8437999999999999 -0.3181 90
-54.8125 29.0312 7.9727 6
-55.1875 29.2344 9.5156 111
-55.2812 29.2812 11.023399999999999 203
-3.2089999999999996 1.7147999999999999 -0.6343 106
-3.2305 1.7266 -0.5522 30
-3.5645 1.9053 0.1393 178
-3.252 1.7383000000000002 -0.46880000000000005 209
-3.2870999999999997 1.7568000000000001 -0.3872 160
-13.9297 7.4453 1.2871000000000001 213
-54.6562 29.2031 7.9648 22
-54.9062 29.3438 9.4922 89
-3.5156 1.8788999999999998 -0.045700000000000005 239
-55.0625 29.4219 11.0 33
-3.1992000000000003 1.7236000000000002 -0.6333 67
-3.2051 1.7266 -0.5483 226
-3.5351999999999997 1.9053 0.1384 222
-3.2285000000000004 1.7402000000000002 -0.46630000000000005 98
-3.2851999999999997 1.7705000000000002 -0.38770000000000004 248
-13.9375 7.511699999999999 1.2891 81
-13.9453 7.515599999999999 1.6602000000000001 55
-54.5938 29.4219 7.9688 188
-54.7812 29.5156 9.4844 19
-3.5077999999999996 1.8906 -0.045700000000000005 93
-54.9688 29.625 11.0078 84
-3.1738 1.7246000000000001 -0.6294 101
-3.2108999999999996 1.7441 -0.5508 118
-3.5273000000000003 1.916 0.1383 240
-3.2089999999999996 1.7431999999999999 -0.4644 9
-3.2754000000000003 1.7793 -0.3872 140
-13.9453 7.574199999999999 1.2930000000000001 60
-13.9297 7.5664 1.6621000000000001 69
-54.4688 29.5938 7.9688 243
-54.8125 29.7656 9.5 1
-3.502 1.9022999999999999 -0.045700000000000005 248
-3.1387 1.7187999999999999 -0.6235 0
-3.1836 1.7431999999999999 -0.5468999999999999 132
-3.5137 1.9238 0.1381 29
-3.1855 1.7441 -0.4617 234
-13.9453 7.636699999999999 0.9224 128
-3.248 1.7783000000000002 -0.3848 211
-13.9531 7.640599999999999 1.2959 191
-13.9453 7.6328 1.666 218
-54.4062 29.7812 7.9727 36
-54.9062 30.0625 9.5391 149
-3.4961 1.9141 -0.045700000000000005 106
-3.1387 1.7324000000000002 -0.6245 144
-3.1719 1.751 -0.5459 92
-3.4922000000000004 1.9277000000000002 0.1376 109
-3.1973000000000003 1.7646000000000002 -0.4644 13
-13.9531 7.699199999999999 0.9243000000000001 176
-3.2305 1.7832 -0.3833 242
-13.9453 7.699199999999999 1.2978999999999998 86
-13.9531 7.703099999999999 1.6709 152
-13.906199999999998 7.675800000000001 2.0371 207
-3.4901999999999997 1.9258000000000002 -0.045700000000000005 228
-3.1367000000000003 1.7461000000000002 -0.6255 38
-3.1582 1.7568000000000001 -0.5444 74
-3.4824 1.9375 0.1373 235
-3.1776999999999997 1.7675999999999998 -0.4622 183
-13.9453 7.761699999999999 0.9258 240
-3.2344 1.7997999999999998 -0.3845 88
-13.9453 7.7578 1.2997999999999998 98
-13.960899999999999 7.765599999999999 1.6747999999999998 130
-54.5312 30.3281 8.0234 137
-3.4824 1.9375 -0.045700000000000005 170
-3.1719 1.7803 -0.6343 7
-3.4414 1.9306999999999999 0.136 137
-3.1895 1.79 -0.46509999999999996 226
-13.960899999999999 7.832000000000001 0.9287000000000001 175
-3.2207 1.8075999999999999 -0.3835 160
-13.9453 7.828099999999999 1.3027000000000002 136
-13.960899999999999 7.832000000000001 1.6777000000000002 175
-13.875 7.7852 2.041 94
-3.3906 1.9022999999999999 -0.13390000000000002 198
-3.4766000000000004 1.9502000000000002 -0.045700000000000005 90
-3.1562 1.7852000000000001 -0.6318 12
-3.1776999999999997 1.7978999999999998 -0.5503 89
-3.4199 1.9346 0.1354 223
-13.9531 7.894500000000001 0.9301999999999999 126
-3.2051 1.8125 -0.3823 15
-13.9453 7.890599999999999 1.3056999999999999 122
-13.9375 7.886699999999999 1.6787 241
-3.3827999999999996 1.9131 -0.0446 215
-3.1483999999999996 1.7959 -0.6318 26
-3.1738 1.8105000000000002 -0.5508 104
-3.4141000000000004 1.9472999999999998 0.1354 179
-13.9375 7.949199999999999 0.9312 55
-3.168 1.8075999999999999 -0.3789 99
-13.9453 7.957000000000001 1.3075999999999999 222
-3.2266000000000004 1.8408000000000002 -0.2998 9
-13.9531 7.957000000000001 1.6836000000000002 147
-3.375 1.9247999999999998 -0.0446 47
-3.1367000000000003 1.8037 -0.6304 32
-3.1367000000000003 1.8037 -0.5454 44
-3.4082 1.96 0.1355 33
-3.1601999999999997 1.8174000000000001 -0.46340000000000003 43
-3.1601999999999997 1.8174000000000001 -0.3787 222
-3.1836 1.8300999999999998 -0.2961 186
-12.2422 7.0390999999999995 1.8115 166
-3.3711 1.9375 -0.13390000000000002 65
-3.4551 1.9872999999999998 -0.045700000000000005 116
-12.1875 7.011699999999999 2.4727 64
-3.1113 1.8037 -0.627 176
-3.1113 1.8037 -0.542 68
-3.3691000000000004 1.9531 0.13419999999999999 73
-3.1483999999999996 1.8252000000000002 -0.3779 234
-3.1601999999999997 1.8319999999999999 -0.29469999999999996 36
-3.2108999999999996 1.8613 -0.2133 253
-12.210899999999999 7.078099999999999 1.8105000000000002 177
-3.4492000000000003 1.999 -0.045700000000000005 218
-11.835899999999999 6.859400000000001 2.4043 114
-3.0879000000000003 1.8047 -0.623 148
-3.1055 1.8144999999999998 -0.542 83
-3.3535000000000004 1.959 0.1338 66
-12.2422 7.1523 0.8223 24
-3.1483999999999996 1.8397999999999999 -0.3787 118
-3.1504000000000003 1.8418 -0.2944 76
-3.1757999999999997 1.8555000000000001 -0.2113 11
-12.210899999999999 7.136699999999999 1.8135 9
-3.3574 1.9609 -0.13390000000000002 226
-11.781199999999998 6.886699999999999 2.3984 249
-3.0586 1.8018 -0.6187 210
-3.0995999999999997 1.8252000000000002 -0.542 50
-3.3418 1.9678 0.13369999999999999 174
-3.1132999999999997 1.834 -0.4595 203
-12.2031 7.1875 0.8212999999999999 138
-3.1327999999999996 1.8457 -0.3774 24
-3.1367000000000003 1.8477000000000001 -0.2937 41
-40.5625 23.9062 4.9453 61
-3.1699 1.8672 -0.2114 129
-3.2245999999999997 1.8994 -0.12890000000000001 5
-11.8125 6.957000000000001 2.084 128
-3.3476999999999997 1.9716999999999998 -0.0446 32
-11.7578 6.921900000000001 2.3984 147
-3.0449 1.8075999999999999 -0.6172 74
-3.0839999999999996 1.8311000000000002 -0.5405 40
-3.332 1.9785 0.1335 153
-3.0723000000000003 1.8241999999999998 -0.45409999999999995 85
-12.226600000000001 7.261699999999999 0.8247 179
-3.127 1.8563999999999998 -0.3774 47
-3.1348000000000003 1.8613 -0.2942 9
-40.5 24.0469 4.9453 131
-3.1464999999999996 1.8681999999999999 -0.2102 63
-3.2089999999999996 1.9053 -0.1285 102
-3.3242000000000003 1.9736000000000002 -0.0443 8
-3.0410000000000004 1.8193000000000001 -0.6172 9
-3.0664 1.835 -0.5381 36
-3.332 1.9941 0.1338 6
-3.0801 1.8437999999999999 -0.45630000000000004 34
-3.1074 1.8603999999999998 -0.376 132
-3.1367000000000003 1.8769999999999998 -0.2949 102
-40.125 24.0156 4.9102 200
-3.1464999999999996 1.8838 -0.2107 45
-3.1875 1.9082 -0.12789999999999999 135
-3.2207 1.9277000000000002 -0.043 33
-3.0312 1.8281 -0.6167 242
-3.0664 1.8496000000000001 -0.5396 49
-3.3105 1.9971 0.1332 112
-3.0664 1.8496000000000001 -0.4551 104
-42.7188 25.7656 2.9004000000000003 220
-3.1035000000000004 1.8721 -0.3762 255
-11.835899999999999 7.140599999999999 1.126 170
-3.1132999999999997 1.8779 -0.2932 42
-40.125 24.2031 4.918 193
-3.1464999999999996 1.8984 -0.2112 125
-3.1660000000000004 1.9102000000000001 -0.1273 12
-3.2108999999999996 1.9365 -0.0429 168
-3.0526999999999997 1.8555000000000001 -0.5381 186
-3.3026999999999997 2.0059 0.1332 54
-3.1016000000000004 1.8838 -0.37670000000000003 85
-11.8594 7.207000000000001 1.1299 3
-3.0976999999999997 1.8818000000000001 -0.2922 202
-39.5625 24.0312 4.8594 185
-3.1504000000000003 1.9141 -0.2118 90
-3.1620999999999997 1.9209 -0.1274 112
-11.789100000000001 7.1640999999999995 2.0977 33
-3.2089999999999996 1.9502000000000002 -0.043 174
-11.835899999999999 7.1914 2.4355 179
-3.0332 1.8563999999999998 -0.6196 147
-3.3457 2.0469 0.045 30
-3.0742000000000003 1.8818000000000001 -0.5429999999999999 45
-3.2910000000000004 2.0137 0.1329 67
-3.0449 1.8643 -0.4539 202
-46.625 28.5469 3.1776999999999997 166
-3.0918 1.8916 -0.3762 63
-3.0995999999999997 1.8975 -0.2932 251
-39.3125 24.0625 4.8398 115
-3.1172000000000004 1.9082 -0.21 142
-3.1582 1.9336000000000002 -0.1276 78
-11.789100000000001 7.2148 2.1016 21
-3.1836 1.9491999999999998 -0.042800000000000005 162
-11.781199999999998 7.2109000000000005 2.4277 156
-3.0293 1.8691 -0.6201 29
-3.2617000000000003 2.0137 0.043899999999999995 236
-3.0702999999999996 1.8944999999999999 -0.5439 144
-3.3026999999999997 2.0391 0.1338 9
-3.0723000000000003 1.8965 -0.45899999999999996 198
-46.2188 28.5312 3.1582 237
-3.0781 1.8994 -0.37549999999999994 86
-3.0957 1.9102000000000001 -0.29350000000000004 182
-39.5938 24.4375 4.8867 26
-3.1074 1.9180000000000001 -0.20980000000000001 118
-3.1699 1.9569999999999999 -0.1283 141
-3.1836 1.9647999999999999 -0.042800000000000005 205
-11.6953 7.2188 2.416 11
-3.0312 1.8847999999999998 -0.6221 78
-3.2285000000000004 2.0078 0.0435 198
-3.0586 1.9022999999999999 -0.5429999999999999 227
-3.3026999999999997 2.0547 0.134 162
-3.0781 1.9141 -0.4607 89
-46.0 28.6094 3.1483999999999996 181
-3.0683999999999996 1.9091999999999998 -0.37520000000000003 174
-3.0879000000000003 1.9199000000000002 -0.2932 59
-41.5312 25.8281 5.136699999999999 244
