# .PCD v0.7 - Point Cloud Data file format
VERSION 0.7
FIELDS x y z intensity
SIZE 4 4 4 4
TYPE F F F F
COUNT 1 1 1 1
WIDTH 1301
HEIGHT 1
VIEWPOINT 0 0 0 1 0 0 0
POINTS 1301
DATA ascii
12.6719 1.7881 -0.4451 126
12.6406 1.7832 1.9404 173
12.6406 1.7832 -0.1484 25
12.6172 1.7803 2.2402 166
9.0938 1.252 -1.6103999999999998 111
12.648399999999999 1.7422 0.1484 223
10.3203 1.4209 -1.5819999999999999 82
12.656199999999998 1.7422 0.4443 209
11.8828 1.6366999999999998 -1.5381 117
12.648399999999999 1.7412 0.7402 46
12.648399999999999 1.7422 -1.3378999999999999 87
12.656199999999998 1.7431999999999999 1.04 232
12.664100000000001 1.7431999999999999 -1.04 157
12.5703 1.7313999999999998 1.3291 15
12.6406 1.7402000000000002 -0.7397 101
12.5469 1.7275 1.624 131
12.656199999999998 1.7422 -0.4443 47
12.648399999999999 1.7412 1.9394999999999998 214
12.648399999999999 1.7412 -0.1484 72
12.6172 1.7372999999999998 2.2383 100
9.1094 1.2187999999999999 -1.6133000000000002 93
12.648399999999999 1.6913999999999998 0.1483 151
10.3125 1.3799000000000001 -1.5800999999999998 144
12.648399999999999 1.6924000000000001 0.44380000000000003 10
11.906199999999998 1.5928 -1.54 71
12.648399999999999 1.6913999999999998 0.7397 131
12.656199999999998 1.6934 -1.3369 148
12.6406 1.6904 1.0381 123
12.648399999999999 1.6924000000000001 -1.0391 53
12.5703 1.6825999999999999 1.3291 77
12.648399999999999 1.6913999999999998 -0.7397 86
12.5547 1.6797 1.6230000000000002 97
12.648399999999999 1.6913999999999998 -0.44380000000000003 13
12.6328 1.6904 1.9375 103
12.656199999999998 1.6934 -0.1484 8
12.6406 1.6913999999999998 2.2422 213
9.1172 1.1875 -1.6143 0
12.664100000000001 1.6494 0.1484 186
10.3281 1.3447 -1.5819999999999999 200
12.6406 1.6465 0.4434 170
11.914100000000001 1.5518 -1.54 131
12.656199999999998 1.6484 0.7402 184
12.6719 1.6494 -1.3378999999999999 55
12.648399999999999 1.6475 1.0381 58
12.6328 1.6455000000000002 -1.0371 219
12.5703 1.6377000000000002 1.3281 217
12.6406 1.6465 -0.7393000000000001 237
12.5547 1.6357 1.6230000000000002 43
12.656199999999998 1.6484 -0.44409999999999994 148
12.625 1.6436000000000002 1.9346 29
12.6406 1.6465 -0.1482 144
12.6406 1.6465 2.2402 21
9.1172 1.1553 -1.6133000000000002 232
12.656199999999998 1.6035 0.1483 78
10.3281 1.3075999999999999 -1.5800999999999998 144
12.648399999999999 1.6025 0.4434 65
11.9219 1.5107 -1.54 232
12.648399999999999 1.6025 0.7393000000000001 45
12.664100000000001 1.6035 -1.3369 17
12.648399999999999 1.6025 1.0381 85
12.6328 1.6006 -1.0371 108
12.5625 1.5908000000000002 1.3262 62
12.6328 1.6006 -0.7383 240
12.5703 1.5918 1.624 115
12.656199999999998 1.6035 -0.44380000000000003 69
12.625 1.5996000000000001 1.9336000000000002 32
12.6406 1.6006 -0.1481 40
12.625 1.5986000000000002 2.2363 85
9.1172 1.123 -1.6122999999999998 181
12.648399999999999 1.5575999999999999 0.1482 203
10.3594 1.2754 -1.585 83
12.648399999999999 1.5575999999999999 0.4434 173
11.9375 1.4697 -1.5419999999999998 237
12.6328 1.5556999999999999 0.7378 85
12.656199999999998 1.5586000000000002 -1.3359 252
12.648399999999999 1.5575999999999999 1.0371 245
12.648399999999999 1.5575999999999999 -1.0371 195
12.5547 1.5459 1.3252000000000002 38
12.6328 1.5556999999999999 -0.7378 159
12.5547 1.5459 1.6221 197
12.6719 1.5596 -0.44380000000000003 47
12.6328 1.5556999999999999 1.9336000000000002 199
12.648399999999999 1.5575999999999999 -0.1481 5
12.625 1.5547 2.2363 205
9.125 1.0928 -1.6133000000000002 76
12.6406 1.5137 0.1479 162
10.351600000000001 1.2393 -1.5830000000000002 112
12.656199999999998 1.5156 0.4434 131
11.9531 1.4316 -1.5430000000000001 193
12.6406 1.5146000000000002 0.7383 181
12.6406 1.5137 -1.3330000000000002 107
12.648399999999999 1.5146000000000002 1.0371 77
12.648399999999999 1.5146000000000002 -1.0371 17
12.5625 1.5049000000000001 1.3252000000000002 101
12.625 1.5127000000000002 -0.7373000000000001 172
12.539100000000001 1.5019999999999998 1.6191 155
12.656199999999998 1.5156 -0.4434 183
12.6406 1.5146000000000002 1.9355000000000002 123
12.625 1.5127000000000002 -0.1478 45
8.1797 0.9795 1.4453 69
9.1406 1.0645 -1.6162 169
12.648399999999999 1.4727000000000001 0.1481 123
10.351600000000001 1.2051 -1.5830000000000002 216
12.6406 1.4716999999999998 0.4426 63
11.976600000000001 1.3944999999999999 -1.5459 50
12.648399999999999 1.4716999999999998 0.7378 222
12.656199999999998 1.4727000000000001 -1.334 69
12.6328 1.4707 1.0352 55
12.6328 1.4707 -1.0352 7
12.5547 1.4619 1.3241999999999998 182
12.6328 1.4707 -0.7373000000000001 146
12.5547 1.4619 1.6200999999999999 12
12.648399999999999 1.4716999999999998 -0.4429 69
12.625 1.4697 1.9316 72
12.6328 1.4707 -0.1478 34
12.6094 1.4678 2.2305 136
9.1484 1.0303 -1.6152000000000002 91
12.656199999999998 1.4268 0.1481 205
10.3672 1.1689 -1.585 99
12.6328 1.4238 0.4421 204
11.9844 1.3506 -1.5459 8
12.648399999999999 1.4247999999999998 0.7378 122
12.656199999999998 1.4268 -1.334 61
12.6406 1.4247999999999998 1.0352 101
12.6328 1.4238 -1.0342 72
12.5625 1.415 1.3241999999999998 194
12.648399999999999 1.4247999999999998 -0.7378 149
12.5547 1.415 1.6200999999999999 217
12.6406 1.4238 -0.4424 61
12.625 1.4228999999999998 1.9306999999999999 103
12.625 1.4228999999999998 -0.1477 91
12.6328 1.4238 2.2344 213
9.1406 0.998 -1.6143 17
12.664100000000001 1.3818000000000001 0.1481 168
10.3828 1.1338 -1.5869 72
12.6406 1.3799000000000001 0.4424 3
11.9922 1.3096 -1.5469 237
12.6406 1.3799000000000001 0.7373000000000001 234
12.6719 1.3828 -1.335 230
12.648399999999999 1.3809 1.0361 129
12.625 1.3788999999999998 -1.0342 248
12.539100000000001 1.3691 1.3213 172
12.6328 1.3788999999999998 -0.7368000000000001 145
12.5547 1.3711000000000002 1.6191 107
12.648399999999999 1.3809 -0.4424 157
12.6172 1.3769999999999998 1.9287 149
12.625 1.3779 -0.1476 121
8.3438 0.9111 1.4727000000000001 151
9.1562 0.9692000000000001 -1.6162 213
12.6406 1.3378999999999999 0.1478 209
10.398399999999999 1.1006 -1.5878999999999999 210
12.6406 1.3378999999999999 0.4421 115
12.0078 1.2705 -1.5478999999999998 172
12.6328 1.3369 0.7363 227
12.648399999999999 1.3378999999999999 -1.3319999999999999 240
12.648399999999999 1.3378999999999999 1.0352 226
12.6406 1.3378999999999999 -1.0352 145
12.539100000000001 1.3271000000000002 1.3213 243
12.625 1.3359 -0.7358 119
12.539100000000001 1.3271000000000002 1.6172 132
12.648399999999999 1.3388999999999998 -0.4424 228
12.6172 1.335 -0.1475 38
8.3438 0.8823000000000001 1.4716999999999998 70
9.1406 0.9365000000000001 -1.6122999999999998 80
12.6328 1.2949000000000002 0.1476 185
10.3906 1.0645 -1.5869 227
12.648399999999999 1.2959 0.4421 181
12.039100000000001 1.2334 -1.5508000000000002 186
12.6328 1.2938999999999998 0.7363 108
12.6406 1.2949000000000002 -1.3311000000000002 239
12.6328 1.2938999999999998 1.0332 45
12.6406 1.2949000000000002 -1.0342 194
12.5625 1.2871000000000001 1.3222999999999998 222
12.6328 1.2949000000000002 -0.7363 131
12.539100000000001 1.2852000000000001 1.6162 253
12.656199999999998 1.2969 -0.4424 116
12.6328 1.2949000000000002 1.9306999999999999 218
12.6328 1.2938999999999998 -0.1476 71
8.2188 0.8418000000000001 1.4491999999999998 194
9.1797 0.9062 -1.6181999999999999 181
12.648399999999999 1.249 0.1477 241
10.398399999999999 1.0264 -1.5869 112
12.6328 1.248 0.44170000000000004 2
12.039100000000001 1.1895 -1.5508000000000002 137
12.648399999999999 1.249 0.7368000000000001 248
12.648399999999999 1.249 -1.3311000000000002 187
12.625 1.2470999999999999 1.0322 94
12.6406 1.249 -1.0342 8
12.5547 1.2393 1.3213 125
12.6328 1.248 -0.7358 26
12.5469 1.2393 1.6162 87
12.625 1.2470999999999999 -0.4414 169
12.625 1.2470999999999999 1.9277000000000002 79
12.6328 1.248 -0.1476 195
8.1484 0.8047 1.4355000000000002 182
9.1797 0.8740000000000001 -1.6181999999999999 179
12.6406 1.2031 0.1476 107
10.406199999999998 0.9912000000000001 -1.5878999999999999 231
12.625 1.2021 0.4409 146
12.0625 1.1484 -1.5527000000000002 229
12.6406 1.2031 0.7358 89
12.656199999999998 1.2051 -1.3319999999999999 253
12.625 1.2031 1.0322 111
12.625 1.2031 -1.0322 192
12.5547 1.1953 1.3213 76
12.6328 1.2031 -0.7354 188
12.5625 1.1963 1.6172 125
12.6328 1.2031 -0.4412 127
9.0547 0.8623000000000001 1.3809 254
12.6172 1.2021 -0.14730000000000001 77
8.1328 0.7744 1.4336000000000002 223
9.1719 0.8398 -1.6172 206
12.6406 1.1572 0.1476 169
10.4219 0.9536 -1.5888999999999998 145
12.6328 1.1562000000000001 0.4412 178
12.0781 1.1055 -1.5547 229
12.6406 1.1572 0.7358 57
12.656199999999998 1.1582 -1.3311000000000002 181
12.6328 1.1562000000000001 1.0322 176
12.6328 1.1562000000000001 -1.0322 102
12.5469 1.1484 1.3193000000000001 202
12.6328 1.1562000000000001 -0.7354 40
12.5703 1.1504 1.6181999999999999 29
12.6406 1.1572 -0.4414 142
9.0469 0.8281000000000001 1.3788999999999998 57
12.6172 1.1553 -0.1472 238
7.957000000000001 0.7284999999999999 1.4013999999999998 209
9.1797 0.8076000000000001 -1.6172 52
12.6406 1.1133 0.1476 128
10.4297 0.9179999999999999 -1.5897999999999999 80
12.6406 1.1133 0.4414 150
12.093800000000002 1.0645 -1.5556999999999999 234
12.6328 1.1113 0.7349 248
12.6406 1.1123 -1.3291 57
12.6406 1.1123 1.0332 188
12.6406 1.1123 -1.0322 193
12.5469 1.1045 1.3193000000000001 140
12.625 1.1113 -0.7349 120
12.5469 1.1045 1.6152000000000002 146
12.656199999999998 1.1143 -0.44189999999999996 47
8.1641 0.7188 1.2431999999999999 38
12.6172 1.1104 -0.1472 147
7.9336 0.6981999999999999 1.3965 129
9.1797 0.7773 -1.6172 69
12.6406 1.0703 0.1475 62
10.4453 0.8843000000000001 -1.5918 51
12.6406 1.0703 0.4412 23
12.1172 1.0264 -1.5586000000000002 191
12.6328 1.0693000000000001 0.7349 182
12.6406 1.0703 -1.3281 190
12.6328 1.0693000000000001 1.0322 52
12.6328 1.0703 -1.0322 214
12.5703 1.0645 1.3213 217
12.6328 1.0693000000000001 -0.7349 233
12.5625 1.0635 1.6162 26
12.6406 1.0703 -0.4412 33
8.0859 0.6846 1.2305 105
12.6328 1.0693000000000001 -0.14730000000000001 124
7.957000000000001 0.6738 1.4003999999999999 61
9.1875 0.7471 -1.6181999999999999 199
12.6406 1.0283 0.14730000000000001 42
10.4297 0.8481000000000001 -1.5888999999999998 159
12.625 1.0273 0.4407 149
12.1328 0.9868000000000001 -1.5605000000000002 82
12.6406 1.0283 0.7349 202
12.6406 1.0283 -1.3281 155
12.6172 1.0264 1.0303 109
12.6328 1.0273 -1.0322 64
12.5625 1.0215 1.3193000000000001 172
12.6328 1.0273 -0.7349 146
9.0234 0.7334 1.1582 5
12.625 1.0273 -0.4407 21
8.0547 0.6553 1.2256 189
12.625 1.0273 -0.1472 151
7.9765999999999995 0.6489 1.4033000000000002 160
9.2109 0.7153 -1.6211000000000002 169
12.6328 0.981 0.1472 71
10.4453 0.8109999999999999 -1.5918 156
12.6172 0.98 0.44020000000000004 20
12.1406 0.9429000000000001 -1.5605000000000002 8
12.6406 0.9814 0.7349 123
12.6406 0.9819 -1.3281 173
12.625 0.98 1.0303 219
12.625 0.9804999999999999 -1.0312000000000001 192
12.5547 0.9751000000000001 1.3193000000000001 210
12.6328 0.981 -0.7343999999999999 10
9.0234 0.7006999999999999 1.1582 28
12.6328 0.981 -0.4407 183
8.0703 0.6265 1.2275 233
12.625 0.98 -0.1471 53
8.0938 0.6289 1.4247999999999998 93
8.4766 0.6284000000000001 -1.4922 246
12.648399999999999 0.938 0.1475 218
10.460899999999999 0.7754000000000001 -1.5928 113
12.625 0.9359999999999999 0.4404 119
12.148399999999999 0.9009 -1.5615 104
12.6328 0.9365000000000001 0.7343999999999999 194
12.648399999999999 0.938 -1.3281 204
12.6328 0.9365000000000001 1.0312000000000001 70
12.6328 0.9365000000000001 -1.0312000000000001 15
9.0156 0.6685 0.9453 235
12.625 0.9359999999999999 -0.7339 144
9.0078 0.6675 1.1562000000000001 25
12.6328 0.9365000000000001 -0.4404 66
12.718800000000002 0.9429000000000001 1.9385 109
12.6094 0.9351 -0.147 181
8.0547 0.5972 1.4169999999999998 114
8.4609 0.5977 -1.4883000000000002 61
12.6328 0.8920999999999999 0.1472 231
10.4531 0.7383 -1.5918 145
12.6328 0.8926000000000001 0.4404 92
12.1797 0.8599 -1.5644999999999998 9
12.625 0.8916 0.7339 226
12.6406 0.8926000000000001 -1.3271000000000002 230
12.6328 0.8926000000000001 1.0312000000000001 123
12.6328 0.8926000000000001 -1.0312000000000001 55
9.0078 0.6362 0.9443 57
12.625 0.8916 -0.7334 159
8.9922 0.6353 1.1543 209
12.648399999999999 0.8936 -0.4412 26
12.7344 0.8989 1.9394999999999998 150
12.6172 0.8911 -0.1471 44
7.9062 0.5586 1.3906 8
8.4609 0.5679 -1.4883000000000002 21
12.625 0.8477 0.1471 32
10.4531 0.7017 -1.5918 154
12.6406 0.8486 0.4407 133
12.1797 0.8179000000000001 -1.5654 12
12.625 0.8472 0.7334 76
12.6172 0.8472 -1.3252000000000002 74
12.6406 0.8486 1.0312000000000001 230
12.6328 0.8481000000000001 -1.0303 0
9.0156 0.605 0.9448000000000001 86
12.625 0.8472 -0.7334 7
12.6719 0.8506 1.6288999999999998 158
12.6328 0.8481000000000001 -0.4404 164
12.75 0.8554999999999999 1.9413999999999998 151
12.6094 0.8467 -0.1469 162
7.890599999999999 0.5297999999999999 1.3866999999999998 254
8.4766 0.541 -1.4912 5
12.625 0.8051999999999999 0.147 102
10.468800000000002 0.6675 -1.5928 237
12.6328 0.8057 0.44020000000000004 224
12.1953 0.7778 -1.5663999999999998 202
12.6328 0.8057 0.7334 167
12.6328 0.8057 -1.3262 163
8.9375 0.5703 0.728 7
12.625 0.8051999999999999 -1.0293 2
8.9922 0.5737 0.9429000000000001 244
12.6328 0.8057 -0.7339 2
12.6875 0.8090999999999999 1.6299000000000001 224
12.625 0.8051999999999999 -0.4399 47
12.718800000000002 0.8109999999999999 1.9365 25
12.625 0.8051999999999999 -0.1471 237
7.894500000000001 0.5039 1.3877000000000002 112
8.5 0.5142 -1.4941 92
12.648399999999999 0.7646 0.14730000000000001 164
9.625 0.5820000000000001 -1.4638999999999998 62
12.6172 0.7631999999999999 0.4397 176
12.2031 0.7378 -1.5674000000000001 137
12.6328 0.7642 0.7339 240
12.6328 0.7637 -1.3252000000000002 143
8.9219 0.5396 0.7265999999999999 79
12.625 0.7631999999999999 -1.0293 90
12.5547 0.7587999999999999 1.3174000000000001 30
12.6328 0.7637 -0.7334 174
12.6953 0.7676000000000001 1.6309 186
12.625 0.7637 -0.4399 85
12.718800000000002 0.769 1.9355000000000002 141
12.6094 0.7622 -0.1469 178
8.1016 0.49 1.4238 210
8.5 0.4827 -1.4941 77
12.6406 0.7178 0.1471 118
9.6484 0.5478999999999999 -1.4668 244
12.6172 0.7162999999999999 0.4395 250
12.218800000000002 0.6938 -1.5684 71
12.625 0.7168000000000001 0.7329000000000001 254
12.6406 0.7178 -1.3262 97
8.9062 0.5059 0.7251000000000001 181
12.6328 0.7173 -1.0293 57
12.539100000000001 0.7123999999999999 1.3154 184
12.625 0.7168000000000001 -0.7329000000000001 237
12.7031 0.7212000000000001 1.6309 54
12.6406 0.7178 -0.4404 243
12.7031 0.7217 1.9346 234
12.601600000000001 0.7158 -0.1467 32
8.5234 0.4839 1.4971 146
8.7969 0.46880000000000005 -1.5459 32
12.6406 0.6733 0.1471 83
9.6562 0.5146000000000001 -1.4678 166
12.625 0.6729 0.4397 233
12.226600000000001 0.6518999999999999 -1.5703 168
12.6094 0.6718999999999999 0.7323999999999999 21
12.625 0.6729 -1.3241999999999998 67
8.9062 0.4746 0.7245999999999999 201
12.6328 0.6729 -1.0293 165
12.5469 0.6685 1.3163999999999998 10
12.6172 0.6724 -0.7323999999999999 206
12.6875 0.6762999999999999 1.6288999999999998 71
12.6328 0.6733 -0.44020000000000004 35
12.726600000000001 0.6781999999999999 1.9365 212
12.6094 0.6718999999999999 -0.1467 10
8.5547 0.4558 1.5029 240
9.1484 0.45409999999999995 -1.6084 253
12.6172 0.626 0.1469 202
9.6797 0.4802 -1.4707 67
12.625 0.6265 0.4397 69
12.2344 0.6069 -1.5703 135
12.625 0.626 0.7329000000000001 105
12.6172 0.626 -1.3232 112
8.9297 0.44310000000000005 0.7265999999999999 171
12.6406 0.627 -1.0303 172
12.5547 0.6225999999999999 1.3163999999999998 6
12.6172 0.626 -0.7323999999999999 142
12.6875 0.6294 1.6288999999999998 122
12.6406 0.627 -0.44020000000000004 71
12.7422 0.6318 1.9385 10
12.6094 0.6255 -0.1467 33
8.6016 0.4268 1.5116999999999998 132
9.1953 0.4238 -1.6152000000000002 26
12.625 0.5820000000000001 0.1469 223
9.7812 0.4509 -1.4863 33
12.6172 0.5815 0.43920000000000003 182
12.2578 0.5654 -1.5732 110
12.6328 0.5825 0.7329000000000001 51
12.6172 0.5820000000000001 -1.3232 112
12.6094 0.5811 1.0273 200
12.6172 0.5815 -1.0283 125
12.5547 0.5791 1.3163999999999998 87
12.6172 0.5820000000000001 -0.7323999999999999 218
12.6953 0.5854 1.6288999999999998 33
12.6172 0.5820000000000001 -0.4395 40
8.7891 0.40549999999999997 1.3359 98
12.6094 0.5815 -0.1467 127
8.6328 0.3979 1.5166 58
9.1953 0.3936 -1.6162 15
12.6328 0.5405 0.147 194
10.5078 0.4495 -1.5966999999999998 219
12.6094 0.5396 0.4387 142
12.25 0.5244 -1.5722999999999998 148
8.9531 0.3831 0.519 128
12.625 0.54 -1.3241999999999998 53
12.625 0.54 1.0283 221
12.6172 0.54 -1.0283 30
12.5547 0.5371 1.3154 209
12.6172 0.54 -0.7323999999999999 129
12.6953 0.5435 1.6288999999999998 213
12.625 0.54 -0.4395 253
8.7969 0.3762 1.3359 173
12.601600000000001 0.5390999999999999 -0.1466 147
8.6797 0.3713 1.5234 189
9.2578 0.3652 -1.626 151
12.625 0.49829999999999997 0.1469 181
10.5078 0.4146 -1.5966999999999998 122
12.6172 0.498 0.43920000000000003 251
12.2656 0.4841 -1.5741999999999998 10
8.8984 0.3513 0.5156000000000001 38
12.6328 0.4985 -1.3241999999999998 181
12.625 0.49829999999999997 1.0283 47
12.625 0.49829999999999997 -1.0283 190
12.5469 0.4951 1.3144999999999998 192
12.6172 0.4978 -0.7319 178
12.6953 0.501 1.6288999999999998 13
12.625 0.49829999999999997 -0.4395 180
8.8125 0.3477 1.3378999999999999 31
12.593800000000002 0.4971 -0.1465 172
8.7266 0.34450000000000003 1.5332 40
9.2969 0.3328 -1.6328 80
12.6172 0.4517 0.1467 203
10.5156 0.3765 -1.5977000000000001 152
12.6172 0.4517 0.43920000000000003 48
12.2656 0.439 -1.5732 185
8.8906 0.3184 0.5151 235
12.6172 0.4517 -1.3222999999999998 112
12.6328 0.4521 1.0283 159
12.625 0.45189999999999997 -1.0283 197
12.5469 0.44920000000000004 1.3154 3
12.6094 0.4512 -0.7314 206
12.6953 0.4546 1.6288999999999998 162
12.6328 0.4521 -0.4397 77
8.8359 0.3164 1.3418 0
12.601600000000001 0.4509 -0.1465 190
8.8281 0.3159 1.5497999999999998 106
9.3438 0.3018 -1.6406 27
12.6094 0.4072 0.1466 89
10.5156 0.3396 -1.5977000000000001 36
12.625 0.4077 0.43920000000000003 158
12.2969 0.3972 -1.5771000000000002 27
8.8906 0.2871 0.5146000000000001 158
12.6094 0.4075 -1.3213 48
12.6172 0.4077 1.0273 223
12.625 0.408 -1.0283 33
12.5469 0.4053 1.3144999999999998 144
12.6094 0.4072 -0.731 162
8.9766 0.2898 1.1494 59
12.625 0.4077 -0.43920000000000003 197
8.8672 0.2866 1.3466999999999998 87
12.601600000000001 0.40700000000000003 -0.1465 159
8.8516 0.2859 1.5537 101
9.3672 0.2698 -1.6455000000000002 44
12.6172 0.3635 0.1467 1
10.523399999999999 0.3032 -1.5996000000000001 210
12.6172 0.36329999999999996 0.439 15
12.2969 0.3542 -1.5771000000000002 126
8.8906 0.2561 0.5151 66
12.6094 0.36329999999999996 -1.3213 210
12.6094 0.363 1.0264 17
12.6172 0.3635 -1.0273 33
12.5547 0.3616 1.3154 1
12.6172 0.3635 -0.7319 87
8.9531 0.25780000000000003 1.1465 248
12.6172 0.3635 -0.43920000000000003 175
8.9375 0.25730000000000003 1.3563999999999998 182
12.6094 0.363 -0.1466 45
8.8359 0.2546 1.5518 89
9.3906 0.2378 -1.6494 34
12.6094 0.3193 0.1466 25
10.531199999999998 0.2666 -1.5996000000000001 158
12.6094 0.3191 0.4387 145
12.3047 0.3115 -1.5781 222
8.9062 0.2253 0.5156000000000001 38
12.6172 0.3193 -1.3222999999999998 161
12.6172 0.3193 1.0273 195
12.6172 0.3193 -1.0273 23
12.5469 0.3176 1.3144999999999998 72
12.6172 0.3193 -0.7314 47
8.9375 0.2262 1.1445 160
12.6328 0.31980000000000003 -0.4395 137
9.0078 0.228 1.3672 81
12.601600000000001 0.3191 -0.1465 89
9.6797 0.2451 1.7002000000000002 45
9.4141 0.2087 -1.6533000000000002 24
12.625 0.28 0.1469 154
10.5625 0.2341 -1.6044999999999998 145
12.601600000000001 0.2793 0.4385 105
12.2969 0.2727 -1.5771000000000002 205
8.8906 0.1971 0.5146000000000001 247
12.6172 0.2798 -1.3222999999999998 222
12.625 0.2798 1.0273 9
12.6094 0.27949999999999997 -1.0264 251
12.539100000000001 0.2778 1.3135 205
12.601600000000001 0.2793 -0.731 105
8.9297 0.1979 1.1436 214
12.625 0.2798 -0.43920000000000003 23
9.4297 0.209 1.4316 132
12.593800000000002 0.2793 -0.1465 227
9.5781 0.21239999999999998 1.6825999999999999 200
9.4219 0.1776 -1.6543 41
12.6172 0.2378 0.1467 175
10.5703 0.1993 -1.6055000000000001 144
12.6094 0.2377 0.4385 161
12.3203 0.2323 -1.5800999999999998 0
8.9062 0.1678 0.5156000000000001 68
12.6094 0.2377 -1.3203 244
12.625 0.23800000000000002 1.0283 222
12.625 0.23800000000000002 -1.0273 107
12.593800000000002 0.23739999999999997 -0.7304999999999999 25
8.9141 0.1681 1.1416 206
12.625 0.23800000000000002 -0.43920000000000003 6
9.4922 0.179 1.4413999999999998 237
12.593800000000002 0.23739999999999997 -0.1465 186
9.1797 0.17309999999999998 1.6113 224
9.3984 0.1427 -1.6494 36
12.6094 0.19140000000000001 0.1465 187
10.5703 0.1605 -1.6055000000000001 73
12.6172 0.1917 0.439 104
12.335899999999999 0.18739999999999998 -1.5819999999999999 152
8.9062 0.1353 0.5156000000000001 156
12.601600000000001 0.19140000000000001 -1.3203 11
12.6172 0.19149999999999998 1.0273 104
12.625 0.1917 -1.0273 52
8.9453 0.1359 0.9359999999999999 209
12.601600000000001 0.1913 -0.7304999999999999 250
8.9141 0.1354 1.1416 31
12.6172 0.1917 -0.439 40
9.4766 0.1439 1.4385 66
12.601600000000001 0.1913 -0.1465 219
9.1797 0.1394 1.6122999999999998 210
9.3516 0.1094 -1.6416 157
12.6094 0.1475 0.1466 201
10.5781 0.12369999999999999 -1.6063999999999998 115
12.6094 0.1475 0.4387 101
12.343800000000002 0.1444 -1.5830000000000002 28
8.9141 0.1042 0.5161 158
12.6094 0.1475 -1.3213 175
8.9531 0.1047 0.7275 205
12.601600000000001 0.1475 -1.0264 75
8.9375 0.10460000000000001 0.9351 129
12.6094 0.1475 -0.731 146
8.9453 0.10460000000000001 1.1455 188
12.6172 0.1476 -0.4387 116
9.4688 0.1108 1.4375 150
12.601600000000001 0.14730000000000001 -0.1465 33
9.3516 0.1094 1.6416 241
8.7812 0.0705 -1.541 245
12.6172 0.1013 0.1467 223
10.5781 0.085 -1.6074000000000002 175
8.9062 0.07150000000000001 0.3093 30
12.351600000000001 0.0992 -1.5830000000000002 125
8.9062 0.07150000000000001 0.5151 131
12.6172 0.1013 -1.3213 28
8.9219 0.0717 0.7251000000000001 175
12.601600000000001 0.1012 -1.0254 25
8.8984 0.07150000000000001 0.9312 70
12.601600000000001 0.1011 -0.7304999999999999 221
8.9453 0.0718 1.1445 6
12.625 0.1014 -0.43920000000000003 155
9.3438 0.075 1.4180000000000001 134
8.9141 0.07150000000000001 -0.1033 30
9.0938 0.0731 1.5966999999999998 107
8.7266 0.039599999999999996 -1.5312000000000001 110
8.9375 0.0406 0.1036 151
8.875 0.0403 -1.3466999999999998 171
8.8906 0.0403 0.3086 146
8.8594 0.04019999999999999 -1.1348 210
8.8984 0.0404 0.5151 51
8.9062 0.0404 -0.9316 60
8.9219 0.0405 0.7251000000000001 39
8.9141 0.0405 -0.7245999999999999 121
8.9141 0.0405 0.9326000000000001 168
8.9062 0.0404 -0.5156000000000001 120
8.9453 0.0406 1.1455 230
8.9375 0.0406 -0.3103 135
9.0 0.0408 1.3652000000000002 174
8.8984 0.0404 -0.10310000000000001 85
8.7891 0.039900000000000005 1.5419999999999998 118
8.7031 0.0106 -1.5272999999999999 226
8.9219 0.0109 0.1035 105
8.8281 0.0108 -1.3397999999999999 250
8.875 0.0108 0.30829999999999996 0
8.8438 0.0108 -1.1328 103
8.9062 0.0109 0.5151 223
8.8594 0.0108 -0.9262999999999999 209
8.9297 0.0109 0.7256 252
8.8906 0.0109 -0.7227 89
8.9141 0.0109 0.9320999999999999 52
8.875 0.0108 -0.5136999999999999 33
8.9141 0.0109 1.1406 111
8.8984 0.0109 -0.30879999999999996 5
8.9844 0.011000000000000001 1.3633000000000002 246
8.875 0.0108 -0.10289999999999999 109
8.75 0.010700000000000001 1.5352000000000001 96
8.7031 -0.0182 -1.5263999999999998 14
8.9062 -0.018600000000000002 0.1032 165
8.7969 -0.0184 -1.335 0
8.8906 -0.018600000000000002 0.30879999999999996 9
8.8281 -0.018500000000000003 -1.1299 191
8.9219 -0.0187 0.5166 182
8.8438 -0.018500000000000003 -0.9248000000000001 247
8.9141 -0.0187 0.7245999999999999 211
8.8828 -0.018600000000000002 -0.7222 115
8.9453 -0.0187 0.9355 242
8.8828 -0.018600000000000002 -0.5142 45
8.8984 -0.018600000000000002 1.1396 139
8.8906 -0.018600000000000002 -0.30879999999999996 205
8.9531 -0.018799999999999997 1.3594 155
8.9062 -0.0187 -0.1033 36
8.7891 -0.0184 1.5430000000000001 81
8.6953 -0.0516 -1.5253999999999999 199
8.8984 -0.0528 0.10310000000000001 37
8.7734 -0.0521 -1.3319999999999999 193
8.8906 -0.0528 0.3086 25
8.8203 -0.052300000000000006 -1.1289 230
8.9219 -0.0529 0.5166 62
8.8438 -0.0525 -0.9248000000000001 46
8.9375 -0.053 0.7261 122
8.8594 -0.0526 -0.7202 218
8.9688 -0.053200000000000004 0.938 167
8.8672 -0.0526 -0.5132 166
8.9141 -0.0529 1.1416 229
8.8828 -0.0527 -0.30829999999999996 28
8.9375 -0.053 1.3563999999999998 177
8.8984 -0.0528 -0.10310000000000001 61
8.9844 -0.0533 1.5762 244
8.6719 -0.0817 -1.5215 81
8.9141 -0.084 0.10339999999999999 30
8.7812 -0.0828 -1.3330000000000002 34
8.9062 -0.0839 0.3091 85
8.8047 -0.08289999999999999 -1.127 196
8.9609 -0.08449999999999999 0.519 40
8.8359 -0.0833 -0.9243000000000001 244
8.9766 -0.08460000000000001 0.7295 228
8.8672 -0.0836 -0.7206999999999999 101
12.523399999999999 -0.11800000000000001 1.3125 210
8.875 -0.0836 -0.5136999999999999 147
8.9219 -0.08410000000000001 1.1426 149
8.8906 -0.08380000000000001 -0.30879999999999996 92
8.9453 -0.0843 1.3574000000000002 69
8.8906 -0.08380000000000001 -0.10310000000000001 52
8.9766 -0.08470000000000001 1.5762 44
8.6953 -0.11230000000000001 -1.5263999999999998 108
8.9219 -0.1153 0.1035 239
8.7812 -0.1134 -1.3319999999999999 196
8.9453 -0.1155 0.3105 254
8.7969 -0.11359999999999999 -1.126 228
12.6094 -0.1628 0.731 116
8.8438 -0.1142 -0.9248000000000001 245
12.6172 -0.163 1.0273 45
8.8672 -0.11460000000000001 -0.7206999999999999 79
12.531199999999998 -0.16190000000000002 1.3125 94
8.8828 -0.11470000000000001 -0.5142 87
12.6875 -0.16390000000000002 1.6269999999999998 234
8.8984 -0.1149 -0.3091 182
8.9766 -0.11599999999999999 1.3633000000000002 46
8.8984 -0.1149 -0.10310000000000001 203
8.9219 -0.1153 1.5663999999999998 243
8.6875 -0.1426 -1.5253999999999999 4
8.9531 -0.147 0.1038 0
8.7891 -0.1442 -1.334 104
12.710899999999999 -0.20850000000000002 0.4421 46
8.8047 -0.1444 -1.127 254
12.601600000000001 -0.20679999999999998 0.731 37
8.8438 -0.1451 -0.9253 247
12.6094 -0.2069 1.0264 4
8.875 -0.14550000000000002 -0.7212000000000001 61
12.531199999999998 -0.20559999999999998 1.3125 43
8.8828 -0.1458 -0.5142 39
12.6797 -0.20800000000000002 1.625 251
8.9297 -0.1465 -0.31010000000000004 66
12.7031 -0.2084 1.9306999999999999 93
12.898399999999999 -0.21170000000000003 -0.1499 172
8.9844 -0.1475 1.5771000000000002 180
8.7031 -0.1702 -1.5272999999999999 248
12.914100000000001 -0.25239999999999996 0.1501 254
8.8203 -0.1724 -1.3388999999999998 156
12.8203 -0.2507 0.446 34
8.8203 -0.1725 -1.1289 2
12.601600000000001 -0.2463 0.7304999999999999 135
8.8594 -0.1732 -0.9268000000000001 147
12.6094 -0.2465 1.0264 33
8.8828 -0.17370000000000002 -0.7222 229
12.539100000000001 -0.2451 1.3135 155
8.9062 -0.17420000000000002 -0.5156000000000001 23
12.6719 -0.24780000000000002 1.625 103
12.664100000000001 -0.2477 -0.4407 92
9.6172 -0.188 1.46 222
12.851600000000001 -0.25120000000000003 -0.1494 45
8.9844 -0.1757 1.5771000000000002 127
8.7188 -0.19949999999999998 -1.5312000000000001 190
12.710899999999999 -0.2905 0.1478 155
8.8438 -0.2021 -1.3418 132
12.8203 -0.2932 0.446 128
12.476600000000001 -0.2854 -1.6006 33
12.601600000000001 -0.2883 0.731 37
12.6094 -0.2883 -1.3213 195
12.601600000000001 -0.28809999999999997 1.0264 130
12.539100000000001 -0.2869 1.3135 124
12.7969 -0.2927 -0.7422 150
12.6875 -0.29 1.6269999999999998 16
12.8281 -0.2932 -0.44630000000000003 247
12.7031 -0.2905 1.9306999999999999 43
12.8828 -0.29469999999999996 -0.14980000000000002 37
9.0391 -0.20670000000000002 1.5859 72
8.75 -0.23379999999999998 -1.5361000000000002 40
12.8047 -0.342 0.1489 196
10.6406 -0.2842 -1.6172 125
12.656199999999998 -0.3381 0.4404 157
12.4375 -0.3323 -1.5947 70
12.6094 -0.3369 0.7314 26
12.6094 -0.3369 -1.3213 157
12.593800000000002 -0.33640000000000003 1.0254 134
12.710899999999999 -0.3394 -1.0352 193
12.523399999999999 -0.3345 1.3125 234
12.7656 -0.3408 -0.7402 249
12.6875 -0.3389 1.6269999999999998 93
12.835899999999999 -0.3428 -0.4465 221
12.6953 -0.33909999999999996 1.9297 27
12.914100000000001 -0.345 -0.1501 144
9.1328 -0.244 1.6035 222
8.8203 -0.2664 -1.5478999999999998 153
12.9375 -0.3906 0.15039999999999998 254
10.6406 -0.32130000000000003 -1.6172 216
12.843800000000002 -0.38789999999999997 0.4468 158
12.4453 -0.3757 -1.5957 216
12.601600000000001 -0.38060000000000005 0.731 246
12.601600000000001 -0.38060000000000005 -1.3213 171
12.6172 -0.3811 1.0273 137
12.7969 -0.3865 -1.042 204
12.531199999999998 -0.3787 1.3135 127
12.7578 -0.38530000000000003 -0.7397 50
12.6953 -0.3833 1.6279 148
12.6719 -0.38280000000000003 -0.4409 14
12.6953 -0.3835 1.9306999999999999 103
12.7422 -0.3848 -0.1482 250
8.8828 -0.2683 1.5596 26
9.3984 -0.3184 -1.6513999999999998 142
12.710899999999999 -0.4307 0.1478 134
10.656199999999998 -0.3608 -1.6191 146
12.656199999999998 -0.42869999999999997 0.4404 215
12.460899999999999 -0.42210000000000003 -1.5986000000000002 217
12.601600000000001 -0.4268 0.731 175
12.601600000000001 -0.42700000000000005 -1.3213 153
12.6094 -0.42719999999999997 1.0273 185
12.7969 -0.4336 -1.042 73
12.523399999999999 -0.4241 1.3125 148
12.781199999999998 -0.43310000000000004 -0.7417 170
12.6797 -0.42969999999999997 1.6269999999999998 229
12.843800000000002 -0.4351 -0.447 73
12.6875 -0.4299 1.9297 191
12.8906 -0.4365 -0.1499 215
8.9219 -0.30219999999999997 1.5663999999999998 170
9.3984 -0.3513 -1.6513999999999998 203
12.906199999999998 -0.48219999999999996 0.1501 240
10.648399999999999 -0.39770000000000005 -1.6181999999999999 231
12.843800000000002 -0.48 0.447 50
12.4531 -0.4656 -1.5977000000000001 90
12.601600000000001 -0.4707 0.731 169
12.585899999999999 -0.4705 -1.3193000000000001 131
12.593800000000002 -0.4707 1.0264 235
12.726600000000001 -0.4756 -1.0361 252
12.5156 -0.4678 1.3125 91
12.7031 -0.4746 -0.7368000000000001 134
12.6719 -0.47340000000000004 1.625 130
12.8125 -0.4788 -0.446 229
12.6953 -0.4746 1.9316 122
12.8672 -0.48100000000000004 -0.1497 22
8.9766 -0.3354 1.5762 155
9.4375 -0.384 -1.6582 57
12.8203 -0.522 0.1492 36
10.656199999999998 -0.4338 -1.6200999999999999 249
12.8203 -0.5215 0.44630000000000003 209
12.476600000000001 -0.5078 -1.6006 168
12.601600000000001 -0.5127 0.7314 83
12.585899999999999 -0.5122 -1.3193000000000001 201
12.585899999999999 -0.5122 1.0254 212
12.8125 -0.5215 -1.0439 3
12.531199999999998 -0.5097999999999999 1.3135 210
12.8047 -0.521 -0.7432 126
12.664100000000001 -0.5151 1.625 198
12.7578 -0.519 -0.44409999999999994 17
12.6875 -0.5161 1.9297 243
12.7344 -0.5181 -0.1481 173
8.9766 -0.3655 1.5771000000000002 37
9.4062 -0.4138 -1.6522999999999999 244
12.7422 -0.561 0.1483 66
10.664100000000001 -0.46950000000000003 -1.6211000000000002 233
12.6406 -0.5562 0.44020000000000004 74
12.476600000000001 -0.5488000000000001 -1.6006 195
12.6172 -0.5552 0.7319 161
12.601600000000001 -0.5547 -1.3213 175
12.585899999999999 -0.5542 1.0254 158
12.75 -0.561 -1.0391 118
12.5156 -0.5508 1.3125 68
12.8125 -0.564 -0.7432 83
12.664100000000001 -0.5576 1.626 184
12.8047 -0.5635 -0.4458 185
12.6797 -0.5581 1.9287 83
12.8125 -0.564 -0.149 189
9.7344 -0.4285 1.7109 180
9.3984 -0.4465 -1.6522999999999999 251
12.898399999999999 -0.6128 0.1501 166
10.6875 -0.5078 -1.625 0
12.8281 -0.6093999999999999 0.4468 240
12.4844 -0.5928 -1.6016 38
12.593800000000002 -0.5986 0.731 41
12.601600000000001 -0.5986 -1.3213 131
12.601600000000001 -0.5986 1.0273 247
12.75 -0.6054999999999999 -1.0391 168
12.5156 -0.5942000000000001 1.3125 177
12.6719 -0.6021 -0.7354 58
12.664100000000001 -0.6015999999999999 1.626 43
12.656199999999998 -0.6015999999999999 -0.4407 115
12.6797 -0.6025 1.9297 211
12.6172 -0.5991 -0.1467 35
9.7031 -0.46090000000000003 1.7050999999999998 149
9.3906 -0.4775 -1.6513999999999998 106
12.648399999999999 -0.6426000000000001 0.1472 148
10.6875 -0.5435 -1.626 154
12.718800000000002 -0.6465000000000001 0.4429 174
12.4922 -0.6353 -1.6035 20
12.593800000000002 -0.6401 0.731 180
12.593800000000002 -0.6401 -1.3213 31
12.601600000000001 -0.6406000000000001 1.0273 121
12.7969 -0.6509 -1.043 62
12.5156 -0.6362 1.3125 232
12.8047 -0.6509 -0.7432 35
12.656199999999998 -0.6436 1.625 19
12.835899999999999 -0.6523 -0.447 140
12.6875 -0.645 1.9306999999999999 23
12.7656 -0.6489 -0.14859999999999998 134
9.7031 -0.4932 1.7061000000000002 93
9.4141 -0.5117 -1.6553 194
12.8906 -0.7006999999999999 0.1501 27
10.6875 -0.5806 -1.626 203
12.710899999999999 -0.6904 0.4429 203
12.5078 -0.6797 -1.6055000000000001 58
12.585899999999999 -0.6836 0.7304999999999999 209
12.593800000000002 -0.6840999999999999 -1.3213 113
12.593800000000002 -0.6846 1.0264 135
12.710899999999999 -0.6904 -1.0361 88
12.531199999999998 -0.6807 1.3144999999999998 202
12.710899999999999 -0.6904 -0.7378 250
12.648399999999999 -0.6875 1.624 22
12.835899999999999 -0.6973 -0.447 136
12.6875 -0.6895 1.9316 93
12.8047 -0.6958 -0.149 44
13.101600000000001 -0.7119 2.3047 250
9.4141 -0.5429999999999999 -1.6553 41
12.8906 -0.7432 0.1501 116
10.6875 -0.6162 -1.626 124
12.7969 -0.7378 0.4458 237
12.5156 -0.7217 -1.6074000000000002 183
12.593800000000002 -0.7261 0.7314 128
12.593800000000002 -0.7261 -1.3213 220
12.5781 -0.7251000000000001 1.0254 91
12.7969 -0.7378 -1.043 17
12.523399999999999 -0.7222 1.3144999999999998 39
12.7969 -0.7378 -0.7426999999999999 227
12.648399999999999 -0.7295 1.625 203
12.6797 -0.731 -0.44189999999999996 157
12.6719 -0.731 1.9297 198
12.664100000000001 -0.73 -0.1475 52
13.0703 -0.7539 2.3008 211
9.4219 -0.5796 -1.6572 35
12.75 -0.7842 0.1484 205
10.6797 -0.6567000000000001 -1.625 104
12.648399999999999 -0.7778 0.4407 46
12.523399999999999 -0.7705 -1.6084 161
12.601600000000001 -0.7754000000000001 0.7319 231
12.601600000000001 -0.7754000000000001 -1.3222999999999998 149
12.593800000000002 -0.7744 1.0264 204
12.8047 -0.7876000000000001 -1.0439 135
12.5156 -0.77 1.3135 189
12.8125 -0.7881 -0.7441 86
12.664100000000001 -0.7793000000000001 1.6269999999999998 180
12.843800000000002 -0.79 -0.44780000000000003 143
12.6797 -0.7798 1.9306999999999999 111
12.789100000000001 -0.7866 -0.1489 79
12.9531 -0.7968999999999999 2.2812 3
9.3984 -0.6108 -1.6533000000000002 152
12.8828 -0.8379000000000001 0.1501 161
10.6953 -0.6953 -1.6269999999999998 64
12.789100000000001 -0.8315 0.4458 16
12.523399999999999 -0.8145 -1.6094 159
12.593800000000002 -0.8188 0.7314 173
12.601600000000001 -0.8193 -1.3232 1
12.6094 -0.8198000000000001 1.0283 74
12.6953 -0.8251999999999999 -1.0352 186
12.5 -0.813 1.3125 138
12.7031 -0.8262 -0.7383 212
12.664100000000001 -0.8237000000000001 1.6269999999999998 127
12.7578 -0.8295999999999999 -0.4448 205
12.6797 -0.8242 1.9306999999999999 30
12.789100000000001 -0.8315 -0.1489 48
12.906199999999998 -0.8393999999999999 2.2734 232
9.3828 -0.6411 -1.6513999999999998 130
12.781199999999998 -0.8734999999999999 0.1489 228
10.710899999999999 -0.7323999999999999 -1.6309 192
12.8125 -0.8759999999999999 0.4468 238
12.539100000000001 -0.8569 -1.6113 123
12.5781 -0.8599 0.731 68
12.593800000000002 -0.8608 -1.3222999999999998 106
12.601600000000001 -0.8613 1.0283 247
12.7969 -0.8745 -1.0439 95
12.5078 -0.855 1.3135 210
12.789100000000001 -0.8745 -0.7432 107
12.664100000000001 -0.8652 1.6269999999999998 38
12.843800000000002 -0.8774 -0.44780000000000003 125
12.6797 -0.8667 1.9316 210
12.6875 -0.8672 -0.1478 40
12.914100000000001 -0.8823000000000001 2.2734 203
9.375 -0.6718999999999999 -1.6494 192
12.7422 -0.9136 0.14859999999999998 188
10.710899999999999 -0.7681 -1.6309 30
12.648399999999999 -0.9067000000000001 0.4409 64
12.5547 -0.8998999999999999 -1.6143 105
12.585899999999999 -0.9018999999999999 0.7314 66
12.593800000000002 -0.9028 -1.3222999999999998 111
12.593800000000002 -0.9023 1.0273 187
12.7422 -0.9131 -1.04 70
12.5156 -0.897 1.3144999999999998 25
12.7656 -0.915 -0.7422 192
12.648399999999999 -0.9067000000000001 1.626 69
12.835899999999999 -0.9198999999999999 -0.4475 11
12.6875 -0.9092 1.9325999999999999 193
12.7969 -0.917 -0.149 200
12.906199999999998 -0.9248000000000001 2.2734 208
9.375 -0.7065 -1.6503999999999999 4
12.875 -0.9702 0.1501 121
10.6953 -0.8062 -1.6288999999999998 15
12.7969 -0.9643999999999999 0.44630000000000003 255
12.5469 -0.9458 -1.6133000000000002 159
12.593800000000002 -0.9492 0.7323999999999999 46
12.601600000000001 -0.9501999999999999 -1.3241999999999998 229
12.5781 -0.9478 1.0264 254
12.8047 -0.9648 -1.0449 116
12.523399999999999 -0.9438 1.3154 114
12.726600000000001 -0.9595 -0.7402 14
12.648399999999999 -0.9536 1.6269999999999998 243
12.6328 -0.9521 -0.4407 175
12.6719 -0.9545999999999999 1.9306999999999999 63
12.6172 -0.9506999999999999 -0.1471 125
12.914100000000001 -0.9731000000000001 2.2754 35
9.3906 -0.7406999999999999 -1.6543 227
12.6953 -1.002 0.1481 103
10.7031 -0.8447 -1.6309 62
12.6172 -0.9951000000000001 0.44020000000000004 43
12.5547 -0.9902 -1.6143 38
12.601600000000001 -0.9937 0.7329000000000001 79
12.6094 -0.9945999999999999 -1.3252000000000002 177
12.585899999999999 -0.9926999999999999 1.0273 30
12.781199999999998 -1.0078 -1.0439 80
12.523399999999999 -0.9873000000000001 1.3154 184
12.8047 -1.0107 -0.7451000000000001 79
12.656199999999998 -0.998 1.6269999999999998 87
12.8125 -1.0107 -0.447 3
12.6719 -0.9995 1.9316 237
12.781199999999998 -1.0078 -0.1489 74
12.906199999999998 -1.0186 2.2754 130
9.3125 -0.769 -1.6406 161
12.8672 -1.0625 0.1501 121
10.7344 -0.8862000000000001 -1.6357 42
12.781199999999998 -1.0547 0.446 154
12.539100000000001 -1.0352 -1.6122999999999998 71
12.585899999999999 -1.0391 0.7319 74
12.6172 -1.041 -1.3252000000000002 210
12.585899999999999 -1.0391 1.0283 102
12.6875 -1.0479 -1.0361 255
12.5078 -1.0332 1.3144999999999998 76
12.6875 -1.0479 -0.7378 159
12.664100000000001 -1.0459 1.6288999999999998 243
12.781199999999998 -1.0547 -0.446 106
12.664100000000001 -1.0459 1.9316 49
12.789100000000001 -1.0556999999999999 -0.1492 113
12.914100000000001 -1.0664 2.2773 27
8.8281 -0.7598 -1.5547 31
12.8672 -1.1074 0.1501 97
10.7422 -0.9243000000000001 -1.6366999999999998 125
12.7969 -1.1016 0.4468 227
12.5469 -1.0801 -1.6143 115
12.5703 -1.082 0.7314 94
12.6094 -1.0859 -1.3252000000000002 213
12.585899999999999 -1.084 1.0283 30
12.789100000000001 -1.1006 -1.0449 134
12.5078 -1.0771 1.3154 99
12.8047 -1.1025 -0.7451000000000001 52
12.656199999999998 -1.0889 1.6279 14
12.781199999999998 -1.1006 -0.44630000000000003 192
12.6797 -1.0918 1.9346 131
12.6875 -1.0918 -0.1479 149
12.898399999999999 -1.1104 2.2754 79
8.6875 -0.7783 -1.5312000000000001 133
12.7344 -1.1406 0.14859999999999998 6
10.7422 -0.9629000000000001 -1.6387 97
12.6406 -1.1328 0.4412 241
12.5469 -1.124 -1.6152000000000002 162
12.5781 -1.127 0.7323999999999999 92
12.601600000000001 -1.1289 -1.3252000000000002 208
12.585899999999999 -1.1279000000000001 1.0283 168
12.8203 -1.1484 -1.0479 198
12.5156 -1.1211 1.3154 69
12.8125 -1.1475 -0.7456 137
12.6406 -1.1328 1.6269999999999998 99
12.843800000000002 -1.1514 -0.4487 73
12.6797 -1.1357 1.9346 148
12.789100000000001 -1.1455 -0.1493 190
12.8906 -1.1553 2.2754 5
8.6797 -0.8081 -1.5293 210
12.8594 -1.1973 0.1501 242
10.7344 -1.0 -1.6377000000000002 187
12.7969 -1.1914 0.447 11
12.5547 -1.1689 -1.6162 203
12.593800000000002 -1.1729 0.7329000000000001 153
12.601600000000001 -1.1729 -1.3252000000000002 103
12.5781 -1.1719 1.0283 119
12.726600000000001 -1.1845999999999999 -1.04 200
12.5156 -1.165 1.3163999999999998 97
12.718800000000002 -1.1845999999999999 -0.7406999999999999 233
12.648399999999999 -1.1777 1.6288999999999998 218
12.6875 -1.1816 -0.4434 54
12.6719 -1.1797 1.9336000000000002 126
12.6797 -1.1806999999999999 -0.1479 136
12.898399999999999 -1.2012 2.2773 17
8.6953 -0.8389 -1.5332 119
12.7344 -1.2285 0.1487 169
10.7344 -1.0361 -1.6387 14
12.773399999999999 -1.2324 0.44630000000000003 176
12.5469 -1.2109 -1.6162 255
12.585899999999999 -1.2139 0.7329000000000001 91
12.593800000000002 -1.2148 -1.3252000000000002 187
12.5781 -1.2139 1.0293 172
12.7031 -1.2256 -1.0391 157
12.5078 -1.207 1.3163999999999998 45
12.7344 -1.2285 -0.7417 94
12.656199999999998 -1.2207 1.6309 6
12.7422 -1.2295 -0.44530000000000003 93
12.664100000000001 -1.2217 1.9336000000000002 125
12.710899999999999 -1.2266 -0.1484 99
12.906199999999998 -1.2451 2.2793 219
8.6797 -0.8662000000000001 -1.5303 214
12.7344 -1.2705 0.1487 211
10.7578 -1.0742 -1.6425999999999998 11
12.710899999999999 -1.2686 0.44409999999999994 244
12.5469 -1.252 -1.6162 156
12.5781 -1.2549 0.7329000000000001 137
12.585899999999999 -1.2568000000000001 -1.3252000000000002 168
12.585899999999999 -1.2568000000000001 1.0303 169
12.5781 -1.2559 -1.0293 246
12.5 -1.248 1.3163999999999998 162
12.585899999999999 -1.2559 -0.7329000000000001 38
12.656199999999998 -1.2637 1.6309 154
12.664100000000001 -1.2637 -0.4426 197
12.656199999999998 -1.2637 1.9336000000000002 29
12.6797 -1.2656 -0.1481 93
12.8906 -1.2871000000000001 2.2773 247
8.6953 -0.9004000000000001 -1.5341999999999998 17
12.664100000000001 -1.3115 0.1479 158
10.7656 -1.1143 -1.6436000000000002 215
12.6953 -1.3144999999999998 0.44380000000000003 229
12.5469 -1.2988 -1.6172 52
12.5703 -1.3008000000000002 0.7323999999999999 189
12.5781 -1.3018 -1.3241999999999998 226
12.585899999999999 -1.3027000000000002 1.0303 101
12.585899999999999 -1.3027000000000002 -1.0303 73
12.5078 -1.2949000000000002 1.3163999999999998 122
12.5625 -1.3008000000000002 -0.7323999999999999 132
12.648399999999999 -1.3096 1.6299000000000001 171
12.593800000000002 -1.3037 -0.4404 16
12.6719 -1.3115 1.9355000000000002 138
12.5547 -1.2997999999999998 -0.1467 153
12.8203 -1.3271000000000002 2.2656 144
9.3594 -1.002 -1.6522999999999999 88
12.5625 -1.3447 0.1469 0
10.7578 -1.1514 -1.6436000000000002 156
12.593800000000002 -1.3486000000000002 0.4407 55
12.539100000000001 -1.3428 -1.6172 188
12.5703 -1.3457 0.7329000000000001 171
12.5625 -1.3447 -1.3232 68
12.5703 -1.3457 1.0293 214
12.5781 -1.3466999999999998 -1.0293 145
12.5156 -1.3397999999999999 1.3184 190
12.5703 -1.3457 -0.7329000000000001 52
12.6328 -1.3525 1.6288999999999998 54
12.585899999999999 -1.3466999999999998 -0.44020000000000004 111
12.6797 -1.3574000000000002 1.9385 181
12.5625 -1.3447 -0.1469 145
12.773399999999999 -1.3681999999999999 2.2578 66
9.4141 -1.0391 -1.6631 167
12.5781 -1.3887 0.1471 196
10.7656 -1.1885 -1.6455000000000002 70
12.5625 -1.3866999999999998 0.4397 245
12.5547 -1.3857 -1.6191 22
12.5781 -1.3887 0.7334 229
12.5703 -1.3877000000000002 -1.3241999999999998 196
12.5703 -1.3877000000000002 1.0293 57
12.5703 -1.3877000000000002 -1.0293 40
12.5156 -1.3818000000000001 1.3184 225
12.5781 -1.3887 -0.7334 47
12.648399999999999 -1.3965 1.6309 10
12.5703 -1.3877000000000002 -0.4399 243
12.656199999999998 -1.3975 1.9355000000000002 95
12.5781 -1.3887 -0.1471 47
12.781199999999998 -1.4111000000000002 2.2598 55
9.4219 -1.0723 -1.665 131
12.5703 -1.4297 0.1471 131
10.773399999999999 -1.2256 -1.6475 213
12.5625 -1.4297 0.4397 154
12.5469 -1.4268 -1.6181999999999999 2
12.5781 -1.4316 0.7339 231
12.5781 -1.4306999999999999 -1.3252000000000002 140
12.5625 -1.4287 1.0293 55
12.5625 -1.4297 -1.0293 79
12.5 -1.4219 1.3184 240
12.585899999999999 -1.4316 -0.7343999999999999 173
12.648399999999999 -1.4394999999999998 1.6328 59
12.5781 -1.4306999999999999 -0.44020000000000004 189
12.656199999999998 -1.4404 1.9365 157
12.5547 -1.4287 -0.1469 128
12.7969 -1.4561000000000002 2.2637 4
9.4219 -1.1074 -1.666 54
12.585899999999999 -1.4785 0.14730000000000001 101
10.781199999999998 -1.2666 -1.6494 219
12.5703 -1.4766 0.44020000000000004 58
12.539100000000001 -1.4727000000000001 -1.6181999999999999 238
12.5703 -1.4766 0.7334 187
12.5781 -1.4775 -1.3262 72
12.5703 -1.4766 1.0303 32
12.5703 -1.4766 -1.0303 239
12.5 -1.4687999999999999 1.3184 40
12.5625 -1.4766 -0.7334 149
12.656199999999998 -1.4863 1.6338 145
12.585899999999999 -1.4785 -0.4407 26
12.656199999999998 -1.4863 1.9365 105
12.5547 -1.4746000000000001 -0.1469 215
12.8828 -1.5137 2.2793 174
9.4219 -1.1406 -1.666 252
12.585899999999999 -1.5225 0.14730000000000001 83
10.781199999999998 -1.3047 -1.6494 156
12.5781 -1.5215 0.4404 77
12.539100000000001 -1.5175999999999998 -1.6200999999999999 152
12.5625 -1.5194999999999999 0.7334 180
12.5703 -1.5215 -1.3262 53
12.5781 -1.5215 1.0312000000000001 236
12.5703 -1.5215 -1.0303 188
12.4922 -1.5116999999999998 1.3184 39
12.5547 -1.5194999999999999 -0.7334 201
12.648399999999999 -1.5303 1.6338 125
12.585899999999999 -1.5225 -0.4407 25
12.664100000000001 -1.5332 1.9394999999999998 168
12.5703 -1.5215 -0.1472 186
9.4141 -1.1738 -1.665 140
12.5547 -1.5663999999999998 0.1471 204
10.781199999999998 -1.3447 -1.6494 128
12.5781 -1.5684 0.4407 137
12.539100000000001 -1.5644999999999998 -1.6200999999999999 174
12.5625 -1.5663999999999998 0.7339 51
12.5547 -1.5663999999999998 -1.3252000000000002 12
12.5625 -1.5674000000000001 1.0303 94
12.5781 -1.5684 -1.0312000000000001 113
12.5 -1.5586000000000002 1.3193000000000001 215
12.5547 -1.5654 -0.7334 108
12.6328 -1.5762 1.6328 72
12.5703 -1.5684 -0.4407 232
12.664100000000001 -1.5791 1.9394999999999998 235
12.5625 -1.5674000000000001 -0.1472 236
12.906199999999998 -1.6103999999999998 2.2871 16
9.4375 -1.21 -1.6699000000000002 69
12.5781 -1.6133000000000002 0.14730000000000001 73
10.773399999999999 -1.3818000000000001 -1.6494 9
12.5703 -1.6122999999999998 0.4407 198
12.5469 -1.6094 -1.6211000000000002 2
12.5703 -1.6122999999999998 0.7343999999999999 245
12.5625 -1.6113 -1.3262 217
12.5625 -1.6113 1.0312000000000001 81
12.5625 -1.6113 -1.0312000000000001 155
12.5 -1.6035 1.3193000000000001 214
12.5703 -1.6122999999999998 -0.7349 196
12.6406 -1.6221 1.6338 19
12.5703 -1.6122999999999998 -0.4407 212
12.656199999999998 -1.6230000000000002 1.9394999999999998 102
12.5625 -1.6113 -0.1472 41
12.9297 -1.6582 2.291 58
9.4531 -1.2451 -1.6738 161
12.5781 -1.6562000000000001 0.1475 214
10.781199999999998 -1.4188999999999998 -1.6513999999999998 223
12.5625 -1.6543 0.4407 234
12.539100000000001 -1.6503999999999999 -1.6211000000000002 112
12.5781 -1.6562000000000001 0.7354 50
12.5703 -1.6553 -1.3281 143
12.5703 -1.6543 1.0322 108
12.5547 -1.6533000000000002 -1.0312000000000001 129
12.4922 -1.6444999999999999 1.3193000000000001 36
12.5703 -1.6543 -0.7349 95
12.6406 -1.6641 1.6347999999999998 243
12.5625 -1.6533000000000002 -0.4407 74
12.648399999999999 -1.665 1.9385 206
12.5469 -1.6522999999999999 -0.1471 84
12.9219 -1.7012 2.291 43
9.4531 -1.2764 -1.6738 218
12.5703 -1.6972999999999998 0.1475 136
10.781199999999998 -1.4561000000000002 -1.6522999999999999 154
12.5625 -1.6963 0.4409 210
12.5078 -1.6894999999999998 -1.6181999999999999 167
12.5625 -1.6963 0.7349 156
12.5703 -1.6982 -1.3291 75
12.5703 -1.6972999999999998 1.0322 213
12.5703 -1.6972999999999998 -1.0322 91
12.4922 -1.6875 1.3203 206
12.5703 -1.6972999999999998 -0.7354 218
12.656199999999998 -1.709 1.6377000000000002 234
12.5703 -1.6972999999999998 -0.4412 158
12.648399999999999 -1.7080000000000002 1.9394999999999998 126
12.5547 -1.6953 -0.1472 242
12.898399999999999 -1.7412 2.2871 209
9.4453 -1.3105000000000002 -1.6738 236
12.5625 -1.7431999999999999 0.14730000000000001 226
10.781199999999998 -1.4961000000000002 -1.6533000000000002 80
12.5625 -1.7441 0.4412 160
12.531199999999998 -1.7393 -1.6221 36
12.5547 -1.7422 0.7349 124
12.5703 -1.7441 -1.3291 140
12.5781 -1.7450999999999999 1.0342 23
12.5625 -1.7431999999999999 -1.0322 33
12.4844 -1.7324000000000002 1.3203 64
12.5547 -1.7422 -0.7349 65
12.648399999999999 -1.7549000000000001 1.6366999999999998 196
12.5703 -1.7441 -0.4414 43
12.6406 -1.7538999999999998 1.9394999999999998 48
12.5547 -1.7412 -0.14730000000000001 30
12.8828 -1.7881 2.2871 169
9.4531 -1.3447 -1.6758000000000002 68
12.5547 -1.7871000000000001 0.1475 51
10.789100000000001 -1.5352000000000001 -1.6543 60
12.5781 -1.79 0.44189999999999996 96
12.5 -1.7793 -1.6191 126
12.5625 -1.7871000000000001 0.7354 225
12.5547 -1.7871000000000001 -1.3281 44
12.5625 -1.7871000000000001 1.0322 206
12.5625 -1.7881 -1.0332 227
12.4922 -1.7783000000000002 1.3213 36
12.5547 -1.7871000000000001 -0.7354 234
12.6328 -1.7978999999999998 1.6357 157
12.5625 -1.7881 -0.4414 81
12.6406 -1.7988 1.9404 62
12.5547 -1.7871000000000001 -0.1475 185
12.8906 -1.835 2.2891 30
9.4609 -1.3809 -1.6787 193
12.5625 -1.8330000000000002 0.1476 149
10.7656 -1.5703 -1.6522999999999999 234
12.5703 -1.834 0.44189999999999996 204
12.531199999999998 -1.8281 -1.624 182
