# .PCD v0.7 - Point Cloud Data file format
VERSION 0.7
FIELDS x y z intensity
SIZE 4 4 4 4
TYPE F F F F
COUNT 1 1 1 1
WIDTH 1246
HEIGHT 1
VIEWPOINT 0 0 0 1 0 0 0
POINTS 1246
DATA ascii
1.8662 -6.1015999999999995 -0.9662999999999999 105
1.8252000000000002 -5.9688 0.2161 65
1.8955000000000002 -6.1953 -0.8276 206
1.8359 -6.0 0.3625 68
1.8408000000000002 -6.015599999999999 0.5103 74
1.8516 -6.050800000000001 0.6606000000000001 183
1.8125 -5.925800000000001 -0.3577 241
1.8544999999999998 -6.0625 0.8101 217
1.8184 -5.9414 -0.2152 214
1.8643 -6.0938 0.9653 253
1.8262 -5.9688 -0.0721 190
1.8730000000000002 -6.1211 1.1211 159
1.8428 -6.0977 -1.1162 185
1.8203 -6.0273 0.0727 226
1.8563999999999998 -6.144500000000001 -0.9727 229
1.8213 -6.0273 0.218 214
1.8779 -6.2188 -0.8301000000000001 240
1.8330000000000002 -6.0703 0.36619999999999997 30
1.8369 -6.078099999999999 0.5151 166
1.8496000000000001 -6.125 0.6679999999999999 39
1.8135 -6.0 -0.36210000000000003 28
1.8525 -6.1328 0.8184 116
1.8174000000000001 -6.015599999999999 -0.2177 196
1.8613 -6.1602 0.9745999999999999 216
1.8232 -6.0352 -0.0728 205
1.8769999999999998 -6.2109000000000005 1.1367 38
1.9727000000000001 -6.6015999999999995 -1.208 247
1.8213 -6.0977 0.0735 97
1.8622999999999998 -6.234400000000001 -0.9858 98
1.8213 -6.0977 0.2205 53
1.8622999999999998 -6.234400000000001 -0.8315 236
1.8330000000000002 -6.136699999999999 0.3699 18
1.8408000000000002 -6.1602 0.5215 226
1.8457 -6.1797 0.6733 90
1.8115 -6.0664 -0.3657 38
1.8594 -6.2265999999999995 0.8306 204
1.8193000000000001 -6.0898 -0.2202 93
1.8633000000000002 -6.238300000000001 0.9863 137
1.8213 -6.0977 -0.0735 8
1.8711000000000002 -6.265599999999999 1.1455 56
1.9727000000000001 -6.6836 -1.2217 118
1.8163999999999998 -6.1562 0.0742 47
1.9502000000000002 -6.609400000000001 -1.0439 69
1.8252000000000002 -6.1836 0.2234 103
1.8525 -6.2773 -0.8364 15
1.834 -6.2148 0.37450000000000006 170
1.8437999999999999 -6.2461 0.5283 186
1.8496000000000001 -6.269500000000001 0.6820999999999999 52
1.8056999999999999 -6.1211 -0.36869999999999997 106
1.8428 -6.2461 0.8320000000000001 122
1.8203 -6.167999999999999 -0.2228 251
1.8681999999999999 -6.332000000000001 1.0 201
1.8193000000000001 -6.167999999999999 -0.07429999999999999 124
1.8730000000000002 -6.3477 1.1602 215
1.9472999999999998 -6.6914 -1.2217 144
1.8125 -6.2265999999999995 0.075 150
1.9287 -6.625 -1.0459 49
1.8232 -6.265599999999999 0.2261 94
1.8447 -6.3398 -0.8438 108
1.8271000000000002 -6.2773 0.37770000000000004 154
1.8359 -6.3086 0.5332 224
1.8457 -6.3398 0.6895 26
1.8056999999999999 -6.203099999999999 -0.37329999999999997 154
1.8311000000000002 -6.2890999999999995 0.8373999999999999 246
1.8135 -6.230499999999999 -0.2249 110
1.8633000000000002 -6.3984000000000005 1.0098 161
1.8222999999999998 -6.2578 -0.0753 51
1.874 -6.4375 1.1748 196
1.9238 -6.6953 -1.2207 188
1.8144999999999998 -6.3125 0.0759 246
1.9053 -6.6328 -1.0459 96
1.8193000000000001 -6.332000000000001 0.22829999999999998 11
1.8397999999999999 -6.4023 -0.8515999999999999 137
1.8281 -6.363300000000001 0.3823 237
5.2890999999999995 -18.4062 -2.0078 107
1.8330000000000002 -6.3789 0.5386 174
1.8447 -6.417999999999999 0.6973 143
1.8047 -6.2812 -0.3774 239
1.8496000000000001 -6.4375 0.856 74
1.8105000000000002 -6.300800000000001 -0.22719999999999999 60
1.8584 -6.4688 1.0195 45
1.8184 -6.328099999999999 -0.0761 196
1.8700999999999999 -6.5078 1.1865 111
1.8975 -6.6953 -1.2197 105
1.8135 -6.4023 0.07690000000000001 29
1.8847999999999998 -6.6484000000000005 -1.0479 157
1.8115 -6.390599999999999 0.2302 69
1.8397999999999999 -6.4922 -0.8628 104
1.8291 -6.457000000000001 0.38770000000000004 134
3.873 -13.664100000000001 -1.4883000000000002 26
1.8281 -6.453099999999999 0.5439 3
1.8369 -6.484400000000001 0.7036 23
1.8008000000000002 -6.355499999999999 -0.3818 88
1.8466999999999998 -6.515599999999999 0.8656999999999999 174
1.8086000000000002 -6.3828 -0.2299 200
1.8584 -6.5586 1.0332 134
1.8135 -6.3984000000000005 -0.07690000000000001 190
1.8691 -6.5977 1.2012 70
1.875 -6.707000000000001 -1.2207 64
1.8096 -6.4727 0.07769999999999999 184
1.8633000000000002 -6.6640999999999995 -1.0488 192
1.8125 -6.484400000000001 0.23329999999999998 134
1.8319999999999999 -6.550800000000001 -0.8695999999999999 34
1.8213 -6.511699999999999 0.3909 243
3.8086 -13.625 -1.4824000000000002 159
1.8300999999999998 -6.546900000000001 0.5518 66
1.834 -6.5586 0.7114 127
1.7949000000000002 -6.421900000000001 -0.38530000000000003 239
1.8447 -6.5977 0.8755 59
1.8027000000000002 -6.4453 -0.23190000000000002 0
1.8555000000000001 -6.636699999999999 1.0449 4
1.8096 -6.4727 -0.07769999999999999 212
1.8652000000000002 -6.671900000000001 1.2139 117
1.8477000000000001 -6.699199999999999 -1.2178 12
1.8018 -6.5352 0.0784 214
1.8466999999999998 -6.6953 -1.0527 200
1.8115 -6.5703 0.2361 178
1.8300999999999998 -6.636699999999999 -0.8798999999999999 114
1.8193000000000001 -6.5977 0.39549999999999996 150
3.7461 -13.5781 -1.4756 248
1.8281 -6.6289 0.5581 9
4.0664 -14.7422 -1.2451 83
1.8359 -6.6562 0.7212000000000001 240
1.791 -6.4922 -0.3892 78
1.8408000000000002 -6.671900000000001 0.8853 51
1.8056999999999999 -6.546900000000001 -0.2354 21
1.8555000000000001 -6.7265999999999995 1.0576 228
1.8047 -6.542999999999999 -0.0784 127
1.8613 -6.7461 1.2266 31
1.8319999999999999 -6.734400000000001 -1.2227 222
1.7969 -6.605499999999999 0.07919999999999999 134
1.8369 -6.75 -1.0605 33
1.8105000000000002 -6.6523 0.239 59
1.8418 -6.769500000000001 -0.897 99
1.8174000000000001 -6.6797 0.40009999999999996 58
3.6992000000000003 -13.601600000000001 -1.4766 214
1.8222999999999998 -6.699199999999999 0.5635 115
3.707 -13.625 -1.1494 139
1.835 -6.7461 0.7304999999999999 216
1.79 -6.578099999999999 -0.39399999999999996 59
1.8369 -6.7539 0.8945000000000001 164
1.8008000000000002 -6.6172 -0.2377 255
1.8544999999999998 -6.8164 1.0703 57
1.8047 -6.6328 -0.0795 57
1.8622999999999998 -6.8438 1.2431999999999999 133
1.8163999999999998 -6.769500000000001 -1.2285 12
1.7959 -6.6953 0.0801 20
1.8271000000000002 -6.8086 -1.0684 171
1.8047 -6.7265999999999995 0.2413 86
3.9589999999999996 -14.7578 -1.96 140
1.8163999999999998 -6.769500000000001 0.4053 223
1.8193000000000001 -6.7812 0.5698 72
3.6445 -13.5781 -1.1445 90
1.834 -6.8359000000000005 0.7393000000000001 224
1.7930000000000001 -6.6836 -0.39990000000000003 213
1.8359 -6.8438 0.9057999999999999 221
1.7938999999999998 -6.6875 -0.24 49
1.8486000000000002 -6.886699999999999 1.0811 56
1.8066 -6.734400000000001 -0.0806 58
1.8594 -6.9297 1.2578 29
1.8115 -6.8477 -1.2412 213
1.8008000000000002 -6.8047 0.0814 163
1.9169999999999998 -7.2461 -1.1367 58
1.8008000000000002 -6.8086 0.2441 208
3.8906 -14.7031 -1.9512 39
1.8154 -6.863300000000001 0.4104 150
2.334 -8.8203 -0.9541 160
1.8174000000000001 -6.8672 0.5767 103
3.9120999999999997 -14.781199999999998 -1.2451 61
1.8300999999999998 -6.917999999999999 0.7476 187
1.7891 -6.761699999999999 -0.4043 104
1.8359 -6.9414 0.9179999999999999 54
1.7969 -6.7890999999999995 -0.24350000000000002 231
1.8408000000000002 -6.957000000000001 1.0908 145
1.7978999999999998 -6.792999999999999 -0.08130000000000001 15
1.8594 -7.0273 1.2744 214
1.8857 -7.230499999999999 -1.3096 31
1.7959 -6.8828 0.0823 83
1.8994 -7.2852 -1.1416 3
1.7978999999999998 -6.894500000000001 0.2469 88
3.8574 -14.789100000000001 -1.96 21
1.8056999999999999 -6.921900000000001 0.4133 26
2.3027 -8.8281 -0.9545999999999999 38
1.8193000000000001 -6.9727 0.585 246
3.7012 -14.1875 -1.1943000000000001 126
1.8300999999999998 -7.015599999999999 0.7573000000000001 127
1.7852000000000001 -6.8438 -0.4089 107
1.8359 -7.0390999999999995 0.9301999999999999 50
1.7891 -6.859400000000001 -0.2457 194
1.8447 -7.074199999999999 1.1084 93
1.7938999999999998 -6.875 -0.08220000000000001 63
1.8584 -7.125 1.291 131
1.8594 -7.230499999999999 -1.3096 38
1.7871000000000001 -6.949199999999999 0.083 249
3.25 -12.6328 -1.9834 108
1.7978999999999998 -6.9922 0.2502 85
3.8339999999999996 -14.906199999999998 -1.9746000000000001 183
1.8086000000000002 -7.0312 0.4199 21
2.2676 -8.8203 -0.9526 42
1.8213 -7.082000000000001 0.5938 209
1.8232 -7.0898 0.7646 162
1.7793 -6.921900000000001 -0.4131 64
1.834 -7.1328 0.9419 179
1.7881 -6.957000000000001 -0.249 50
1.8466999999999998 -7.1797 1.124 66
1.7930000000000001 -6.9765999999999995 -0.0833 57
1.8544999999999998 -7.2109000000000005 1.3056999999999999 224
2.6426 -10.414100000000001 -1.8866999999999998 200
1.7919999999999998 -7.0586 0.0843 79
2.1953 -8.6562 -1.3544999999999998 221
1.8027000000000002 -7.1015999999999995 0.25420000000000004 156
2.1934 -8.6406 -1.1416 218
1.8096 -7.1328 0.4253 101
2.1387 -8.4297 -0.9092 75
1.8203 -7.175800000000001 0.6011 4
2.1094 -8.3125 -0.6968000000000001 153
1.8330000000000002 -7.2227 0.7783 41
1.7772999999999999 -7.0039 -0.4177 212
1.8300999999999998 -7.2109000000000005 0.9517 142
1.7919999999999998 -7.0625 -0.2527 78
1.8457 -7.2734000000000005 1.1377 230
1.7969 -7.082000000000001 -0.08449999999999999 111
1.8544999999999998 -7.3086 1.3222999999999998 150
2.5976999999999997 -10.3828 -1.8799000000000001 106
1.7919999999999998 -7.1602 0.08539999999999999 97
2.1582 -8.625 -1.3496000000000001 11
1.7978999999999998 -7.1836 0.2568 227
2.1387 -8.5469 -1.1279000000000001 230
1.8105000000000002 -7.234400000000001 0.4314 68
2.1094 -8.4297 -0.9087000000000001 1
1.8144999999999998 -7.25 0.6069 222
2.082 -8.3203 -0.6973 116
1.834 -7.328099999999999 0.7896 146
1.7793 -7.109400000000001 -0.4238 6
1.8319999999999999 -7.3203 0.9653 36
1.7861000000000002 -7.136699999999999 -0.2551 19
1.8477000000000001 -7.3828 1.1543 121
1.7969 -7.1836 -0.0857 71
1.8563999999999998 -7.417999999999999 1.3408000000000002 35
2.5566 -10.3828 -1.8779 197
1.7891 -7.261699999999999 0.08650000000000001 251
2.125 -8.625 -1.3477000000000001 174
1.7938999999999998 -7.2812 0.26 165
2.0859 -8.4688 -1.1162 180
1.8075999999999999 -7.3359000000000005 0.43700000000000006 176
2.123 -8.6172 -0.9277 151
1.8154 -7.3711 0.6162 38
2.0723 -8.4141 -0.7041 91
1.8241999999999998 -7.4023 0.7968999999999999 80
1.7753999999999999 -7.207000000000001 -0.4292 220
1.8281 -7.421900000000001 0.9775 142
1.7812000000000001 -7.230499999999999 -0.2583 109
1.8408000000000002 -7.4727 1.167 149
1.7919999999999998 -7.2734000000000005 -0.0867 80
1.8535 -7.5273 1.3594 5
2.5195 -10.3828 -1.876 230
1.7871000000000001 -7.363300000000001 0.0877 245
2.0977 -8.6406 -1.3496000000000001 28
1.791 -7.3828 0.2634 168
2.0762 -8.5547 -1.127 245
1.8027000000000002 -7.4297 0.4421 242
2.0801 -8.5703 -0.9224 76
1.8184 -7.4922 0.626 135
2.0723 -8.5391 -0.7139 73
1.8184 -7.4922 0.8062 214
1.7705000000000002 -7.296900000000001 -0.4343 30
1.8319999999999999 -7.550800000000001 0.9941 250
1.7832 -7.3477 -0.2622 62
1.8397999999999999 -7.582000000000001 1.1836 199
1.7881 -7.3672 -0.08779999999999999 180
1.8506 -7.6289 1.3769999999999998 180
2.4805 -10.3906 -1.876 62
1.7793 -7.453099999999999 0.08869999999999999 189
2.0684 -8.6562 -1.3516 181
1.79 -7.4961 0.2673 27
2.0703 -8.6719 -1.1406 169
1.7997999999999998 -7.5352 0.4482 44
2.0488 -8.5859 -0.9229 190
1.8086000000000002 -7.574199999999999 0.6323 147
2.0684 -8.6562 -0.7236 5
1.8163999999999998 -7.605499999999999 0.8173999999999999 110
1.7637 -7.386699999999999 -0.43920000000000003 175
1.8252000000000002 -7.640599999999999 1.0049 90
1.7803 -7.457000000000001 -0.2659 13
1.8378999999999999 -7.699199999999999 1.2002 55
1.7841999999999998 -7.4727 -0.0889 52
1.8447 -7.7265999999999995 1.3936000000000002 62
2.4434 -10.3906 -1.875 199
1.7763999999999998 -7.5547 0.0898 153
2.9863 -12.7031 -1.9834 120
1.7852000000000001 -7.5938 0.2705 233
2.082 -8.8594 -1.165 254
1.7949000000000002 -7.6328 0.4536 23
2.043 -8.6875 -0.9331 247
1.8047 -7.675800000000001 0.6406000000000001 81
2.0684 -8.7969 -0.7343999999999999 163
1.8163999999999998 -7.7265999999999995 0.8295999999999999 116
1.7646000000000002 -7.5039 -0.4458 201
1.8184 -7.734400000000001 1.0166 158
1.7744 -7.546900000000001 -0.26899999999999996 51
1.8378999999999999 -7.8164 1.2178 196
1.7822 -7.578099999999999 -0.0901 33
1.8418 -7.8359000000000005 1.4121000000000001 16
2.4102 -10.406199999999998 -1.876 238
1.7832 -7.699199999999999 0.0915 172
2.9219 -12.6172 -1.9678 156
1.7832 -7.699199999999999 0.2742 43
2.0762 -8.9688 -1.1787 24
1.7938999999999998 -7.7461 0.46 31
3.4707 -14.9844 -1.6122999999999998 105
1.8027000000000002 -7.7852 0.6489 144
2.0645 -8.9141 -0.7437 238
1.8232 -7.8711 0.8447 119
1.7637 -7.613300000000001 -0.45189999999999997 166
1.8184 -7.8515999999999995 1.0312000000000001 191
1.7715 -7.6523 -0.2725 95
1.8359 -7.925800000000001 1.2344 97
1.7832 -7.699199999999999 -0.0915 83
1.8447 -7.9648 1.4336000000000002 69
2.373 -10.398399999999999 -1.874 117
1.7772999999999999 -7.792999999999999 0.0926 88
2.8848000000000003 -12.6406 -1.9707 198
1.7793 -7.796900000000001 0.2776 116
2.0527 -9.0 -1.1816 138
1.7949000000000002 -7.8672 0.4668 104
2.1094 -9.25 -0.9922 238
1.8066 -7.921900000000001 0.6602 141
2.0645 -9.0469 -0.7544 37
1.8115 -7.9414 0.8515999999999999 246
1.7646000000000002 -7.734400000000001 -0.45899999999999996 193
1.8222999999999998 -7.988300000000001 1.0488 254
1.7725 -7.769500000000001 -0.2764 149
1.8311000000000002 -8.0312 1.249 29
1.7772999999999999 -7.792999999999999 -0.0926 154
1.8477000000000001 -8.1016 1.4569999999999999 241
2.334 -10.414100000000001 -1.875 150
1.7715 -7.9062 0.09380000000000001 10
2.8339999999999996 -12.648399999999999 -1.9707 126
1.7725 -7.9102 0.2812 218
3.5762 -15.960899999999999 -2.0977 135
1.7841999999999998 -7.9609000000000005 0.4722 28
2.0762 -9.2656 -0.9937 10
1.7949000000000002 -8.0156 0.667 71
2.0566 -9.1797 -0.7646 8
1.8075999999999999 -8.0703 0.8643000000000001 155
1.7559 -7.8359000000000005 -0.4646 161
1.8135 -8.0938 1.0615 157
1.7686000000000002 -7.894500000000001 -0.2808 221
1.8252000000000002 -8.1484 1.2666 241
1.7725 -7.9102 -0.09390000000000001 174
1.8397999999999999 -8.2109 1.4766 244
2.293 -10.406199999999998 -1.8711000000000002 150
1.7686000000000002 -8.0234 0.09519999999999999 211
2.7949 -12.6797 -1.9736000000000002 37
1.7715 -8.0391 0.28559999999999997 64
3.5273000000000003 -16.0 -2.1016 245
1.7822 -8.0859 0.4792 181
1.7988 -8.1641 0.6787000000000001 182
2.0605 -9.3516 -0.7783 149
1.8027000000000002 -8.1797 0.8759999999999999 14
1.7529 -7.953099999999999 -0.47090000000000004 154
1.8056999999999999 -8.1953 1.0742 98
1.7627000000000002 -7.9961 -0.2842 84
1.8174000000000001 -8.2422 1.2812000000000001 245
1.7694999999999999 -8.0234 -0.09519999999999999 180
1.8281 -8.2969 1.4902000000000002 127
2.2559 -10.406199999999998 -1.8700999999999999 4
1.7616999999999998 -8.125 0.0964 191
2.7422000000000004 -12.656199999999998 -1.9678 13
1.7686000000000002 -8.1641 0.2898 112
3.4707 -16.0156 -2.1016 103
1.7744 -8.1875 0.4849 201
3.1797000000000004 -14.6719 -1.5732 63
1.7841999999999998 -8.2344 0.6846 21
2.0449 -9.4297 -0.7847 167
1.7978999999999998 -8.2969 0.8876999999999999 231
1.75 -8.0781 -0.478 170
1.8027000000000002 -8.3125 1.0889 51
1.7568000000000001 -8.1094 -0.2878 33
1.8203 -8.3984 1.3037 72
1.7656 -8.1406 -0.0966 50
1.8300999999999998 -8.4453 1.5166 87
2.2207 -10.414100000000001 -1.8711000000000002 240
1.7549000000000001 -8.2344 0.09759999999999999 49
2.6855 -12.601600000000001 -1.9580000000000002 94
1.7607 -8.2578 0.2932 206
3.4141000000000004 -16.0312 -2.1016 246
1.7753999999999999 -8.3281 0.4929 154
3.1367000000000003 -14.718800000000002 -1.5771000000000002 117
1.7803 -8.3594 0.6943 240
3.2129000000000003 -15.0703 -1.2549 46
1.7997999999999998 -8.4453 0.9033 221
1.7461000000000002 -8.1953 -0.4849 235
1.8027000000000002 -8.4609 1.1074 251
1.7519999999999998 -8.2188 -0.2917 218
1.8174000000000001 -8.5312 1.3232 106
1.7616999999999998 -8.2656 -0.098 164
1.8300999999999998 -8.5859 1.541 162
2.1836 -10.4297 -1.8711000000000002 12
1.7578 -8.3906 0.09939999999999999 103
2.6308999999999996 -12.5625 -1.9512 175
1.7588 -8.3984 0.29760000000000003 131
3.3476999999999997 -15.9844 -2.0957 255
1.7715 -8.4609 0.5 82
3.1132999999999997 -14.8594 -1.5918 99
1.7861000000000002 -8.5234 0.708 187
3.0762 -14.6797 -1.2217 87
1.7949000000000002 -8.5703 0.9155 218
1.7412 -8.3125 -0.4915 135
1.7997999999999998 -8.5938 1.124 181
1.7480000000000002 -8.3438 -0.2961 17
1.8174000000000001 -8.6797 1.3457 220
1.7588 -8.3984 -0.09939999999999999 147
1.8291 -8.7344 1.5663999999999998 125
2.1465 -10.4297 -1.8700999999999999 67
1.7538999999999998 -8.5234 0.1008 202
2.5879000000000003 -12.5703 -1.9502000000000002 240
1.7588 -8.5469 0.303 6
3.2870999999999997 -15.968800000000002 -2.0918 221
1.7694999999999999 -8.5938 0.5078 245
3.082 -14.968800000000002 -1.6016 42
1.7861000000000002 -8.6797 0.7202 164
3.0137 -14.6406 -1.2178 14
1.7959 -8.7266 0.9316 185
1.7372999999999998 -8.4453 -0.4988 244
1.7997999999999998 -8.7422 1.1426 252
1.75 -8.5 -0.3013 28
1.8125 -8.8047 1.3643 210
1.7529 -8.5156 -0.1008 249
1.8281 -8.8828 1.5918 60
2.1113 -10.4375 -1.8700999999999999 52
1.7461000000000002 -8.6406 0.10220000000000001 160
2.541 -12.5625 -1.9482 69
1.7538999999999998 -8.6797 0.3074 145
3.2108999999999996 -15.8828 -2.0781 155
1.7656 -8.7344 0.5156000000000001 57
3.0254000000000003 -14.968800000000002 -1.6006 19
1.7772999999999999 -8.7891 0.7290000000000001 34
3.0233999999999996 -14.960899999999999 -1.2431999999999999 136
1.7938999999999998 -8.8672 0.9468000000000001 240
1.7372999999999998 -8.5938 -0.5073 162
1.7978999999999998 -8.8906 1.1611 42
1.7441 -8.625 -0.3054 250
1.8144999999999998 -8.9766 1.3896000000000002 49
1.751 -8.6641 -0.1024 15
1.8213 -9.0078 1.6133000000000002 254
2.0742 -10.4453 -1.8700999999999999 205
1.749 -8.8125 0.1041 217
2.5 -12.593800000000002 -1.9512 190
1.7529 -8.8281 0.3125 45
3.1523000000000003 -15.875 -2.0762 32
1.7607 -8.8672 0.5234000000000001 83
2.9726999999999997 -14.968800000000002 -1.5996000000000001 191
1.7578 -8.8516 0.7334 226
2.9433999999999996 -14.8281 -1.2305 192
1.7891 -9.0078 0.9609000000000001 197
1.7294999999999998 -8.7109 -0.5142 73
1.791 -9.0234 1.1777 217
1.7393 -8.7578 -0.31010000000000004 208
1.8096 -9.1172 1.4102000000000001 74
1.7480000000000002 -8.8047 -0.1041 144
1.8193000000000001 -9.1641 1.6396000000000002 241
2.041 -10.4531 -1.8711000000000002 74
1.7441 -8.9375 0.1057 243
2.457 -12.593800000000002 -1.9502000000000002 86
1.751 -8.9766 0.31739999999999996 241
3.0858999999999996 -15.8203 -2.0684 208
1.7588 -9.0156 0.5317000000000001 152
2.8887 -14.8047 -1.5811000000000002 172
1.7734 -9.0859 0.7529 190
2.8964999999999996 -14.843800000000002 -1.2314 202
1.7881 -9.1641 0.9765999999999999 44
1.7294999999999998 -8.8672 -0.5229 78
1.7938999999999998 -9.1953 1.1992 202
1.7344 -8.8906 -0.3145 52
1.8125 -9.2891 1.4375 238
1.7450999999999999 -8.9453 -0.1057 238
1.8193000000000001 -9.3281 1.6680000000000001 39
2.0078 -10.476600000000001 -1.874 199
1.7334 -9.0469 0.10679999999999999 147
2.4121 -12.585899999999999 -1.9472999999999998 70
1.7441 -9.1016 0.3218 47
3.0273000000000003 -15.7969 -2.0645 202
1.7559 -9.1641 0.54 140
2.8594 -14.9219 -1.5918 51
1.7715 -9.2422 0.7651 150
2.793 -14.5703 -1.208 90
1.7841999999999998 -9.3125 0.9917 165
1.7305000000000001 -9.0312 -0.5322 243
1.791 -9.3438 1.2187999999999999 47
1.7353999999999998 -9.0547 -0.3201 90
1.8096 -9.4375 1.459 241
1.7402000000000002 -9.0781 -0.1072 199
1.8203 -9.5 1.6982 108
1.9658000000000002 -10.460899999999999 -1.8700999999999999 154
1.7324000000000002 -9.2188 0.10880000000000001 103
2.373 -12.625 -1.9531 106
1.7393 -9.2578 0.3271 66
2.9688 -15.8047 -2.0625 65
1.7519999999999998 -9.3281 0.5493 2
2.8086 -14.9531 -1.5947 10
1.7686000000000002 -9.4141 0.7787999999999999 160
2.7422000000000004 -14.593800000000002 -1.209 162
1.7783000000000002 -9.4688 1.0078 205
1.7187999999999999 -9.1484 -0.5386 9
1.7812000000000001 -9.4844 1.2354 174
1.7256 -9.1875 -0.3247 149
1.7997999999999998 -9.5781 1.4794999999999998 156
1.7324000000000002 -9.2188 -0.10880000000000001 136
1.8174000000000001 -9.6719 1.7285 118
1.9268 -10.460899999999999 -1.8672 129
1.7294999999999998 -9.3906 0.1107 11
2.3164 -12.5703 -1.9424000000000001 148
1.7363 -9.4219 0.3328 81
2.9120999999999997 -15.8047 -2.0625 40
1.7402000000000002 -9.4453 0.5562 17
2.7558999999999996 -14.9531 -1.5937999999999999 186
1.7588 -9.5469 0.7890999999999999 32
2.6895 -14.593800000000002 -1.209 10
1.7793 -9.6562 1.0273 13
1.71 -9.2812 -0.5464 44
1.7822 -9.6719 1.2598 30
1.7236000000000002 -9.3516 -0.33030000000000004 194
1.8066 -9.8047 1.5137 56
1.7324000000000002 -9.3984 -0.1109 65
1.8066 -9.8047 1.751 107
1.8925999999999998 -10.460899999999999 -1.8672 49
1.7147999999999999 -9.4844 0.1118 32
2.2793 -12.601600000000001 -1.9463 155
1.7324000000000002 -9.5781 0.3381 30
2.8555 -15.789100000000001 -2.0586 199
1.7471 -9.6562 0.5684 207
2.7051 -14.960899999999999 -1.5928 181
1.7627000000000002 -9.75 0.8057 14
2.6660000000000004 -14.7422 -1.2197 18
1.7686000000000002 -9.7812 1.04 53
1.7128999999999999 -9.4688 -0.5571 141
1.7822 -9.8516 1.2822 29
1.7216999999999998 -9.5234 -0.3362 232
1.7969 -9.9375 1.5332 65
1.7294999999999998 -9.5625 -0.1127 183
1.8096 -10.0078 1.7861000000000002 57
1.8563999999999998 -10.468800000000002 -1.8672 119
1.7275 -9.7344 0.11470000000000001 74
2.2344 -12.593800000000002 -1.9434 239
1.7294999999999998 -9.75 0.344 173
2.8026999999999997 -15.7969 -2.0586 208
1.7431999999999999 -9.8203 0.5776 152
2.6543 -14.968800000000002 -1.5928 228
1.7588 -9.9141 0.8188 71
2.6464999999999996 -14.914100000000001 -1.2334 89
1.7734 -9.9922 1.0625 216
1.7138999999999998 -9.6641 -0.5684 77
1.7803 -10.0391 1.3056999999999999 239
1.7158000000000002 -9.6719 -0.3411 34
1.7959 -10.125 1.5615 115
1.7246000000000001 -9.7188 -0.11460000000000001 102
1.8086000000000002 -10.1953 1.8184 145
1.8174000000000001 -10.476600000000001 -1.8672 113
1.7138999999999998 -9.8828 0.1164 25
2.1855 -12.601600000000001 -1.9434 58
1.7197 -9.9141 0.3496 81
2.7305 -15.7344 -2.0488 164
1.7344 -10.0 0.5879 29
2.543 -14.656199999999998 -1.5596 203
1.7480000000000002 -10.0781 0.8320000000000001 107
2.5839999999999996 -14.898399999999999 -1.2314 80
1.7666 -10.1797 1.082 34
1.7050999999999998 -9.8281 -0.5776 136
1.7753999999999999 -10.2344 1.3311000000000002 175
1.71 -9.8594 -0.3477 11
1.79 -10.3203 1.5908000000000002 69
1.7178 -9.8984 -0.1166 160
1.7997999999999998 -10.375 1.8496000000000001 103
1.7793 -10.476600000000001 -1.8662 142
1.7138999999999998 -10.0859 0.1188 242
2.1445 -12.625 -1.9463 143
1.7158000000000002 -10.1016 0.35600000000000004 40
2.6699 -15.726600000000001 -2.0469 193
1.7313999999999998 -10.1953 0.5986 224
2.4844 -14.6172 -1.5537 100
1.7538999999999998 -10.3281 0.8521 211
2.5586 -15.0625 -1.2441 218
1.7597999999999998 -10.3594 1.0996 144
1.7012 -10.0156 -0.5884 65
1.7734 -10.4375 1.3563999999999998 125
1.7050999999999998 -10.0391 -0.3538 14
1.7881 -10.523399999999999 1.6211000000000002 164
1.7109 -10.0781 -0.1186 68
1.8018 -10.6094 1.8896000000000002 254
1.7393 -10.460899999999999 -1.8622999999999998 252
1.7012 -10.2344 0.1204 83
2.1016 -12.6406 -1.9482 87
1.7109 -10.289100000000001 0.3625 110
2.6191000000000004 -15.7578 -2.0488 10
1.7266 -10.3828 0.6099 129
2.4375 -14.664100000000001 -1.5575999999999999 94
1.7450999999999999 -10.5 0.8656999999999999 59
3.0195 -18.1562 -1.5 176
1.7725 -10.656199999999998 1.1309 191
1.6982 -10.2109 -0.5996 173
1.7694999999999999 -10.6406 1.3818000000000001 175
1.7012 -10.2344 -0.3604 196
1.7852000000000001 -10.7344 1.6533000000000002 176
1.709 -10.281199999999998 -0.121 88
1.791 -10.773399999999999 1.9180000000000001 76
1.7012 -10.460899999999999 -1.8603999999999998 156
1.6963 -10.4297 0.12269999999999999 76
2.0547 -12.6328 -1.9453 108
1.709 -10.5078 0.3699 52
2.5449 -15.6406 -2.0332 240
1.7246000000000001 -10.601600000000001 0.6221 115
2.3926 -14.7031 -1.5615 118
1.7422 -10.710899999999999 0.8823000000000001 72
2.3496 -14.4453 -1.1914 238
1.751 -10.7656 1.1416 252
1.6934 -10.406199999999998 -0.6108 91
1.7519999999999998 -10.773399999999999 1.3984 90
1.6953 -10.4219 -0.3667 9
1.7793 -10.9375 1.6836000000000002 140
1.7050999999999998 -10.4844 -0.1233 215
1.7938999999999998 -11.031199999999998 1.9628999999999999 234
1.6631 -10.4531 -1.8584 71
1.6982 -10.6719 0.1255 213
1.999 -12.5625 -1.9336000000000002 173
1.6991999999999998 -10.6797 0.376 90
2.4961 -15.6875 -2.0391 191
1.71 -10.75 0.6309 35
2.375 -14.9219 -1.584 92
1.7256 -10.843800000000002 0.8931 212
2.293 -14.414100000000001 -1.1885 82
1.749 -10.9922 1.165 108
1.6855000000000002 -10.593800000000002 -0.6215999999999999 239
1.7597999999999998 -11.0625 1.4355000000000002 48
1.6885 -10.6094 -0.37329999999999997 236
1.7803 -11.1953 1.7216999999999998 148
1.6982 -10.6797 -0.1255 122
1.8203 -11.4375 2.0352 208
1.624 -10.4453 -1.8555000000000001 50
1.6846 -10.8281 0.1273 229
1.959 -12.601600000000001 -1.9375 69
1.6934 -10.8906 0.3831 14
2.4297 -15.6172 -2.0273 164
1.7119 -11.0078 0.6455 191
2.3203 -14.9219 -1.5830000000000002 212
1.7344 -11.148399999999999 0.9185 198
2.2422 -14.414100000000001 -1.1875 8
1.7519999999999998 -11.2656 1.1934 9
1.6846 -10.835899999999999 -0.6353 218
1.7549000000000001 -11.289100000000001 1.4638999999999998 151
1.6846 -10.835899999999999 -0.3811 72
1.7744 -11.406199999999998 1.7538999999999998 110
1.6885 -10.851600000000001 -0.1276 62
1.7978999999999998 -11.5625 2.0566 180
1.5888999999999998 -10.4453 -1.8555000000000001 139
1.6904 -11.1094 0.1305 218
1.9228999999999998 -12.6406 -1.9424000000000001 93
1.6904 -11.1094 0.3906 44
2.3848 -15.6719 -2.0332 36
1.7109 -11.25 0.6592 21
2.2695 -14.9219 -1.5819999999999999 171
1.7285 -11.3594 0.9351 123
2.2285 -14.656199999999998 -1.207 60
1.7402000000000002 -11.4375 1.2119 124
1.6787 -11.031199999999998 -0.6465000000000001 69
1.7519999999999998 -11.5156 1.4931999999999999 181
1.6836000000000002 -11.0625 -0.3889 93
1.7734 -11.656199999999998 1.7919999999999998 129
1.6875 -11.093800000000002 -0.1304 90
1.5518 -10.4297 -1.8516 211
1.6797 -11.2969 0.1326 147
1.876 -12.6094 -1.9375 160
1.6855000000000002 -11.335899999999999 0.39840000000000003 0
2.3379 -15.710899999999999 -2.0391 112
1.6963 -11.406199999999998 0.6679999999999999 87
2.1699 -14.585899999999999 -1.5449000000000002 4
1.7227000000000001 -11.5781 0.9526 131
1.7431999999999999 -11.718800000000002 1.2412 54
1.6747999999999998 -11.2656 -0.6597 75
1.7480000000000002 -11.75 1.5234 22
1.6806999999999999 -11.2969 -0.3972 4
1.7686000000000002 -11.8906 1.8262 107
1.6836000000000002 -11.3203 -0.1329 236
1.5116999999999998 -10.4375 -1.8525 124
1.6787 -11.593800000000002 0.1361 1
1.8213 -12.5781 -1.9316 240
1.6797 -11.601600000000001 0.4075 151
2.1387 -14.773399999999999 -1.915 204
1.6943000000000001 -11.7031 0.6851 227
2.0996 -14.4922 -1.5341999999999998 18
1.71 -11.8125 0.9712000000000001 59
2.1348 -14.7422 -1.2129 209
1.7353999999999998 -11.9844 1.2676 9
1.6621000000000001 -11.476600000000001 -0.6724 168
1.7353999999999998 -11.9844 1.5527000000000002 236
1.666 -11.5 -0.40409999999999996 16
1.7607 -12.156199999999998 1.8662 24
1.6747999999999998 -11.5625 -0.13570000000000002 42
1.4766 -10.4531 -1.8544999999999998 135
1.666 -11.7969 0.1384 50
1.7793 -12.593800000000002 -1.9325999999999999 109
1.6728999999999998 -11.843800000000002 0.41600000000000004 37
2.0801 -14.718800000000002 -1.9072 212
1.6885 -11.9531 0.6997 255
2.0469 -14.4844 -1.5332 85
1.6982 -12.023399999999999 0.9878 172
2.084 -14.75 -1.2129 223
1.7187999999999999 -12.1719 1.2871000000000001 126
1.6591999999999998 -11.7422 -0.6875 14
1.7344 -12.273399999999999 1.5888999999999998 230
1.6621000000000001 -11.7656 -0.4131 109
1.6688999999999998 -11.8125 -0.1387 148
1.4404 -10.4453 -1.8516 155
1.6602000000000001 -12.039100000000001 0.1412 235
1.7324000000000002 -12.5625 -1.9277000000000002 110
1.6602000000000001 -12.0469 0.4229 25
2.0254 -14.6875 -1.9022999999999999 202
1.6855000000000002 -12.226600000000001 0.7153 173
2.002 -14.5156 -1.5352000000000001 149
1.7050999999999998 -12.3672 1.0166 80
1.7334 -12.5703 1.3291 137
1.6582 -12.023399999999999 -0.7036 211
1.7334 -12.5703 1.6269999999999998 167
1.6533000000000002 -11.9922 -0.42090000000000005 188
1.7938999999999998 -13.0156 1.9961000000000002 181
1.6582 -12.031199999999998 -0.1411 252
1.4043 -10.4375 -1.8496000000000001 78
1.6680000000000001 -12.398399999999999 0.1454 193
1.6924000000000001 -12.5781 -1.9297 12
1.665 -12.3828 0.4343 85
1.9766 -14.6953 -1.9022999999999999 162
1.6816 -12.5078 0.7314 234
1.9561000000000002 -14.539100000000001 -1.5371000000000001 253
1.7050999999999998 -12.6719 1.041 63
1.7216999999999998 -12.7969 1.3525 211
1.6494 -12.2656 -0.7173 3
1.7305000000000001 -12.8672 1.6641 221
1.6513999999999998 -12.281199999999998 -0.43090000000000006 161
1.6562000000000001 -12.3125 -0.1444 183
1.3584 -10.406199999999998 -1.8428 185
1.6465 -12.6094 0.1478 126
1.6406 -12.5625 -1.9258000000000002 144
1.6562000000000001 -12.6797 0.4448 81
1.9199000000000002 -14.7031 -1.9022999999999999 179
1.6669999999999998 -12.7656 0.7461 164
1.9013999999999998 -14.5625 -1.5391 144
1.6913999999999998 -12.9531 1.0635 166
1.9287 -14.7656 -1.2129 192
1.7168 -13.148399999999999 1.3887 10
1.6357 -12.523399999999999 -0.7323999999999999 67
1.7227000000000001 -13.1953 1.7061000000000002 219
1.6416 -12.5703 -0.4407 210
1.6455000000000002 -12.601600000000001 -0.1477 34
10.2969 -78.875 14.0156 6
1.3241999999999998 -10.4219 -1.8447 88
1.5928 -12.539100000000001 -1.9209 182
1.6455000000000002 -12.9531 0.45409999999999995 149
1.8788999999999998 -14.789100000000001 -1.9121000000000001 119
1.6641 -13.093800000000002 0.7656000000000001 200
1.876 -14.7656 -1.5596 241
1.6797 -13.218800000000002 1.085 231
1.9022999999999999 -14.976600000000001 -1.2295 184
1.6991999999999998 -13.375 1.4121000000000001 90
1.6318000000000001 -12.851600000000001 -0.7509999999999999 157
1.7109 -13.468800000000002 1.7412 228
1.6328 -12.851600000000001 -0.4507 194
1.6425999999999998 -12.9297 -0.1515 242
1.29 -10.4297 -1.8457 87
1.5469 -12.5078 -1.915 99
1.6377000000000002 -13.2422 0.4644 211
1.8477000000000001 -14.9375 -1.9306999999999999 36
1.6503999999999999 -13.343800000000002 0.7798 115
1.7959 -14.523399999999999 -1.5332 180
1.6728999999999998 -13.523399999999999 1.1094 99
1.7158000000000002 -13.875 1.4647999999999999 92
1.626 -13.148399999999999 -0.7686 254
1.7119 -13.843800000000002 1.7891 67
1.626 -13.148399999999999 -0.46090000000000003 32
1.6347999999999998 -13.218800000000002 -0.1549 224
1.2559 -10.4375 -1.8457 202
1.5088 -12.539100000000001 -1.9199000000000002 171
1.6328 -13.5781 0.4756 96
1.7715 -14.718800000000002 -1.9022999999999999 151
1.6513999999999998 -13.726600000000001 0.8018000000000001 31
1.7441 -14.5 -1.5303 130
1.6719 -13.8906 1.1396 11
1.6221 -13.4844 -0.7876000000000001 139
1.7021000000000002 -14.148399999999999 1.8271000000000002 180
1.6172 -13.4375 -0.47090000000000004 249
1.6279 -13.531199999999998 -0.15839999999999999 123
1.2178 -10.4375 -1.8457 106
1.4638999999999998 -12.5625 -1.9219 111
1.6152000000000002 -13.851600000000001 0.4851 55
1.7109 -14.6719 -1.8944999999999999 155
1.6396000000000002 -14.0625 0.8208 109
1.6953 -14.5469 -1.5341999999999998 186
1.6553 -14.2031 1.1641 199
1.6044999999999998 -13.7656 -0.8037000000000001 128
1.7236000000000002 -14.781199999999998 1.9091999999999998 48
1.6084 -13.789100000000001 -0.4832 132
1.6152000000000002 -13.8594 -0.16219999999999998 29
1.1797 -10.4375 -1.8447 50
1.4180000000000001 -12.5469 -1.9188999999999998 94
1.6055000000000001 -14.1953 0.49729999999999996 140
1.6572 -14.656199999999998 -1.8916 208
1.6318000000000001 -14.4297 0.8423 71
1.6406 -14.5078 -1.5303 101
1.6484 -14.585899999999999 1.1953 103
1.5957 -14.1094 -0.8237000000000001 94
1.5977000000000001 -14.1328 -0.4949 69
1.6044999999999998 -14.1953 -0.1661 104
1.1445 -10.4531 -1.8466999999999998 191
1.5957 -14.5703 0.1705 115
1.3730000000000002 -12.531199999999998 -1.916 247
1.5937999999999999 -14.5547 0.5093 227
1.6074000000000002 -14.6797 -1.8936000000000002 134
1.6113 -14.710899999999999 0.8584 84
1.5897999999999999 -14.5156 -1.5303 103
1.6357 -14.9297 1.2236 78
1.6738 -15.281199999999998 1.6113 86
1.5869 -14.4844 -0.8452 72
1.584 -14.468800000000002 -0.5063 238
1.5937999999999999 -14.5469 -0.1703 156
1.1064 -10.4453 -1.8437999999999999 244
1.3252000000000002 -12.5078 -1.9111000000000002 158
1.5947 -15.0469 0.5264 114
1.5684 -14.7969 -1.9082 166
1.6143 -15.226600000000001 0.8881999999999999 74
1.6103999999999998 -15.1953 -1.6016 118
1.5693000000000001 -14.8125 -1.2129 26
1.5791 -14.898399999999999 -0.8691 5
1.5732 -14.843800000000002 -0.5195000000000001 18
1.5859 -14.960899999999999 -0.175 54
1.0713 -10.4531 -1.8457 123
1.2803 -12.4922 -1.9091999999999998 101
1.5830000000000002 -15.4453 0.5405 6
1.5312000000000001 -14.9453 -1.9277000000000002 173
1.6084 -15.6953 0.9155 6
1.5615 -15.2422 -1.6055000000000001 131
1.6221 -15.835899999999999 1.2959 22
1.5527000000000002 -15.156199999999998 -1.2412 146
1.6475 -16.0781 1.6943000000000001 114
1.5644999999999998 -15.2656 -0.8901 12
1.5596 -15.218800000000002 -0.5322 131
1.5752000000000002 -15.3672 -0.17980000000000002 208
1.0342 -10.4531 -1.8447 111
1.2334 -12.468800000000002 -1.9033000000000002 117
1.5596 -15.7656 0.5513 206
1.5518 -15.6797 -2.0215 60
1.584 -16.0156 0.9336 46
1.6200999999999999 -16.375 -1.7246000000000001 87
1.6211000000000002 -16.375 -1.3408000000000002 213
1.5527000000000002 -15.6875 -0.9146 238
1.5518 -15.6875 -0.5483 5
1.5615 -15.781199999999998 -0.18460000000000001 89
0.998 -10.4375 -1.8418 80
1.1934 -12.4844 -1.9062000000000001 193
1.5722999999999998 -16.4531 0.5752 146
1.4980000000000002 -15.6719 -2.0195 139
1.5897999999999999 -16.6406 0.9697 251
1.5654 -16.375 -1.7246000000000001 237
1.5654 -16.375 -1.3408000000000002 202
1.6602000000000001 -17.3594 1.8291 213
1.541 -16.1094 -0.9395 27
1.5438999999999998 -16.1562 -0.5649000000000001 146
1.5518 -16.2344 -0.1898 99
0.9634 -10.4453 -1.8428 62
1.1504 -12.476600000000001 -1.9033000000000002 157
1.5596 -16.9062 0.5908 221
1.4472999999999998 -15.6953 -2.0215 239
1.5811000000000002 -17.1406 0.9990000000000001 156
1.9521000000000002 -21.1719 -2.2305 58
1.5322 -16.6094 -0.9678 58
1.5341999999999998 -16.6406 -0.5815 243
1.5497999999999998 -16.7969 -0.19640000000000002 162
0.9238 -10.4531 -1.8437999999999999 198
1.1025 -12.476600000000001 -1.9022999999999999 110
1.5244 -17.25 0.603 24
1.3838 -15.656199999999998 -2.0156 33
1.8691 -21.1562 -2.2266 253
1.5272999999999999 -17.2969 -1.0068000000000001 114
1.5107 -17.0938 -0.5977 56
1.5186000000000002 -17.1875 -0.20079999999999998 252
0.8876999999999999 -10.460899999999999 -1.8447 246
1.0615 -12.5078 -1.9072 248
6.6914 -78.8125 2.7617000000000003 160
1.3281 -15.648399999999999 -2.0156 129
1.7949000000000002 -21.1562 -2.2266 19
0.8495999999999999 -10.4453 -1.8408000000000002 11
1.0195 -12.539100000000001 -1.9111000000000002 26
1.2744 -15.664100000000001 -2.0156 155
1.7158000000000002 -21.0938 -2.2188 245
0.8145 -10.468800000000002 -1.8437999999999999 16
0.9731000000000001 -12.5078 -1.9062000000000001 203
1.2168 -15.6328 -2.0117 228
1.6416 -21.0938 -2.2188 61
0.7793000000000001 -10.460899999999999 -1.8418 31
0.9281999999999999 -12.460899999999999 -1.8994 98
1.1611 -15.585899999999999 -2.0039 39
5.1172 -68.6875 4.0039 67
1.5722999999999998 -21.0938 -2.2188 172
0.7451000000000001 -10.468800000000002 -1.8437999999999999 147
0.8867 -12.460899999999999 -1.8984 171
1.1094 -15.585899999999999 -2.0059 38
0.7090000000000001 -10.476600000000001 -1.8447 57
0.8452 -12.5 -1.9033000000000002 193
1.0518 -15.5547 -2.0 94
1.4228999999999998 -21.0469 -2.2109 234
0.6738 -10.476600000000001 -1.8437999999999999 147
0.8027 -12.476600000000001 -1.9003999999999999 78
0.9990000000000001 -15.531199999999998 -1.9971 117
1.3516 -21.0156 -2.209 80
0.6343 -10.460899999999999 -1.8408000000000002 148
0.7603 -12.539100000000001 -1.9091999999999998 223
0.9423999999999999 -15.5469 -1.9980000000000002 128
1.2734 -21.0 -2.2051 74
0.5981000000000001 -10.468800000000002 -1.8408000000000002 239
0.7129000000000001 -12.4844 -1.8994 75
0.8887 -15.5547 -1.999 154
0.5645 -10.4922 -1.8447 56
0.6724 -12.5 -1.9022999999999999 80
0.8373999999999999 -15.5625 -1.999 43
1.126 -20.9375 -2.1992 0
0.5293 -10.4844 -1.8437999999999999 32
0.6313 -12.5 -1.9022999999999999 200
0.7842 -15.539100000000001 -1.9950999999999999 147
1.0459 -20.7188 -2.1758 53
2.6426 -52.3438 -3.0469 205
0.4902 -10.468800000000002 -1.8408000000000002 242
0.585 -12.4922 -1.9013999999999998 239
0.7271 -15.531199999999998 -1.9950999999999999 169
0.9702 -20.7344 -2.1758 105
0.4543 -10.4844 -1.8437999999999999 94
0.5429999999999999 -12.539100000000001 -1.9072 161
3.5879000000000003 -82.8125 2.8945 241
0.6709 -15.4922 -1.9893 50
0.9014 -20.8125 -2.1836 210
0.4133 -10.476600000000001 -1.8408000000000002 136
0.4932 -12.4922 -1.9003999999999999 224
0.6108 -15.476600000000001 -1.9872999999999998 90
0.8188 -20.75 -2.1777 189
0.375 -10.476600000000001 -1.8408000000000002 52
0.4482 -12.523399999999999 -1.9043 241
0.5547 -15.4922 -1.9883000000000002 215
0.7426999999999999 -20.75 -2.1777 6
0.3447 -10.5 -1.8457 226
0.4111 -12.523399999999999 -1.9043 180
0.5078 -15.468800000000002 -1.9853999999999998 233
0.6781999999999999 -20.6719 -2.168 195
0.3093 -10.4844 -1.8428 233
0.3696 -12.523399999999999 -1.9043 143
0.6089 -20.6406 -2.166 26
0.32420000000000004 -12.5469 -1.9072 255
0.141 -5.457000000000001 -0.6968000000000001 44
0.5327000000000001 -20.625 -2.1641 117
0.1202 -5.3828 -0.687 239
0.0989 -5.296900000000001 -0.8012999999999999 182
0.1002 -5.363300000000001 -0.6846 47
0.0797 -5.2461 -0.7935 239
0.0808 -5.324199999999999 -0.6792 7
0.0875 -5.7578 -0.6006 193
0.061399999999999996 -5.167999999999999 -0.7817000000000001 183
0.06269999999999999 -5.2812 -0.6738 225
0.0436 -5.0977 -0.7709999999999999 151
0.0438 -5.1172 -0.6528 106
0.0043 -0.9120999999999999 -0.1534 171
0.0239 -5.0742 -0.7670999999999999 49
0.027999999999999997 -5.9336 -0.48100000000000004 251
0.0301 -6.3789 -0.36840000000000006 170
0.0011 -0.9120999999999999 -0.1534 134
0.0062 -5.0547 -0.7642 249
0.0070999999999999995 -5.7852 -0.46880000000000005 116
-0.0019 -0.9277 -0.1561 25
-0.0106 -5.0625 -0.7651 124
-0.0108 -5.140599999999999 -0.6557999999999999 151
-0.012 -5.734400000000001 -0.4646 138
-0.0048 -0.8881999999999999 -0.1492 138
-0.0274 -5.0547 -0.7642 153
-0.0274 -5.0703 -0.6465000000000001 120
-0.0302 -5.574199999999999 -0.4517 70
-0.0337 -6.234400000000001 -0.3601 116
-0.0084 -0.9037999999999999 -0.152 16
-0.0467 -5.0469 -0.7631999999999999 2
-0.0475 -5.1328 -0.6548 81
-0.051500000000000004 -5.574199999999999 -0.4517 205
-0.057300000000000004 -6.1914 -0.3577 28
-0.0113 -0.8881999999999999 -0.1492 108
-0.0641 -5.0352 -0.7612000000000001 199
-0.06570000000000001 -5.1602 -0.6581999999999999 200
-0.07150000000000001 -5.609400000000001 -0.4546 133
-0.0816 -6.4062 -0.22190000000000001 33
-0.014499999999999999 -0.8920999999999999 -0.1499 24
-0.0817 -5.0273 -0.7603 234
-0.0834 -5.140599999999999 -0.6557999999999999 0
-0.0908 -5.5938 -0.4531 170
-0.0181 -0.9155 -0.15410000000000001 113
-0.099 -5.0195 -0.7587999999999999 243
-0.10039999999999999 -5.0898 -0.6494 3
-0.1091 -5.5312 -0.4482 136
-0.1249 -6.3359000000000005 -0.366 86
-0.12890000000000001 -6.5352 -0.0755 121
-0.0226 -0.9863 -0.1666 114
-0.11470000000000001 -5.0156 -0.7583 104
-0.1155 -5.0508 -0.644 149
-0.1272 -5.5625 -0.4509 148
-0.1448 -6.332000000000001 -0.366 47
-0.1499 -6.5547 -0.0757 189
-0.0245 -0.9351 -0.1576 191
-0.1317 -5.0312 -0.7606999999999999 103
-0.1332 -5.0859 -0.6489 71
-0.1454 -5.550800000000001 -0.45 86
-0.1632 -6.234400000000001 -0.3601 79
-0.19210000000000002 -7.3398 -0.2546 46
-0.1494 -5.0078 -0.7573000000000001 126
-0.151 -5.0547 -0.645 221
-0.16440000000000002 -5.5078 -0.44630000000000003 215
-0.1891 -6.332000000000001 -0.366 91
-0.2234 -7.480499999999999 -0.2595 131
-0.19649999999999998 -6.5859000000000005 -0.0761 43
-0.031200000000000002 -0.9351 -0.1576 175
-0.16690000000000002 -5.0039 -0.7573000000000001 31
-0.1693 -5.0742 -0.6479 184
-0.1825 -5.4727 -0.4434 193
-0.0331 -0.8955 -0.1506 89
-0.18510000000000001 -5.0 -0.7563 202
-0.1898 -5.1289 -0.6548 68
-0.2032 -5.488300000000001 -0.4451 163
-0.0347 -0.856 -0.1437 66
-0.27440000000000003 -6.7773 0.0784 67
-0.2024 -4.9961 -0.7559 103
-0.20829999999999999 -5.140599999999999 -0.6562 190
-0.22 -5.4297 -0.44020000000000004 10
-0.2959 -7.3047 -0.2534 236
-0.0365 -0.8286 -0.1388 35
-0.2942 -6.6875 0.0774 71
-0.2206 -5.0117 -0.7587999999999999 63
-0.2263 -5.144500000000001 -0.6567000000000001 34
-0.23800000000000002 -5.4102 -0.4385 51
-0.3208 -7.2852 -0.2529 244
-0.0444 -0.9346 -0.1576 73
-0.3191 -6.7148 0.07769999999999999 87
-0.23800000000000002 -5.0117 -0.7583 248
-0.2568 -5.4023 -0.4382 3
-0.3469 -7.300800000000001 -0.2534 240
-0.0446 -0.8755 -0.1471 222
-0.3406 -6.675800000000001 0.07730000000000001 85
-0.25370000000000004 -4.9727 -0.7529 216
-0.27440000000000003 -5.3789 -0.4363 233
-0.3711 -7.2773 -0.2527 208
-0.0524 -0.9619 -0.1625 216
-0.3638 -6.671900000000001 0.07719999999999999 39
-0.2705 -4.9609 -0.7509999999999999 244
-0.2717 -4.9844 -0.6367 41
-0.2925 -5.3672 -0.4353 161
-0.397 -7.2812 -0.2529 7
-0.0529 -0.9146 -0.15410000000000001 60
-0.384 -6.636699999999999 0.0768 223
-0.2883 -4.9844 -0.7548999999999999 222
-0.2876 -4.9766 -0.6353 232
-0.31079999999999997 -5.375 -0.436 37
-0.42210000000000003 -7.296900000000001 -0.2534 160
-0.0547 -0.8945000000000001 -0.1506 153
-0.40840000000000004 -6.675800000000001 0.07730000000000001 157
-0.3066 -5.0156 -0.7598 3
-0.31010000000000004 -5.0703 -0.6479 161
-0.3271 -5.3477 -0.4341 203
-0.4475 -7.3164 -0.25420000000000004 192
-0.0579 -0.8901 -0.1499 55
-0.4336 -6.667999999999999 0.07719999999999999 173
-0.321 -4.9375 -0.748 70
-0.3286 -5.0547 -0.6459999999999999 87
-0.34909999999999997 -5.3711 -0.436 223
-0.4731 -7.2773 -0.2529 243
-0.061399999999999996 -0.8959999999999999 -0.151 83
-0.4548 -6.636699999999999 0.07690000000000001 130
-0.3372 -4.918 -0.7456 230
-0.342 -4.9922 -0.6382 241
-0.34619999999999995 -5.0508 -0.5278 185
-0.36619999999999997 -5.3438 -0.4341 122
-0.49829999999999997 -7.2734000000000005 -0.2527 121
-0.0647 -0.8979 -0.1514 137
-0.47950000000000004 -6.6562 0.0771 118
-0.3589 -4.9805 -0.7548999999999999 167
-0.3569 -4.9531 -0.6333 40
-0.36060000000000003 -5.0078 -0.5229 95
-0.3848 -5.3398 -0.4336 65
-0.5249 -7.2852 -0.2534 229
-0.0669 -0.8856999999999999 -0.1492 47
-0.5 -6.6172 0.0767 213
-0.38060000000000005 -5.0391 -0.7637 247
-0.376 -4.9805 -0.6367 154
-0.3765 -4.9805 -0.5205 195
-0.4048 -5.359400000000001 -0.4353 53
-0.5478999999999999 -7.2539 -0.2522 44
-0.0691 -0.8755 -0.1475 61
-0.5195000000000001 -6.5898 0.0764 165
-0.3958 -5.0156 -0.7606999999999999 140
-0.3975 -5.0391 -0.6445000000000001 232
-0.3914 -4.9609 -0.5186 215
-0.4172 -5.2890999999999995 -0.42969999999999997 131
-0.0723 -0.8794 -0.1482 92
-0.541 -6.578099999999999 0.07629999999999999 236
-0.40990000000000004 -4.9844 -0.7563 43
-0.40990000000000004 -4.9844 -0.6382 86
-0.4102 -4.9883 -0.5215 138
-0.43799999999999994 -5.328099999999999 -0.43310000000000004 86
-0.0764 -0.8872 -0.1495 4
-0.5698 -6.6172 0.0768 255
-0.4307 -5.0039 -0.7593000000000001 191
-0.4275 -4.9648 -0.6357 158
-0.4282 -4.9727 -0.52 249
-0.4612 -5.359400000000001 -0.4355 152
-0.0797 -0.8887 -0.1499 111
-0.5908 -6.5938 0.0765 81
-0.446 -4.9766 -0.7559 111
-0.44409999999999994 -4.957 -0.6347999999999999 229
-0.447 -4.9922 -0.522 39
-0.47609999999999997 -5.3125 -0.4321 186
-0.0833 -0.8965000000000001 -0.1514 132
-0.6143 -6.609400000000001 0.0767 88
-0.46340000000000003 -4.9883 -0.7573000000000001 82
-0.4604 -4.9531 -0.6343 10
-0.49219999999999997 -5.296900000000001 -0.4307 35
-0.5679 -6.109400000000001 -0.3542 196
-0.4692 -4.8711 -0.8554999999999999 37
-0.6323 -6.5664 0.0762 49
-0.48219999999999996 -5.0078 -0.7603 54
-0.47729999999999995 -4.957 -0.6347999999999999 74
-0.5103 -5.296900000000001 -0.43119999999999997 211
-0.4802 -4.8047 -0.8438 100
-0.6577 -6.578099999999999 0.0764 65
-0.49729999999999996 -4.9727 -0.7559 43
-0.498 -4.9805 -0.6386999999999999 122
-0.4978 -4.9805 -0.5215 233
-0.5317000000000001 -5.3203 -0.43310000000000004 85
-0.4966 -4.7969 -0.8432999999999999 230
-0.6836 -6.6015999999999995 0.0767 242
-0.5127 -4.9531 -0.7524 4
-0.5181 -5.0039 -0.6420999999999999 124
-0.5176 -4.9961 -0.5234000000000001 142
-0.5513 -5.324199999999999 -0.4336 89
-0.6826000000000001 -6.5977 -0.0767 25
-0.5146000000000001 -4.8047 -0.8447 118
-0.7095 -6.6289 0.077 245
-0.5303 -4.9531 -0.7529 193
-5.3711 -50.1875 1.7607 222
-0.5322 -4.9727 -0.6377 69
-0.5366 -5.0117 -0.5254 154
-0.5654 -5.2852 -0.4304 74
-0.6528 -6.1015999999999995 -0.3542 156
-0.7090000000000001 -6.6211 -0.077 72
-0.5303 -4.793 -0.8432999999999999 224
-0.7275 -6.582000000000001 0.0765 66
-0.5532 -5.0039 -0.7612000000000001 192
-0.5537 -5.0078 -0.6426000000000001 26
-0.5542 -5.0117 -0.5254 66
-0.5874 -5.3125 -0.43310000000000004 84
-0.6743000000000001 -6.0977 -0.3542 25
-0.7275 -6.578099999999999 -0.0765 159
-0.5464 -4.7969 -0.8438 131
-0.7484999999999999 -6.5703 0.0764 154
-0.5688 -4.9922 -0.7598 68
-0.5728 -5.0273 -0.645 225
-0.5718 -5.0195 -0.5264 236
-0.604 -5.300800000000001 -0.4321 122
-0.7490000000000001 -6.574199999999999 -0.0765 223
-0.562 -4.7891 -0.8432999999999999 107
-0.769 -6.5547 0.07629999999999999 173
-0.5835 -4.9766 -0.7573000000000001 179
-0.5879 -5.0117 -0.6436 53
-6.0352 -51.4375 3.0117000000000003 25
-0.5869 -5.0039 -0.5249 33
-0.6187 -5.2734000000000005 -0.4302 73
-0.7725 -6.5859000000000005 -0.0767 73
-0.5815 -4.7969 -0.8447 246
-0.7979 -6.5859000000000005 0.0767 67
-0.6001 -4.9492 -0.7539 211
-0.6093999999999999 -5.0273 -0.6459999999999999 67
-6.113300000000001 -50.4375 2.9531 166
-0.6113000000000001 -5.043 -0.5293 65
-0.6392 -5.2773 -0.4304 22
-0.7974 -6.578099999999999 -0.0766 163
-0.6006 -4.8125 -0.8481000000000001 206
-0.8247 -6.609400000000001 0.077 140
-0.6182 -4.957 -0.7548999999999999 252
-6.1172 -49.0312 1.7236000000000002 166
-0.626 -5.0195 -0.645 168
-5.699199999999999 -45.6875 2.6776999999999997 158
-0.6221 -4.9844 -0.5234000000000001 68
-0.6616 -5.3047 -0.43310000000000004 246
-0.8193 -6.5703 -0.0765 153
-0.623 -4.8633 -0.8573999999999999 57
-0.8442000000000001 -6.5898 0.0768 162
-0.6372 -4.9766 -0.7583 117
-6.1875 -48.3125 1.6991999999999998 132
-0.6445000000000001 -5.0312 -0.6475 122
-6.5312 -51.0 2.9882999999999997 196
-0.6436 -5.0234 -0.5278 230
-0.6758 -5.2734000000000005 -0.4307 141
-0.8369 -6.5352 -0.0761 181
-0.6557999999999999 -4.9883 -0.8794 220
-0.8676999999999999 -6.6015999999999995 0.077 10
-0.6533 -4.9688 -0.7573000000000001 48
-0.6606000000000001 -5.0234 -0.6459999999999999 188
-5.9727 -45.4375 2.6641000000000004 222
-0.6602 -5.0195 -0.5278 81
-6.5586 -49.875 4.1055 152
-0.6973 -5.3047 -0.43329999999999996 250
-0.8584 -6.5312 -0.0761 225
-0.6704000000000001 -4.9531 -0.8740000000000001 109
-0.8911 -6.582000000000001 0.0768 145
-0.6694 -4.9414 -0.7539 192
-6.4297 -47.4688 1.6719 49
-0.6729 -4.9688 -0.6396000000000001 86
-6.234400000000001 -46.0312 2.7012 59
-0.6792 -5.0195 -0.5278 228
-0.7182999999999999 -5.3047 -0.4336 209
-0.9159999999999999 -6.765599999999999 -0.0789 181
-0.6675 -4.8047 -0.8481000000000001 75
-0.9146 -6.582000000000001 0.0768 198
-0.6875 -4.9453 -0.7548999999999999 85
-6.5977 -47.5 1.6728999999999998 206
-0.6904 -4.9727 -0.6401 94
-6.4023 -46.0625 2.7031 92
-0.6968000000000001 -5.0156 -0.5278 126
-0.7368000000000001 -5.3047 -0.4336 90
-0.9551000000000001 -6.875 -0.24059999999999998 159
-0.6846 -4.8125 -0.8495999999999999 81
-0.9365000000000001 -6.578099999999999 0.0768 244
-0.7031000000000001 -4.9414 -0.7544 72
-6.332000000000001 -44.4688 1.5674000000000001 195
-0.7051000000000001 -4.9531 -0.6382 246
-6.5234000000000005 -45.8438 2.6914 43
-0.7222 -5.0742 -0.5337 145
-0.7534000000000001 -5.292999999999999 -0.43310000000000004 31
-0.9761 -6.855499999999999 -0.2401 193
-0.9843999999999999 -6.917999999999999 -0.0808 207
-0.6981999999999999 -4.793 -0.8467 190
-0.9590000000000001 -6.578099999999999 0.0768 45
-0.7217 -4.9531 -0.7568 167
-0.7217 -4.9531 -0.6382 61
-6.6328 -45.5312 2.6738 213
-0.73 -5.0117 -0.5278 163
-0.7725 -5.300800000000001 -0.4341 104
-0.9995 -6.859400000000001 -0.2404 112
-0.7192000000000001 -4.8125 -0.8506 136
