# .PCD v0.7 - Point Cloud Data file format
VERSION 0.7
FIELDS x y z intensity
SIZE 4 4 4 4
TYPE F F F F
COUNT 1 1 1 1
WIDTH 1234
HEIGHT 1
VIEWPOINT 0 0 0 1 0 0 0
POINTS 1234
DATA ascii
-6.2812 -4.2695 -0.9712000000000001 241
-13.0156 -8.8516 0.9131 173
-12.718800000000002 -8.6484 1.2529000000000001 157
-6.4688 -4.3984 -0.6353 110
-12.6094 -8.5781 1.5986000000000002 151
-12.718800000000002 -8.6484 -0.8920999999999999 54
-12.7031 -8.6328 1.9707 12
-12.9297 -8.7891 -0.5444 134
-12.601600000000001 -8.5625 2.3164 212
-12.8906 -8.7578 -0.1813 104
-13.0 -8.8359 2.7637 1
-12.8047 -8.6328 0.1797 169
-12.9922 -8.7656 0.5454 48
-6.2773 -4.2344 -0.9682999999999999 149
-13.0078 -8.7734 0.9106000000000001 149
-6.2890999999999995 -4.2422 -0.7929999999999999 242
-12.718800000000002 -8.5781 1.25 67
-12.6094 -8.5078 1.5937999999999999 220
-12.7031 -8.5703 -0.8892 154
-12.7031 -8.5703 1.9647999999999999 207
-12.9219 -8.7188 -0.5425 67
-12.593800000000002 -8.5 2.3105 141
-12.7422 -8.5938 -0.1788 148
-12.976600000000001 -8.7578 2.7539 174
-12.914100000000001 -8.6484 0.1808 183
-13.023399999999999 -8.7188 0.5454 154
-6.269500000000001 -4.1992 -0.9653 179
-13.031199999999998 -8.7188 0.9097 5
-12.718800000000002 -8.5156 1.2470999999999999 180
-12.6328 -8.4609 1.5937999999999999 166
-12.710899999999999 -8.5078 -0.8876999999999999 129
-12.6875 -8.4922 1.959 186
-12.898399999999999 -8.6328 -0.54 224
-12.593800000000002 -8.4297 2.3047 206
-12.781199999999998 -8.5547 -0.179 34
-12.9922 -8.6953 2.75 191
-12.960899999999999 -8.6172 0.1812 102
-13.0078 -8.6406 0.5435 190
-6.265599999999999 -4.1641 -0.9619 72
-13.0156 -8.6484 0.9067000000000001 185
-6.3203 -4.1992 -0.7929999999999999 13
-12.710899999999999 -8.4453 1.2431999999999999 38
-12.664100000000001 -8.4141 1.5937999999999999 250
-12.718800000000002 -8.4531 -0.8856999999999999 128
-12.6875 -8.4297 1.9541 92
-12.914100000000001 -8.5781 -0.5396 193
-12.601600000000001 -8.375 2.3008 235
-12.8281 -8.5234 -0.17920000000000003 166
-13.0 -8.6406 2.7441000000000004 104
-12.9531 -8.5391 0.1805 94
-13.0 -8.5703 0.542 193
-6.261699999999999 -4.1289 -0.9595 186
-13.0156 -8.5859 0.9048 148
-6.296900000000001 -4.1523 -0.7881 75
-12.718800000000002 -8.3828 1.2402 84
-12.648399999999999 -8.3359 1.5878999999999999 17
-12.718800000000002 -8.3828 -0.8837999999999999 72
-12.6719 -8.3516 1.9463 52
-12.7578 -8.4141 -0.5317000000000001 102
-12.601600000000001 -8.3047 2.2949 73
-12.8906 -8.5 -0.1796 230
-13.0 -8.5703 2.7382999999999997 37
-12.9844 -8.4922 0.1805 137
-13.0 -8.5078 0.541 160
-6.2461 -4.0898 -0.9551000000000001 236
-13.0078 -8.5078 0.9014 159
-6.296900000000001 -4.1211 -0.7866 114
-12.718800000000002 -8.3203 1.2373 7
-6.355499999999999 -4.1602 -0.6167 186
-12.6406 -8.2734 1.5830000000000002 242
-6.4062 -4.1914 -0.4429 110
-12.6719 -8.2891 1.9424000000000001 231
-12.875 -8.4297 -0.5356000000000001 219
-12.656199999999998 -8.2812 2.3008 63
-12.914100000000001 -8.4531 -0.1796 155
-12.9844 -8.5 2.7285000000000004 243
-12.8594 -8.3516 0.1783 118
-12.9531 -8.4141 0.5376 55
-6.2539 -4.0625 -0.9541 127
-13.0 -8.4375 0.8989 71
-6.2734000000000005 -4.0742 -0.7812 73
-12.710899999999999 -8.2578 1.2344 34
-6.3359000000000005 -4.1133 -0.6133 118
-12.648399999999999 -8.2109 1.5800999999999998 195
-6.4140999999999995 -4.1641 -0.4424 152
-12.648399999999999 -8.2188 1.9346 92
-12.710899999999999 -8.25 -0.5273 130
-12.6953 -8.2422 2.3008 225
-12.835899999999999 -8.3359 -0.17809999999999998 165
-12.960899999999999 -8.4141 2.7168 84
-12.9453 -8.3438 0.17920000000000003 7
-13.0078 -8.3828 0.5386 111
-6.2539 -4.0312 -0.9512 246
-13.0 -8.3828 0.8975 194
-6.2578 -4.0352 -0.7783 99
-12.6953 -8.1797 1.2295 78
-6.328099999999999 -4.0781 -0.6113000000000001 104
-12.648399999999999 -8.1484 1.5771000000000002 157
-6.3984000000000005 -4.125 -0.44020000000000004 245
-12.6328 -8.1406 1.9277000000000002 221
-12.8281 -8.2656 -0.5312 213
-12.6953 -8.1797 2.2969 79
-12.914100000000001 -8.3203 -0.1787 213
-12.7578 -8.2188 2.668 72
-12.835899999999999 -8.2109 0.1772 165
-12.9375 -8.2734 0.5347 59
-6.238300000000001 -3.9901999999999997 -0.9473 201
-13.031199999999998 -8.3359 0.8975 147
-6.265599999999999 -4.0039 -0.7768999999999999 43
-12.6875 -8.1172 1.2266 235
-6.3164 -4.0391 -0.6089 145
-12.6875 -8.1094 1.5781 218
-6.4023 -4.0938 -0.4395 139
-12.625 -8.0781 1.9219 3
-6.542999999999999 -4.1836 -0.2695 90
-12.6797 -8.1094 2.2891 224
-12.781199999999998 -8.1797 -0.1765 14
-12.6875 -8.1172 2.6483999999999996 250
-12.8828 -8.1719 0.1775 151
-12.8594 -8.1641 0.5303 186
-6.2422 -3.9608999999999996 -0.9453 139
-12.7578 -8.0938 0.8765000000000001 234
-6.269500000000001 -3.9785000000000004 -0.7759 182
-12.7031 -8.0625 1.2256 213
-6.3125 -4.0039 -0.6069 185
-12.6719 -8.0391 1.5732 105
-6.394500000000001 -4.0586 -0.43799999999999994 187
-12.625 -8.0156 1.9180000000000001 47
-6.546900000000001 -4.1562 -0.26899999999999996 224
-12.6797 -8.0469 2.2832 161
-12.8047 -8.125 -0.1764 22
-12.6875 -8.0469 2.6406 182
-12.75 -8.0312 0.1753 235
-12.7031 -8.0 0.5225 35
-6.2227 -3.918 -0.9399 53
-12.7031 -8.0 0.8706 152
-6.269500000000001 -3.9473000000000003 -0.7739 92
-12.7031 -8.0 1.2227 247
-6.3203 -3.9785000000000004 -0.6064 83
-12.6953 -7.9961 1.5722999999999998 120
-6.3828 -4.0195 -0.436 148
-12.1094 -7.625 1.8359 244
-6.5352 -4.1172 -0.2681 173
-12.1172 -7.6289 2.1777 246
-12.6875 -7.9922 -0.1744 207
-12.093800000000002 -7.6172 2.5137 23
-12.718800000000002 -7.953099999999999 0.1746 187
-12.718800000000002 -7.949199999999999 0.522 62
-6.2188 -3.8867000000000003 -0.9375 27
-12.7031 -7.9414 0.8687 169
-6.261699999999999 -3.9141000000000004 -0.7715000000000001 180
-12.6719 -7.921900000000001 1.2168 227
-6.3125 -3.9473000000000003 -0.6045 190
-12.1172 -7.578099999999999 1.4980000000000002 29
-6.375 -3.9863 -0.43479999999999996 143
-12.0703 -7.546900000000001 1.8262 92
-6.5273 -4.082 -0.2671 134
-12.398399999999999 -7.75 2.2227 143
-12.6875 -7.9297 -0.1741 236
-12.648399999999999 -7.9102 2.623 209
-12.726600000000001 -7.8984000000000005 0.1743 94
-12.7031 -7.8828 0.5205 11
-6.2109000000000005 -3.8535000000000004 -0.9346 89
-12.6953 -7.8789 0.8667 65
-6.25 -3.8789 -0.7686 180
-12.664100000000001 -7.855499999999999 1.2139 85
-6.3164 -3.9199 -0.6035 91
-12.6953 -7.875 1.5654 124
-6.3789 -3.9589999999999996 -0.4341 114
-11.9297 -7.4023 1.8008000000000002 224
-6.515599999999999 -4.043 -0.2659 237
-12.7031 -7.8828 2.2734 174
-12.6953 -7.875 -0.17379999999999998 85
-12.6875 -7.8711 2.625 70
-12.726600000000001 -7.832000000000001 0.17379999999999998 105
-12.7031 -7.8164 0.519 171
-6.2148 -3.8242000000000003 -0.9331 105
-12.7031 -7.8203 0.8652 242
-6.2539 -3.8476999999999997 -0.7670999999999999 205
-12.6875 -7.8125 1.2139 23
-6.3086 -3.8808999999999996 -0.6011 101
-12.7031 -7.8164 1.5625 84
-6.386699999999999 -3.9297000000000004 -0.4336 21
-11.9375 -7.3477 1.7978999999999998 182
-6.5078 -4.0039 -0.26489999999999997 167
-12.6797 -7.8047 2.2637 104
-12.6953 -7.8125 -0.17350000000000002 169
-12.6875 -7.8086 2.6191000000000004 186
-12.710899999999999 -7.765599999999999 0.17329999999999998 155
-12.6797 -7.7461 0.5171 224
-6.203099999999999 -3.7891000000000004 -0.9297 15
-12.710899999999999 -7.761699999999999 0.8637999999999999 99
-6.25 -3.8164 -0.7651 47
-12.710899999999999 -7.761699999999999 1.2129 95
-6.296900000000001 -3.8457 -0.5991 221
-12.6797 -7.7422 1.5566 159
-6.3789 -3.8964999999999996 -0.4324 64
-11.9375 -7.2890999999999995 1.7938999999999998 243
-6.488300000000001 -3.9629000000000003 -0.2637 202
-12.6719 -7.734400000000001 2.2578 75
-12.6797 -7.7422 -0.1729 190
-12.6094 -7.699199999999999 2.5976999999999997 147
-12.7031 -7.6953 0.1729 166
-12.6953 -7.6914 0.5166 155
-6.199199999999999 -3.7558999999999996 -0.9268000000000001 31
-12.6953 -7.6914 0.8608 85
-6.2539 -3.7891000000000004 -0.7642 173
-12.6953 -7.6914 1.209 127
-6.2890999999999995 -3.8105 -0.5972 43
-12.5625 -7.609400000000001 1.5391 190
-11.9375 -7.230499999999999 1.79 199
-6.5 -3.9375 -0.2637 169
-12.5469 -7.605499999999999 2.2305 69
-12.6719 -7.675800000000001 -0.1724 75
-12.5469 -7.6015999999999995 2.5801 122
-3.8379000000000003 -2.3066 -0.7822 28
-12.7031 -7.636699999999999 0.1725 46
-12.7031 -7.6328 0.5156000000000001 132
-6.1953 -3.7245999999999997 -0.9243000000000001 67
-12.6953 -7.6289 0.8589 185
-6.234400000000001 -3.748 -0.7603 107
-12.625 -7.5859000000000005 1.1992 152
-6.292999999999999 -3.7832 -0.5962 149
-12.5625 -7.550800000000001 1.5361000000000002 163
-11.9375 -7.175800000000001 1.7861000000000002 244
-6.4922 -3.9023000000000003 -0.2627 127
-12.656199999999998 -7.609400000000001 2.2461 2
-12.6719 -7.6172 -0.172 81
-12.664100000000001 -7.613300000000001 2.5976999999999997 163
-12.710899999999999 -7.582000000000001 0.1722 222
-12.7031 -7.578099999999999 0.5146000000000001 243
-6.199199999999999 -3.6952999999999996 -0.9229 255
-12.6875 -7.5664 0.8569 97
-6.2265999999999995 -3.7129000000000003 -0.7573000000000001 43
-12.6875 -7.5664 1.2031 79
-6.296900000000001 -3.7558999999999996 -0.5952000000000001 195
-12.6875 -7.5664 1.5478999999999998 146
-11.9297 -7.113300000000001 1.7812000000000001 56
-6.4765999999999995 -3.8613 -0.2615 18
-12.156199999999998 -7.25 2.1523 121
-12.6875 -7.5664 -0.17190000000000003 136
-12.1797 -7.265599999999999 2.4941 138
-3.9199 -2.3203 -0.7959 5
-12.710899999999999 -7.519500000000001 0.1718 147
-12.6797 -7.5 0.5127 80
-6.199199999999999 -3.668 -0.9214 82
-12.6797 -7.5 0.8545 29
-6.238300000000001 -3.6895 -0.7568 209
-12.6797 -7.5 1.1992 251
-6.292999999999999 -3.7226999999999997 -0.5938 243
-12.6875 -7.5078 1.5449000000000002 131
-11.9219 -7.050800000000001 1.7753999999999999 26
-6.4648 -3.8242000000000003 -0.2605 180
-12.125 -7.175800000000001 2.1426 43
-12.7031 -7.515599999999999 -0.1716 217
-12.1719 -7.199199999999999 2.4863 46
-3.9863 -2.3398 -0.8076000000000001 95
-12.726600000000001 -7.4688 0.1716 22
-12.6797 -7.4414 0.5117 129
-6.199199999999999 -3.6387 -0.9189 220
-12.6953 -7.449199999999999 0.8534999999999999 160
-6.2422 -3.6620999999999997 -0.7559 144
-12.6797 -7.4414 1.1973 198
-6.292999999999999 -3.6933999999999996 -0.5922999999999999 255
-12.6875 -7.449199999999999 1.5419999999999998 93
-11.9219 -6.9961 1.7725 241
-6.4609000000000005 -3.793 -0.25980000000000003 80
-12.1172 -7.109400000000001 2.1348 110
-12.6719 -7.4375 -0.1709 214
-12.164100000000001 -7.136699999999999 2.4785 5
-12.7344 -7.4140999999999995 0.1714 72
-12.6875 -7.386699999999999 0.5107 95
-6.1875 -3.6016000000000004 -0.9155 187
-12.6953 -7.390599999999999 0.8521 88
-6.2461 -3.6367000000000003 -0.7548999999999999 240
-12.6953 -7.390599999999999 1.1963 197
-6.296900000000001 -3.6660000000000004 -0.5913 39
-12.6719 -7.3789 1.5371000000000001 172
-11.9375 -6.953099999999999 1.7715 246
-6.4688 -3.7656 -0.2595 174
-12.1094 -7.050800000000001 2.1309 122
-12.664100000000001 -7.375 -0.1705 204
-12.148399999999999 -7.074199999999999 2.4707 248
-12.6953 -7.3398 0.1707 32
-12.6797 -7.332000000000001 0.5097999999999999 183
-6.1875 -3.5762 -0.9136 179
-12.6797 -7.332000000000001 0.8495999999999999 77
-6.238300000000001 -3.6055 -0.7524 159
-12.6875 -7.332000000000001 1.1934 160
-6.300800000000001 -3.6426 -0.5908 24
-12.648399999999999 -7.3125 1.5312000000000001 130
-11.9219 -6.890599999999999 1.7666 168
-6.453099999999999 -3.7305 -0.2585 167
-12.125 -7.0078 2.1289 66
-12.664100000000001 -7.3203 -0.1702 250
-12.148399999999999 -7.019500000000001 2.4668 252
-12.6875 -7.2773 0.1702 37
-12.6875 -7.2773 0.5088 226
-6.1914 -3.5507999999999997 -0.9126000000000001 176
-12.6797 -7.2734000000000005 0.8477 141
-6.2265999999999995 -3.5723000000000003 -0.75 0
-12.6875 -7.2773 1.1904000000000001 222
-6.300800000000001 -3.6151999999999997 -0.5898 72
-12.3047 -7.0586 1.4863 21
-11.906199999999998 -6.828099999999999 1.7597999999999998 239
-6.453099999999999 -3.7012 -0.2581 133
-12.1094 -6.949199999999999 2.123 183
-12.656199999999998 -7.261699999999999 -0.1698 189
-12.156199999999998 -6.9727 2.4629 34
-4.1641 -2.3691 -0.8373999999999999 58
-12.6953 -7.2188 0.1699 17
-6.2773 -3.5702999999999996 -1.0947 24
-12.6719 -7.203099999999999 0.5073 181
-6.1914 -3.5195 -0.9106000000000001 96
-12.6875 -7.2109000000000005 0.8462000000000001 221
-6.230499999999999 -3.543 -0.7490000000000001 191
-12.6719 -7.203099999999999 1.1865 67
-6.300800000000001 -3.582 -0.5884 219
-12.2969 -6.9922 1.4824000000000002 159
-11.914100000000001 -6.7734000000000005 1.7578 249
-6.449199999999999 -3.6660000000000004 -0.25730000000000003 164
-12.101600000000001 -6.8789 2.1152 152
-12.6719 -7.203099999999999 -0.1696 249
-12.156199999999998 -6.9102 2.459 130
-4.1836 -2.3594 -0.8398 99
-12.710899999999999 -7.167999999999999 0.1697 26
-6.3515999999999995 -3.582 -1.1055 192
-12.6797 -7.1484000000000005 0.5063 92
-6.1875 -3.4901999999999997 -0.9087000000000001 209
-12.6875 -7.1562 0.8447 50
-6.234400000000001 -3.5156 -0.7476 96
-12.6719 -7.1484000000000005 1.1845999999999999 251
-6.2890999999999995 -3.5469 -0.5864 137
-12.289100000000001 -6.9336 1.4785 36
-11.9219 -6.7227 1.7559 14
-6.4414 -3.6327999999999996 -0.2563 147
-12.093800000000002 -6.8203 2.1094 143
-12.656199999999998 -7.136699999999999 -0.1689 41
-12.164100000000001 -6.859400000000001 2.4551 61
-4.2148 -2.3574 -0.8438 0
-12.7031 -7.105499999999999 0.1693 202
-6.390599999999999 -3.5742000000000003 -1.1104 60
-12.6797 -7.0938 0.5054 114
-6.1875 -3.4608999999999996 -0.9067000000000001 103
-12.664100000000001 -7.082000000000001 0.8412999999999999 0
-6.238300000000001 -3.4901999999999997 -0.7465999999999999 230
-12.6797 -7.0938 1.1826 60
-6.292999999999999 -3.5195 -0.5854 184
-12.273399999999999 -6.863300000000001 1.4736000000000002 228
-11.914100000000001 -6.6640999999999995 1.75 199
-6.4453 -3.6035000000000004 -0.2561 108
-12.093800000000002 -6.765599999999999 2.1074 3
-12.1406 -6.7890999999999995 2.4453 19
-4.2109 -2.3359 -0.8418000000000001 152
-12.7031 -7.046900000000001 0.1689 99
-6.2265999999999995 -3.4531 -1.0791 72
-12.6875 -7.0390999999999995 0.5049 175
-6.1953 -3.4355 -0.9057999999999999 12
-12.6719 -7.0273 0.8403 46
-6.2265999999999995 -3.4551 -0.7441 20
-12.6797 -7.0352 1.1806999999999999 56
-6.292999999999999 -3.4901999999999997 -0.584 156
-12.281199999999998 -6.8125 1.4716999999999998 79
-11.898399999999999 -6.6015999999999995 1.7450999999999999 136
-6.449199999999999 -3.5781 -0.2559 164
-12.101600000000001 -6.7148 2.1035 111
-12.656199999999998 -7.019500000000001 -0.16829999999999998 102
-12.125 -6.730499999999999 2.4375 210
-4.2812 -2.3555 -0.8540000000000001 70
-12.6797 -6.980499999999999 0.16829999999999998 48
-6.1836 -3.4023000000000003 -1.0693000000000001 146
-12.6797 -6.9765999999999995 0.5034000000000001 27
-6.1953 -3.4101999999999997 -0.9043000000000001 63
-12.6719 -6.9765999999999995 0.8389 121
-6.2265999999999995 -3.4276999999999997 -0.7422 76
-12.6172 -6.9453 1.1729 82
-6.2890999999999995 -3.4608999999999996 -0.5825 66
-12.2969 -6.769500000000001 1.4707 59
-11.898399999999999 -6.546900000000001 1.7412 114
-6.4414 -3.5469 -0.25489999999999996 225
-12.101600000000001 -6.6602 2.0996 83
-12.656199999999998 -6.9648 -0.168 130
-12.125 -6.675800000000001 2.4336 250
-6.199199999999999 -3.3867000000000003 -1.2383 206
-12.6953 -6.9297 0.16820000000000002 155
-6.171900000000001 -3.3711 -1.0654000000000001 115
-12.6719 -6.917999999999999 0.5024000000000001 52
-6.2109000000000005 -3.3906 -0.9048 214
-12.6719 -6.921900000000001 0.8373999999999999 158
-6.2227 -3.3983999999999996 -0.7406999999999999 135
-12.4844 -6.8164 1.1582 236
-6.300800000000001 -3.4414 -0.5825 203
-12.2969 -6.7148 1.4678 104
-11.898399999999999 -6.5 1.7383000000000002 187
-6.4414 -3.5195 -0.2546 187
-12.085899999999999 -6.5977 2.0918 107
-12.656199999999998 -6.9140999999999995 -0.1677 138
-12.1328 -6.6289 2.4297 204
-6.199199999999999 -3.3555 -1.2354 8
-12.656199999999998 -6.8515999999999995 0.1674 93
-6.1797 -3.3457 -1.0654000000000001 121
-12.6172 -6.832000000000001 0.4993 98
-6.1914 -3.3516000000000004 -0.8998999999999999 79
-12.593800000000002 -6.8164 0.8306 107
-6.234400000000001 -3.375 -0.7406999999999999 166
-12.4375 -6.734400000000001 1.1514 76
-6.2852 -3.4023000000000003 -0.5801 53
-12.3203 -6.671900000000001 1.4678 19
-11.898399999999999 -6.4414 1.7353999999999998 133
-6.457000000000001 -3.4961 -0.2546 157
-12.085899999999999 -6.542999999999999 2.0898 5
-12.5625 -6.800800000000001 -0.1661 164
-12.148399999999999 -6.578099999999999 2.4297 56
-6.2109000000000005 -3.3358999999999996 -1.2363 76
-12.5078 -6.7148 0.165 17
-6.1836 -3.3202999999999996 -1.0635 251
-12.460899999999999 -6.6875 0.4919 190
-6.1875 -3.3223000000000003 -0.8979 234
-12.476600000000001 -6.699199999999999 0.8212999999999999 74
-6.2422 -3.3516000000000004 -0.7402 156
-12.4297 -6.671900000000001 1.1484 152
-6.292999999999999 -3.3789 -0.5801 134
-12.351600000000001 -6.6289 1.4687999999999999 89
-11.914100000000001 -6.394500000000001 1.7334 68
-6.542999999999999 -3.5137 -0.2576 144
-12.148399999999999 -6.519500000000001 2.0957 209
-12.4297 -6.675800000000001 -0.1641 194
-12.1953 -6.546900000000001 2.4336 249
-6.25 -3.3281 -1.2412 220
-12.5078 -6.6602 0.1648 199
-6.199199999999999 -3.3007999999999997 -1.0645 23
-12.468800000000002 -6.640599999999999 0.4915 240
-6.1914 -3.2988 -0.897 168
-12.460899999999999 -6.636699999999999 0.8188 215
-6.2461 -3.3262 -0.7393000000000001 119
-12.4375 -6.625 1.1475 177
-6.3047 -3.3594 -0.5801 247
-12.3594 -6.5859000000000005 1.4678 104
-11.8906 -6.332000000000001 1.7275 126
-12.1797 -6.484400000000001 2.0977 24
-12.4297 -6.6211 -0.1638 249
-12.1953 -6.4961 2.4297 99
-12.4844 -6.5977 0.1642 102
-6.1875 -3.2695 -1.0605 78
-12.476600000000001 -6.5938 0.491 179
-6.1953 -3.2733999999999996 -0.8959999999999999 62
-12.4844 -6.5977 0.8188 27
-6.234400000000001 -3.293 -0.7363 18
-12.4531 -6.578099999999999 1.1465 231
-6.3477 -3.3535000000000004 -0.583 48
-12.3828 -6.542999999999999 1.4678 53
-11.8594 -6.265599999999999 1.7197 84
-12.1797 -6.4375 2.0938 130
-12.468800000000002 -6.5859000000000005 -0.16390000000000002 89
-12.2031 -6.449199999999999 2.4258 14
-6.1914 -3.2422000000000004 -1.2246 220
-12.523399999999999 -6.5586 0.16440000000000002 80
-6.1914 -3.2422000000000004 -1.0586 93
-12.4844 -6.5390999999999995 0.4902 227
-6.199199999999999 -3.2461 -0.8945000000000001 228
-12.531199999999998 -6.5625 0.8203 3
-6.2265999999999995 -3.2617000000000003 -0.7343999999999999 53
-12.476600000000001 -6.5312 1.1465 220
-6.324199999999999 -3.3125 -0.5796 54
-12.3672 -6.4765999999999995 1.4628999999999999 109
-11.8672 -6.2148 1.7178 255
-12.1797 -6.3789 2.0898 105
-12.476600000000001 -6.5352 -0.1638 177
-12.2031 -6.390599999999999 2.4219 47
-6.1953 -3.2168 -1.2236 181
-12.593800000000002 -6.5390999999999995 0.165 251
-6.1914 -3.2148000000000003 -1.0576 33
-12.5469 -6.515599999999999 0.4917 20
-6.1953 -3.2168 -0.8926000000000001 210
-12.593800000000002 -6.5390999999999995 0.8228 103
-6.234400000000001 -3.2382999999999997 -0.7339 6
-12.539100000000001 -6.5078 1.1504 63
-6.328099999999999 -3.2851999999999997 -0.5786 170
-12.375 -6.425800000000001 1.4609 90
-11.875 -6.1640999999999995 1.7158000000000002 6
-12.164100000000001 -6.3164 2.084 74
-12.5078 -6.4961 -0.16390000000000002 139
-12.1953 -6.332000000000001 2.416 146
-6.1797 -3.1816000000000004 -1.2178 102
-12.6328 -6.5078 0.1653 225
-6.203099999999999 -3.1933999999999996 -1.0576 177
-12.601600000000001 -6.488300000000001 0.4932 69
-6.1797 -3.1836 -0.8887 205
-12.648399999999999 -6.515599999999999 0.8251999999999999 78
-6.2265999999999995 -3.207 -0.7319 47
-12.531199999999998 -6.453099999999999 1.1475 135
-12.3594 -6.363300000000001 1.4561000000000002 140
-11.8828 -6.1211 1.7138999999999998 244
-12.156199999999998 -6.261699999999999 2.0781 175
-12.5469 -6.4648 -0.1642 118
-8.4062 -4.3281 1.6591999999999998 28
-6.175800000000001 -3.1543 -1.2148 33
-12.648399999999999 -6.4609000000000005 0.16519999999999999 144
-6.203099999999999 -3.168 -1.0556999999999999 157
-12.648399999999999 -6.4609000000000005 0.4941 242
-6.1875 -3.1620999999999997 -0.8881999999999999 190
-12.656199999999998 -6.4648 0.8242 187
-6.2227 -3.1776999999999997 -0.7295 133
-12.625 -6.449199999999999 1.1543 95
-12.3906 -6.328099999999999 1.4580000000000002 62
-11.8828 -6.0703 1.7109 126
-12.1719 -6.2188 2.0781 83
-12.6328 -6.453099999999999 -0.165 202
-8.4141 -4.2969 1.6582 234
-6.1797 -3.127 -1.2139 11
-12.664100000000001 -6.4102 0.16519999999999999 32
-6.199199999999999 -3.1367000000000003 -1.0527 139
-12.6719 -6.4102 0.4941 149
-6.1914 -3.1327999999999996 -0.8872 103
-12.6953 -6.421900000000001 0.8251999999999999 128
-6.2148 -3.1445 -0.7275 193
-12.718800000000002 -6.4375 1.1611 180
-12.414100000000001 -6.2812 1.4580000000000002 229
-11.851600000000001 -5.9961 1.7031 50
-6.4727 -3.2754000000000003 -0.2515 175
-12.1719 -6.1602 2.0742 100
-12.656199999999998 -6.4023 -0.1649 41
-8.2578 -4.1797 1.625 18
-6.1914 -3.1055 -1.2139 29
-12.726600000000001 -6.3828 0.1656 65
-6.1875 -3.1055 -1.0488 62
-12.7578 -6.3984000000000005 0.4966 94
-6.1914 -3.1055 -0.8856999999999999 145
-12.8047 -6.421900000000001 0.8311 192
-6.2227 -3.1211 -0.7271 141
-12.75 -6.3984000000000005 1.1621 112
-12.3672 -6.203099999999999 1.4491999999999998 145
-11.8672 -5.953099999999999 1.7021000000000002 149
-9.0234 -4.5273 1.5332 124
-12.7422 -6.394500000000001 -0.1659 54
-7.9609000000000005 -3.9922000000000004 1.5625 32
-6.1914 -3.082 -1.2119 184
-12.8594 -6.3984000000000005 0.16699999999999998 242
-6.1914 -3.0801 -1.0479 136
-12.843800000000002 -6.390599999999999 0.4993 128
-6.1875 -3.0781 -0.8833 244
-12.9219 -6.425800000000001 0.8369 224
-6.2227 -3.0957 -0.7261 11
-12.968800000000002 -6.453099999999999 1.1797 222
-12.3906 -6.1640999999999995 1.4491999999999998 15
-11.8906 -5.9140999999999995 1.7021000000000002 181
-12.148399999999999 -6.042999999999999 2.0625 49
-12.8594 -6.3984000000000005 -0.1671 116
-7.9727 -3.9668 1.5635 224
-6.1836 -3.0507999999999997 -1.208 215
-12.9922 -6.4102 0.1685 252
-6.1953 -3.0566000000000004 -1.0469 240
-12.968800000000002 -6.3984000000000005 0.5034000000000001 120
-6.1836 -3.0507999999999997 -0.8813 72
-13.0156 -6.421900000000001 0.8418000000000001 239
-6.2148 -3.0664 -0.7241 4
-13.0781 -6.453099999999999 1.1875 199
-12.398399999999999 -6.1172 1.4482 129
-11.9453 -5.890599999999999 1.7069999999999999 74
-12.148399999999999 -5.9961 2.0605 146
-12.9531 -6.390599999999999 -0.168 4
-8.0156 -3.9531 1.5684 217
-6.1797 -3.0195 -1.2051 10
-13.0781 -6.390599999999999 0.1693 166
-6.203099999999999 -3.0312 -1.0459 21
-13.085899999999999 -6.394500000000001 0.5068 138
-6.1875 -3.0233999999999996 -0.8804000000000001 125
-13.1328 -6.421900000000001 0.8481000000000001 213
-6.2109000000000005 -3.0370999999999997 -0.7222 59
-13.1875 -6.4453 1.1953 68
-12.3828 -6.0547 1.4443000000000001 239
-11.9844 -5.859400000000001 1.71 252
-12.156199999999998 -5.9414 2.0566 113
-13.0781 -6.394500000000001 -0.1693 155
-8.5859 -4.1992 1.6777000000000002 235
-6.175800000000001 -2.9922000000000004 -1.2021 37
-13.1797 -6.386699999999999 0.1704 47
-6.1953 -3.0 -1.043 119
-13.1797 -6.386699999999999 0.5097999999999999 25
-6.1875 -2.9961 -0.8784000000000001 165
-13.2422 -6.417999999999999 0.8534999999999999 51
-6.1953 -3.002 -0.7192000000000001 150
-13.289100000000001 -6.4375 1.2021 161
-12.406199999999998 -6.011699999999999 1.4443000000000001 116
-12.0156 -5.8203 1.7119 96
-12.148399999999999 -5.886699999999999 2.0527 153
-13.1797 -6.386699999999999 -0.1704 84
-8.8125 -4.2695 1.7197 110
-6.1875 -2.9707 -1.2021 62
-13.3203 -6.3984000000000005 0.17190000000000003 146
-6.1914 -2.9726999999999997 -1.041 153
-13.3047 -6.386699999999999 0.5136999999999999 224
-6.1914 -2.9726999999999997 -0.8779 237
-13.3594 -6.417999999999999 0.8599 217
-6.2109000000000005 -2.9824 -0.7197 223
-13.406199999999998 -6.4375 1.2109 252
-12.4219 -5.9648 1.4443000000000001 42
-12.0781 -5.800800000000001 1.7178 48
-12.0547 -5.7890999999999995 2.0332 87
-13.2969 -6.3828 -0.1716 149
-8.8906 -4.2695 1.7324000000000002 121
-6.1875 -2.9452999999999996 -1.2012 227
-13.4375 -6.394500000000001 0.17309999999999998 143
-6.1836 -2.9414 -1.0371 49
-13.406199999999998 -6.3789 0.5166 42
-6.1797 -2.9414 -0.875 254
-13.4844 -6.417999999999999 0.8662000000000001 56
-6.2109000000000005 -2.957 -0.7188 229
-13.5078 -6.4297 1.2187999999999999 176
-12.343800000000002 -5.875 1.4316 170
-12.093800000000002 -5.7578 1.7178 44
-8.6719 -4.125 1.4569999999999999 179
-13.3906 -6.3711 -0.1725 78
-12.1797 -5.796900000000001 2.3711 148
-6.1836 -2.918 -1.1982 185
-13.539100000000001 -6.386699999999999 0.17420000000000002 126
-6.1875 -2.9199 -1.0371 141
-13.539100000000001 -6.386699999999999 0.521 65
-6.1797 -2.9160000000000004 -0.8734999999999999 72
-13.5703 -6.4023 0.8701000000000001 114
-6.2109000000000005 -2.9297000000000004 -0.7173 230
-13.585899999999999 -6.4062 1.2227 218
-12.375 -5.8359000000000005 1.4336000000000002 252
-7.8672 -3.7089999999999996 1.1133 181
-8.6328 -4.0742 1.4491999999999998 166
-13.5078 -6.3672 -0.17370000000000002 102
-8.5703 -4.0391 1.6631 168
-6.1797 -2.8887 -1.1953 34
-13.5781 -6.3477 0.1744 209
-6.1914 -2.8945 -1.0361 121
-13.5703 -6.3438 0.5215 62
-6.1836 -2.8906 -0.8726 185
-13.5781 -6.3438 0.8691 204
-6.2109000000000005 -2.9023000000000003 -0.7158 69
-13.585899999999999 -6.3515999999999995 1.2217 236
-12.398399999999999 -5.792999999999999 1.4336000000000002 88
-7.8672 -3.6776999999999997 1.1113 132
-8.3906 -3.9219 1.4053 37
-13.5547 -6.3359000000000005 -0.1741 133
-8.0547 -3.7637 1.5596 235
-6.1797 -2.8613 -1.1934 2
-13.585899999999999 -6.2890999999999995 0.17420000000000002 146
-6.1836 -2.8632999999999997 -1.0332 170
-13.5781 -6.2890999999999995 0.521 132
-6.1953 -2.8691000000000004 -0.8726 138
-13.5703 -6.2852 0.8676999999999999 65
-6.199199999999999 -2.8711 -0.7134 236
-13.5781 -6.2890999999999995 1.2187999999999999 246
-12.375 -5.734400000000001 1.4287 157
-7.890599999999999 -3.6543 1.1133 231
-11.8594 -5.4922 1.9872999999999998 19
-13.5703 -6.2812 -0.174 14
-8.0469 -3.7266000000000004 1.5566 53
-6.1953 -2.8418 -1.1943000000000001 184
-13.585899999999999 -6.234400000000001 0.174 234
-6.1797 -2.8358999999999996 -1.0303 33
-13.5703 -6.2265999999999995 0.5195000000000001 8
-6.1875 -2.8379000000000003 -0.8701000000000001 205
-13.5781 -6.230499999999999 0.8662000000000001 182
-6.2109000000000005 -2.8495999999999997 -0.7139 25
-13.5781 -6.230499999999999 1.2168 213
-12.398399999999999 -5.6875 1.4287 105
-7.925800000000001 -3.6367000000000003 1.1162 173
-11.851600000000001 -5.4375 1.9813999999999998 48
-13.5703 -6.2265999999999995 -0.17370000000000002 67
-8.0781 -3.7051 1.5596 221
-6.1914 -2.8183999999999996 -1.1924 149
-13.585899999999999 -6.1836 0.17370000000000002 219
-6.1836 -2.8145 -1.0293 129
-13.5547 -6.167999999999999 0.5186 83
-6.175800000000001 -2.8105 -0.8672 0
-13.5703 -6.175800000000001 0.8647 121
-6.2188 -2.8301 -0.7134 30
-13.5703 -6.175800000000001 1.2139 8
-12.406199999999998 -5.644500000000001 1.4277000000000002 170
-8.0156 -3.6483999999999996 1.1279000000000001 177
-11.875 -5.4062 1.9834 134
-13.5547 -6.167999999999999 -0.1732 153
-8.0703 -3.6719 1.5556999999999999 145
-6.1836 -2.7891000000000004 -1.1885 60
-13.585899999999999 -6.1289 0.17329999999999998 189
-6.1914 -2.793 -1.0293 215
-13.5625 -6.1172 0.5181 93
-6.171900000000001 -2.7832 -0.8652 50
-13.5625 -6.1172 0.8628 128
-6.2188 -2.8047000000000004 -0.7123999999999999 72
-13.5703 -6.1211 1.2119 55
-12.3906 -5.5898 1.4238 186
-8.0625 -3.6387 1.1328 3
-8.7109 -3.9297000000000004 1.4502000000000002 231
-13.539100000000001 -6.105499999999999 -0.1727 238
-8.1016 -3.6543 1.5596 72
-6.1797 -2.7598000000000003 -1.1855 11
-13.585899999999999 -6.0664 0.17309999999999998 53
-6.199199999999999 -2.7695 -1.0283 143
-13.5703 -6.0586 0.5171 192
-6.175800000000001 -2.7577999999999996 -0.8643000000000001 3
-13.5625 -6.0586 0.8618000000000001 120
-6.2148 -2.7754000000000003 -0.7109000000000001 172
-13.5625 -6.0586 1.21 190
-12.375 -5.5273 1.4199000000000002 119
-8.7109 -3.8906 1.2217 139
-11.8594 -5.296900000000001 1.9746000000000001 1
-13.539100000000001 -6.046900000000001 -0.1725 131
-8.1172 -3.625 1.5596 44
-6.1797 -2.7344 -1.1836 241
-13.5781 -6.0078 0.1727 211
-6.1875 -2.7382999999999997 -1.0254 11
-13.5625 -6.0039 0.5161 165
-6.175800000000001 -2.7324 -0.8633 233
-13.5625 -6.0 0.8599 84
-6.2148 -2.75 -0.7095 199
-13.5703 -6.0039 1.208 46
-12.3828 -5.480499999999999 1.4180000000000001 62
-8.875 -3.9276999999999997 1.2431999999999999 168
-11.914100000000001 -5.269500000000001 1.9794999999999998 153
-13.5547 -5.9961 -0.1724 29
-12.1797 -5.390599999999999 2.3418 43
-6.1914 -2.7129000000000003 -1.1845999999999999 3
-13.585899999999999 -5.949199999999999 0.1725 17
-6.171900000000001 -2.7031 -1.0205 94
-13.5469 -5.9375 0.5146000000000001 182
-6.1875 -2.7108999999999996 -0.8633 236
-13.5625 -5.9414 0.8589 72
-6.207000000000001 -2.7207 -0.708 254
-13.5547 -5.9375 1.2051 85
-12.406199999999998 -5.4336 1.4188999999999998 34
-8.1484 -3.5702999999999996 1.1387 149
-11.8828 -5.203099999999999 1.9716999999999998 188
-13.5625 -5.9414 -0.1722 230
-12.1719 -5.332000000000001 2.3359 231
-6.1914 -2.6855 -1.1826 97
-13.5703 -5.890599999999999 0.1721 240
-6.1797 -2.6816000000000004 -1.0205 248
-13.5547 -5.8828 0.5142 228
-6.175800000000001 -2.6797000000000004 -0.8604 138
-13.601600000000001 -5.9023 0.8599 86
-6.2188 -2.6992000000000003 -0.708 160
-13.6172 -5.9102 1.209 121
-12.3906 -5.375 1.415 176
-8.1562 -3.5410000000000004 1.1387 25
-8.9531 -3.8867000000000003 1.4824000000000002 232
-13.5469 -5.8789 -0.1718 123
-12.1875 -5.2890999999999995 2.3359 116
-6.1797 -2.6562 -1.1787 215
-13.6094 -5.8477 0.1724 53
-6.1836 -2.6582 -1.0195 43
-13.6172 -5.8515999999999995 0.5156000000000001 13
-6.167999999999999 -2.6523000000000003 -0.8584 22
-13.6328 -5.859400000000001 0.8608 224
-6.2227 -2.6738 -0.7070000000000001 122
-13.648399999999999 -5.8672 1.21 88
-12.3906 -5.324199999999999 1.4121000000000001 11
-8.2812 -3.5605 1.1543 225
-11.875 -5.1055 1.9647999999999999 98
-13.539100000000001 -5.8164 -0.1714 69
-8.7734 -3.7714999999999996 1.6768 116
-6.167999999999999 -2.627 -1.1748 170
-13.6094 -5.792999999999999 0.172 125
-6.199199999999999 -2.6387 -1.0205 113
-13.656199999999998 -5.8125 0.5166 142
-6.175800000000001 -2.6289 -0.8579000000000001 126
-13.656199999999998 -5.8125 0.8608 24
-6.2188 -2.6464999999999996 -0.7056 88
-13.656199999999998 -5.8125 1.208 42
-12.3906 -5.2773 1.4111000000000002 87
-8.4062 -3.5781 1.1689 73
-8.8516 -3.7676 1.4609 230
-13.5469 -5.765599999999999 -0.17129999999999998 199
-12.1797 -5.1836 2.3262 208
-6.171900000000001 -2.6055 -1.1738 249
-13.601600000000001 -5.7422 0.1718 97
-6.1836 -2.6094 -1.0166 156
-13.664100000000001 -5.765599999999999 0.5161 225
-6.175800000000001 -2.6055 -0.8569 62
-13.664100000000001 -5.765599999999999 0.8599 189
-6.203099999999999 -2.6172000000000004 -0.7026 177
-13.648399999999999 -5.7578 1.2061 104
-12.3906 -5.230499999999999 1.4091999999999998 135
-8.3047 -3.5039 1.1533 50
-11.914100000000001 -5.0273 1.9647999999999999 72
-13.5469 -5.7148 -0.171 189
-12.164100000000001 -5.1328 2.3203 208
-6.1797 -2.5839999999999996 -1.1738 233
-13.593800000000002 -5.6836 0.1714 65
-6.167999999999999 -2.5781 -1.0127 226
-13.664100000000001 -5.7109000000000005 0.5151 102
-6.1836 -2.5858999999999996 -0.8569 98
-13.6719 -5.7148 0.8593999999999999 183
-6.199199999999999 -2.5918 -0.7017 178
-13.648399999999999 -5.707000000000001 1.2051 58
-12.398399999999999 -5.1836 1.4082 127
-8.3359 -3.4844 1.1562000000000001 159
-11.8594 -4.957 1.9531 135
-13.539100000000001 -5.6602 -0.1707 144
-12.1875 -5.0938 2.3223 6
-6.1797 -2.5566 -1.1719 129
-13.593800000000002 -5.625 0.1711 174
-6.167999999999999 -2.5527 -1.0117 53
-13.648399999999999 -5.6484000000000005 0.5142 25
-6.175800000000001 -2.5547 -0.8540000000000001 60
-13.6797 -5.6602 0.8589 167
-6.2148 -2.5723000000000003 -0.7021 65
-13.648399999999999 -5.6484000000000005 1.2031 54
-12.3906 -5.125 1.4043 232
-8.3359 -3.4473000000000003 1.1543 119
-11.875 -4.9141 1.9521000000000002 179
-13.531199999999998 -5.5977 -0.1703 112
-12.125 -5.0195 2.3066 180
-6.167999999999999 -2.5273 -1.168 244
-13.6328 -5.5859000000000005 0.1714 16
-6.1836 -2.5332 -1.0127 113
-12.468800000000002 -5.1094 0.46880000000000005 173
-6.167999999999999 -2.5273 -0.8521 92
-6.2227 -2.5488 -0.7021 34
-12.4297 -5.0938 1.0937999999999999 2
-12.3906 -5.0742 1.4022999999999999 154
-8.3438 -3.418 1.1543 46
-8.7422 -3.5801 1.4336000000000002 146
-12.1328 -4.9727 2.3047 114
-6.1602 -2.5 -1.165 26
-12.4531 -5.0508 0.1562 112
-6.175800000000001 -2.5059 -1.0098 238
-12.414100000000001 -5.0352 0.4661 160
-6.171900000000001 -2.5039 -0.8511 106
-12.406199999999998 -5.0312 0.7764 71
-6.2109000000000005 -2.5195 -0.6997 67
-12.414100000000001 -5.0352 1.0908 50
-12.3906 -5.0273 1.4013999999999998 233
-12.2344 -4.9648 1.6934 180
-11.898399999999999 -4.8281 1.9512 11
-12.3828 -5.0234 -0.1553 247
-12.125 -4.918 2.3008 156
-6.167999999999999 -2.4766 -1.165 185
-12.4297 -4.9922 0.1558 73
-6.175800000000001 -2.4785 -1.0078 248
-12.414100000000001 -4.9844 0.4653 162
-6.1797 -2.4824 -0.8511 175
-12.406199999999998 -4.9805 0.7748999999999999 188
-6.2109000000000005 -2.4941 -0.6987000000000001 158
-12.406199999999998 -4.9844 1.0889 31
-12.3906 -4.9766 1.3984 197
-12.218800000000002 -4.9062 1.6875 64
-11.875 -4.7695 1.9453 89
-12.3828 -4.9727 -0.1552 138
-12.1094 -4.8633 2.2949 8
-6.171900000000001 -2.4531 -1.1641 178
-12.4375 -4.9414 0.15560000000000002 254
-6.167999999999999 -2.4512 -1.0059 13
-12.406199999999998 -4.9297 0.4646 154
-6.1797 -2.4551 -0.8501000000000001 215
-12.4219 -4.9375 0.7754000000000001 47
-6.2148 -2.4688 -0.6981999999999999 165
-12.4297 -4.9375 1.0889 150
-12.398399999999999 -4.9258 1.3975 255
-12.2344 -4.8594 1.6875 130
-8.9219 -3.5449 1.4569999999999999 227
-12.3906 -4.9258 -0.155 153
-12.125 -4.8164 2.293 88
-6.1797 -2.4316 -1.1641 104
-12.4531 -4.8984 0.15560000000000002 243
-6.171900000000001 -2.4277 -1.0049 254
-12.4219 -4.8867 0.4644 223
-6.175800000000001 -2.4277 -0.8481000000000001 221
-12.4453 -4.8945 0.7759 173
-6.2148 -2.4434 -0.6973 179
-12.4844 -4.9102 1.0918 138
-12.3828 -4.8711 1.3944999999999999 74
-12.218800000000002 -4.8086 1.6836000000000002 136
-8.8906 -3.4961 1.4502000000000002 11
-12.414100000000001 -4.8828 -0.155 160
-8.9062 -3.502 1.6797 163
-6.171900000000001 -2.4023 -1.1602 41
-12.4844 -4.8633 0.1558 249
-6.1836 -2.4082 -1.0049 242
-12.4453 -4.8477 0.4646 212
-6.167999999999999 -2.4023 -0.8462000000000001 149
-12.476600000000001 -4.8594 0.7764 248
-6.2188 -2.4219 -0.6968000000000001 156
-12.5156 -4.875 1.0928 35
-12.3672 -4.8164 1.3906 179
-12.226600000000001 -4.7617 1.6816 23
-11.843800000000002 -4.6133 1.9316 184
-12.414100000000001 -4.8359 -0.1549 163
-12.1172 -4.7188 2.2852 10
-6.175800000000001 -2.3809 -1.1592 95
-12.5156 -4.8281 0.156 13
-6.1836 -2.3848 -1.0039 144
-12.5078 -4.8242 0.46630000000000005 97
-6.167999999999999 -2.3789 -0.8452 84
-12.5547 -4.8398 0.7803 77
-6.2188 -2.3984 -0.6958 239
-12.593800000000002 -4.8555 1.0986 1
-9.0156 -3.4785000000000004 1.0117 242
-12.218800000000002 -4.7148 1.6797 169
-11.8281 -4.5625 1.9268 126
-12.460899999999999 -4.8047 -0.1553 229
-12.1094 -4.668 2.2812 31
-6.171900000000001 -2.3535 -1.1572 152
-6.1797 -2.3555 -1.002 115
-12.6406 -4.8203 0.4707 80
-6.175800000000001 -2.3535 -0.8442000000000001 39
-13.531199999999998 -5.1602 0.8403 89
-6.2188 -2.3711 -0.6953 94
-13.5547 -5.167999999999999 1.1806999999999999 224
-8.9922 -3.4297000000000004 1.0068000000000001 218
-8.8672 -3.3827999999999996 1.2158 183
-11.8281 -4.5117 1.9238 51
-12.5703 -4.793 -0.1564 134
-12.1094 -4.6172 2.2773 216
-6.1797 -2.332 -1.1572 103
-13.531199999999998 -5.1055 0.16820000000000002 153
-6.171900000000001 -2.3281 -0.9995 161
-13.531199999999998 -5.1055 0.5034000000000001 147
-6.1875 -2.334 -0.8452 89
-13.5469 -5.1094 0.8393999999999999 97
-6.2188 -2.3457 -0.6938 200
-13.523399999999999 -5.1016 1.1768 60
-6.3672 -2.4023 -0.5522 73
-9.0156 -3.4004000000000003 1.0078 250
-8.8828 -3.3516000000000004 1.2158 87
-8.8594 -3.3418 1.4375 239
-13.523399999999999 -5.1016 -0.1681 7
-10.0156 -3.7793 1.8809 43
-6.1797 -2.3066 -1.1562000000000001 176
-13.5469 -5.0586 0.16820000000000002 97
-6.1797 -2.3066 -0.9990000000000001 61
-13.5156 -5.0469 0.502 119
-6.171900000000001 -2.3047 -0.8418000000000001 5
-13.5469 -5.0586 0.8389 6
-6.230499999999999 -2.3262 -0.6943 75
-13.539100000000001 -5.0508 1.1768 17
-8.9922 -3.3555 1.0039 215
-8.8906 -3.3202999999999996 1.2158 90
-8.8359 -3.2969 1.4316 116
-13.5078 -5.043 -0.1677 139
-12.125 -4.5273 2.2734 179
-6.167999999999999 -2.2773 -1.1523 10
-13.5469 -5.0039 0.168 84
-6.1875 -2.2852 -0.9990000000000001 70
-13.531199999999998 -4.9961 0.502 233
-6.167999999999999 -2.2773 -0.8403 171
-13.539100000000001 -5.0 0.8369 152
-6.2265999999999995 -2.2988 -0.6929000000000001 85
-13.5469 -5.0039 1.1758 214
-8.9844 -3.3202999999999996 1.002 196
-12.0469 -4.4492 1.6465 151
-8.8594 -3.2714999999999996 1.4336000000000002 248
-13.4844 -4.9805 -0.1671 252
-9.9766 -3.6855 1.8681999999999999 22
-6.1640999999999995 -2.2539 -1.1494 234
-13.5469 -4.9531 0.1677 159
-6.1836 -2.2617 -0.9976 17
-13.531199999999998 -4.9492 0.5015 190
-6.171900000000001 -2.2578 -0.8398 186
-13.523399999999999 -4.9492 0.8354 142
-6.2265999999999995 -2.2773 -0.6923999999999999 184
-13.531199999999998 -4.9492 1.1729 232
-9.0 -3.2910000000000004 1.002 46
-12.0625 -4.4102 1.6465 192
-8.8906 -3.252 1.4375 96
-13.4922 -4.9336 -0.1671 73
-12.093800000000002 -4.4219 2.2617 189
-6.1640999999999995 -2.2305 -1.1484 36
-13.531199999999998 -4.8984 0.1674 91
-6.167999999999999 -2.2324 -0.9937 229
-13.523399999999999 -4.8945 0.5005 220
-6.175800000000001 -2.2363 -0.8393999999999999 190
-13.531199999999998 -4.8984 0.8345 14
-6.2227 -2.252 -0.6909000000000001 61
-13.523399999999999 -4.8945 1.1709 21
-9.0078 -3.2617000000000003 1.0029000000000001 226
-12.1719 -4.4062 1.6591999999999998 32
-11.843800000000002 -4.2891 1.915 81
-13.4922 -4.8867 -0.16690000000000002 174
-8.8594 -3.207 1.6543 128
-6.167999999999999 -2.207 -1.1475 10
-13.5547 -4.8477 0.1674 129
-6.167999999999999 -2.207 -0.9926999999999999 1
-13.523399999999999 -4.8398 0.5 143
-6.1797 -2.2109 -0.8389 29
-13.523399999999999 -4.8398 0.833 5
-6.230499999999999 -2.2285 -0.6909000000000001 165
-13.5078 -4.8359 1.168 43
-9.0312 -3.2324 1.0039 105
-12.1875 -4.3633 1.6602000000000001 185
-11.843800000000002 -4.2383 1.9111000000000002 217
-13.4922 -4.8281 -0.16670000000000001 170
-8.8828 -3.1797000000000004 1.6562000000000001 2
-6.171900000000001 -2.1836 -1.1475 149
-13.539100000000001 -4.793 0.16699999999999998 36
-6.171900000000001 -2.1855 -0.9922 208
-13.5078 -4.7812 0.4988 119
-6.1875 -2.1895 -0.8384 147
-13.523399999999999 -4.7852 0.8320000000000001 2
-6.238300000000001 -2.207 -0.6909000000000001 190
-13.5156 -4.7852 1.168 160
-9.0469 -3.2012 1.0039 1
-12.1953 -4.3164 1.6582 144
-11.8125 -4.1797 1.9033000000000002 61
-13.5078 -4.7812 -0.1666 164
-8.8984 -3.1483999999999996 1.6572 240
-6.167999999999999 -2.1582 -1.1445 118
-13.5703 -4.7461 0.1672 202
-6.1836 -2.1641 -0.9926999999999999 69
-13.5078 -4.7266 0.498 187
-6.171900000000001 -2.1582 -0.8354 144
-13.523399999999999 -4.7305 0.8311 184
-6.234400000000001 -2.1797 -0.6895 47
-13.523399999999999 -4.7305 1.166 150
-12.343800000000002 -4.3164 1.3691 32
-12.2031 -4.2695 1.6572 180
-11.8203 -4.1328 1.9022999999999999 82
-13.523399999999999 -4.7305 -0.1666 39
-8.8984 -3.1132999999999997 1.6553 135
-6.1484000000000005 -2.127 -1.1396 76
-13.531199999999998 -4.6797 0.16649999999999998 253
-6.1836 -2.1387 -0.9912000000000001 159
-13.531199999999998 -4.6797 0.498 115
-6.1797 -2.1367 -0.8354 213
-13.523399999999999 -4.6758 0.8295999999999999 147
-6.234400000000001 -2.1562 -0.6884999999999999 222
-13.5547 -4.6875 1.168 108
-12.3594 -4.2773 1.3700999999999999 175
-9.2891 -3.2129000000000003 1.2588 205
-11.851600000000001 -4.1016 1.9062000000000001 69
-13.5078 -4.6719 -0.1663 106
-6.1562 -2.1074 -1.1396 228
-13.523399999999999 -4.6289 0.1663 173
-6.167999999999999 -2.1113 -0.9873000000000001 117
-13.539100000000001 -4.6328 0.4978 117
-6.167999999999999 -2.1094 -0.833 85
-13.593800000000002 -4.6523 0.8334999999999999 53
-6.2265999999999995 -2.1309 -0.687 20
-9.1094 -3.1172000000000004 0.7827 131
-12.406199999999998 -4.2461 1.3730000000000002 178
-9.3203 -3.1895 1.2617 114
-8.5469 -2.9238 1.3711000000000002 161
-13.5156 -4.625 -0.1661 144
-12.093800000000002 -4.1367 2.2461 218
-6.1640999999999995 -2.0859 -1.1396 71
-13.6797 -4.6289 0.168 51
-6.1602 -2.0859 -0.9854 32
-13.656199999999998 -4.6211 0.5015 32
-6.1797 -2.0918 -0.8334999999999999 105
-13.7422 -4.6523 0.8412999999999999 59
-6.230499999999999 -2.1094 -0.687 250
-9.0781 -3.0742000000000003 0.7793000000000001 77
-9.2422 -3.1289 1.0205 210
-12.1797 -4.125 1.6484 41
-8.0547 -2.7266000000000004 1.29 181
-13.648399999999999 -4.6172 -0.16760000000000003 210
-8.0703 -2.7324 1.4950999999999999 121
-6.171900000000001 -2.0645 -1.1396 80
-13.8203 -4.6211 0.16940000000000002 24
-6.1640999999999995 -2.0625 -0.9849 114
-13.875 -4.6406 0.5093 223
-6.167999999999999 -2.0625 -0.8311 208
-14.1094 -4.7188 0.8628 86
-6.2422 -2.0879 -0.687 53
-9.1016 -3.043 0.7803 94
-9.2266 -3.0858999999999996 1.0186 33
-12.1953 -4.0781 1.6484 116
-8.0312 -2.6855 1.2852000000000001 244
-13.8828 -4.6406 -0.1703 134
-8.1094 -2.7129000000000003 1.501 251
-6.1602 -2.0352 -1.1367 252
-14.1953 -4.6914 0.174 99
-6.167999999999999 -2.0391 -0.9839 225
-14.164100000000001 -4.6797 0.519 171
-6.1640999999999995 -2.0371 -0.8295999999999999 217
-14.273399999999999 -4.7188 0.8721 121
-6.2422 -2.0645 -0.6865000000000001 64
-9.1328 -3.0176 0.7817000000000001 210
-12.335899999999999 -4.0781 1.3613 110
-12.2031 -4.0352 1.6484 161
-8.0625 -2.6641000000000004 1.2881 217
-14.125 -4.668 -0.17309999999999998 204
-8.125 -2.6855 1.5019999999999998 218
-6.1484000000000005 -2.0078 -1.1328 243
-14.3047 -4.668 0.175 62
-6.167999999999999 -2.0137 -0.9829000000000001 128
-14.3125 -4.6719 0.5239 45
-6.167999999999999 -2.0137 -0.8291 39
-9.1406 -2.9844 0.5566 48
-6.234400000000001 -2.0352 -0.6846 66
-9.1562 -2.9882999999999997 0.7827 177
-12.351600000000001 -4.0312 1.3603999999999998 155
-12.1953 -3.9805 1.6444999999999999 10
-8.1172 -2.6504000000000003 1.2959 183
-14.273399999999999 -4.6602 -0.1747 224
-12.085899999999999 -3.9473000000000003 2.2344 160
-6.1484000000000005 -1.9834 -1.1318000000000001 1
-14.5156 -4.6836 0.17739999999999997 102
-6.1562 -1.9863 -0.98 84
-14.468800000000002 -4.668 0.5288 251
-6.1797 -1.9931999999999999 -0.8295999999999999 35
-9.1172 -2.9414 0.5547 8
-6.2227 -2.0078 -0.6826000000000001 162
-9.1719 -2.9589999999999996 0.7837000000000001 116
-12.351600000000001 -3.9844 1.3594 21
-12.1797 -3.9297000000000004 1.6406 237
-6.550800000000001 -2.1133 -0.2386 80
-8.8359 -2.8516000000000004 1.4091999999999998 192
-14.351600000000001 -4.6289 -0.1754 51
-8.8984 -2.8711 1.6416 40
-6.1602 -1.9638999999999998 -1.1328 89
-14.6875 -4.6836 0.1793 184
-6.1523 -1.9619 -0.978 117
-14.6172 -4.6602 0.5337 121
-6.1797 -1.9707 -0.8286 149
-9.1406 -2.9141000000000004 0.5552 109
-6.230499999999999 -1.9863 -0.6826000000000001 46
-14.7656 -4.7109 1.2627 235
-12.3594 -3.9414 1.3584 219
-12.1797 -3.8848000000000003 1.6387 87
-6.4336 -2.0508 -0.23399999999999999 163
-14.6172 -4.6602 -0.17850000000000002 76
-12.101600000000001 -3.8594 2.2324 215
-6.167999999999999 -1.9453 -1.1328 224
-14.7969 -4.6641 0.1805 173
-6.1602 -1.9413999999999998 -0.978 209
-9.0859 -2.8632999999999997 0.3308 218
-6.167999999999999 -1.9443000000000001 -0.8262 187
-9.1172 -2.875 0.5532 251
-6.2422 -1.9687999999999999 -0.6836 125
-14.9531 -4.7148 1.2773 140
-12.351600000000001 -3.8945 1.3563999999999998 39
-12.1797 -3.8398000000000003 1.6377000000000002 57
-6.4140999999999995 -2.0234 -0.233 232
-14.7656 -4.6562 -0.1802 210
-12.0781 -3.8086 2.2246 15
-6.1562 -1.915 -1.1299 55
-9.0703 -2.8223000000000003 0.11019999999999999 206
-6.171900000000001 -1.9199000000000002 -0.9790000000000001 127
-9.0703 -2.8223000000000003 0.3298 36
-6.167999999999999 -1.9188999999999998 -0.8251999999999999 18
-9.1016 -2.832 0.5522 163
-6.238300000000001 -1.9404 -0.6820999999999999 60
-15.148399999999999 -4.7109 1.2919999999999998 174
-12.335899999999999 -3.8379000000000003 1.3535 17
-12.125 -3.7733999999999996 1.6279 186
-6.425800000000001 -1.9980000000000002 -0.2332 144
-9.0547 -2.8164 -0.11 31
-12.0781 -3.7577999999999996 2.2227 157
-6.1523 -1.8906 -1.1279000000000001 162
-9.0625 -2.7851999999999997 0.11 159
-6.167999999999999 -1.8955000000000002 -0.9775 70
-9.0703 -2.7870999999999997 0.3296 209
-6.175800000000001 -1.8975 -0.8251999999999999 139
-9.0938 -2.793 0.5508 133
-6.230499999999999 -1.9141 -0.6807 230
-15.3125 -4.707 1.3047 203
-12.335899999999999 -3.7910000000000004 1.3516 67
-7.769500000000001 -2.3867 -0.4702 159
-12.1328 -3.7285000000000004 1.6279 119
-6.421900000000001 -1.9727000000000001 -0.2328 34
-8.9375 -2.7461 1.4188999999999998 8
-9.0156 -2.7714999999999996 -0.1094 78
-12.0703 -3.7089999999999996 2.2207 41
-6.1602 -1.8700999999999999 -1.1279000000000001 219
-9.0234 -2.7401999999999997 0.1094 116
-6.1640999999999995 -1.8711000000000002 -0.9756 99
-9.0938 -2.7598000000000003 0.3301 97
-6.171900000000001 -1.874 -0.8242 82
-9.1016 -2.7637 0.5508 49
-6.2265999999999995 -1.8906 -0.6792 40
-9.1172 -2.7695 0.7748999999999999 244
-7.6953 -2.3359 -0.6533 43
-12.343800000000002 -3.7461 1.3506 54
-7.7773 -2.3613 -0.4702 251
-12.156199999999998 -3.6914 1.6288999999999998 31
-6.4102 -1.9463 -0.2321 140
-8.9297 -2.7108999999999996 1.4169999999999998 163
-9.0234 -2.7401999999999997 -0.1094 110
-12.0781 -3.668 2.2188 212
-6.1602 -1.8486000000000002 -1.127 52
-9.0312 -2.7089999999999996 0.1094 7
-6.1562 -1.8466999999999998 -0.9731000000000001 135
-9.1094 -2.7324 0.33030000000000004 30
-6.1875 -1.8563999999999998 -0.8251999999999999 219
-9.1406 -2.7422000000000004 0.5527000000000001 185
-6.234400000000001 -1.8711000000000002 -0.6797 221
-9.1094 -2.7324 0.7729 175
-7.761699999999999 -2.3281 -0.6581999999999999 12
-12.3594 -3.7089999999999996 1.3516 97
-12.1719 -3.6504000000000003 1.6288999999999998 64
-6.417999999999999 -1.9247999999999998 -0.2322 114
-11.8281 -3.5469 1.876 251
-9.0312 -2.7108999999999996 -0.1094 59
-12.085899999999999 -3.627 2.2188 63
-6.1640999999999995 -1.8252000000000002 -1.126 149
-9.0625 -2.6816000000000004 0.1096 73
-6.1562 -1.8232 -0.9727 120
-15.3906 -4.5547 0.5586 141
-6.1640999999999995 -1.8252000000000002 -0.8212999999999999 129
-15.4453 -4.5703 0.9346 236
-6.238300000000001 -1.8466999999999998 -0.6792 128
-9.1172 -2.6992000000000003 0.7734000000000001 42
-9.0859 -2.6895 0.9912000000000001 227
-12.1875 -3.6074 1.6288999999999998 51
-6.4140999999999995 -1.8984 -0.23170000000000002 85
-11.8047 -3.4961 1.8711000000000002 195
-9.0625 -2.6836 -0.1096 160
-12.085899999999999 -3.5781 2.2148 251
-6.1602 -1.7997999999999998 -1.124 62
-9.0781 -2.6543 0.1097 133
-6.167999999999999 -1.8027000000000002 -0.9731000000000001 40
-15.4375 -4.5117 0.5596 164
-6.1602 -1.7997999999999998 -0.8198000000000001 248
-15.460899999999999 -4.5195 0.9346 183
-6.238300000000001 -1.8222999999999998 -0.6781999999999999 54
-9.1562 -2.6757999999999997 0.7754000000000001 15
-9.0625 -2.6464999999999996 0.9873000000000001 22
-12.1719 -3.5566000000000004 1.626 178
-6.4297 -1.8788999999999998 -0.2321 151
-11.8203 -3.4531 1.8711000000000002 17
-9.1016 -2.6601999999999997 -0.11 232
-8.8203 -2.5781 1.6133000000000002 147
-6.1523 -1.7763999999999998 -1.1220999999999999 41
-9.125 -2.6327999999999996 0.11019999999999999 57
-6.171900000000001 -1.7822 -0.9731000000000001 163
-6.1640999999999995 -1.7793 -0.8198000000000001 200
-6.238300000000001 -1.8008000000000002 -0.6777 105
-9.2109 -2.6601999999999997 0.7798 144
-9.0938 -2.625 0.9902 178
-8.9688 -2.5879000000000003 1.1943000000000001 114
-6.457000000000001 -1.8633000000000002 -0.2329 0
-11.8047 -3.4062 1.8672 125
-12.0703 -3.4824 2.207 123
-6.1602 -1.7559 -1.1220999999999999 69
-6.167999999999999 -1.7578 -0.9717 246
-6.171900000000001 -1.7588 -0.8198000000000001 174
-6.2227 -1.7734 -0.6753 210
