# .PCD v0.7 - Point Cloud Data file format
VERSION 0.7
FIELDS x y z intensity
SIZE 4 4 4 4
TYPE F F F F
COUNT 1 1 1 1
WIDTH 1437
HEIGHT 1
VIEWPOINT 0 0 0 1 0 0 0
POINTS 1437
DATA ascii
8.7891 27.2188 4.3555 201
8.875 27.4688 -0.3367 6
8.7969 27.2188 5.0391 247
2.3027 7.050800000000001 -1.2997999999999998 51
8.9844 27.5 0.33740000000000003 98
2.6151999999999997 8.0078 -1.2783 201
8.9609 27.4219 1.0059 206
2.9726999999999997 9.1016 -1.2256 51
8.9531 27.4062 1.6747999999999998 136
3.5077999999999996 10.7344 -1.1826 109
8.8672 27.1562 2.3301 86
4.2461 12.9922 -1.1133 228
5.4375 16.6562 -1.0166 25
8.9375 27.3594 3.6973000000000003 238
8.5703 26.2344 -0.9619 183
8.8984 27.2344 4.3633 30
8.9688 27.4531 -0.3367 55
8.8906 27.2344 5.043 35
2.3301 7.046900000000001 -1.3018 135
9.5625 28.9062 0.3552 202
2.6426 7.9922 -1.2773 149
3.0117000000000003 9.1016 -1.2275 128
9.0938 27.5 1.6825999999999999 9
3.5507999999999997 10.7344 -1.1845999999999999 228
8.9688 27.1094 2.3301 141
4.2969 13.0 -1.1143 145
8.9453 27.0469 2.9901999999999997 199
5.5039 16.6406 -1.0176 207
10.0625 30.4375 4.1172 218
8.625 26.0781 -0.9575 114
9.0078 27.2344 4.3672 9
9.5703 28.9375 -0.3555 12
9.0 27.2188 5.0469 169
2.3574 7.042999999999999 -1.3027000000000002 63
2.6620999999999997 7.957000000000001 -1.2725 227
12.9453 38.6875 1.4228999999999998 132
3.043 9.0938 -1.2285 245
9.0547 27.0625 1.6572 101
3.582 10.7031 -1.1816 194
9.0312 26.9844 2.3203 28
4.3477 13.0 -1.1162 69
9.0391 27.0156 2.9901999999999997 196
5.5625 16.625 -1.0166 128
10.1641 30.375 4.1133 227
8.6641 25.9062 -0.9521 40
9.1172 27.25 4.375 68
9.6875 28.9375 -0.35600000000000004 199
9.1094 27.2188 5.0547 64
2.3848 7.046900000000001 -1.3047 36
9.7812 28.8906 0.35600000000000004 75
2.6973000000000003 7.9688 -1.2764 169
12.9375 38.2188 1.4072 118
3.0781 9.0938 -1.2295 183
9.1875 27.1562 1.665 226
3.623 10.7031 -1.1826 144
9.1172 26.9375 2.3203 107
4.3984 12.9922 -1.1172 51
9.1172 26.9375 2.9844 69
5.6211 16.6094 -1.0176 119
11.5547 34.125 4.6289 113
8.7344 25.8125 -0.9497 155
9.2188 27.25 4.3789 87
9.7969 28.9531 -0.3567 41
9.2188 27.2344 5.0625 140
2.4082 7.0352 -1.3037 87
2.7285000000000004 7.9648 -1.2773 57
12.9219 37.75 1.3916 168
3.1055 9.0703 -1.2275 239
9.2812 27.125 1.665 185
3.6641000000000004 10.7031 -1.1845999999999999 182
9.2188 26.9219 2.3203 2
4.4414 12.976600000000001 -1.1162 102
9.2031 26.8906 2.9824 156
5.6836 16.6094 -1.0186 232
11.3672 33.1875 4.5078 103
8.8281 25.7812 -0.9497 179
9.3203 27.2344 4.3828 135
9.3203 27.2188 5.0664 189
2.4355 7.0352 -1.3047 210
2.7558999999999996 7.957000000000001 -1.2773 206
12.9453 37.375 1.3799000000000001 134
3.1348000000000003 9.0547 -1.2266 108
9.3828 27.0781 1.665 24
3.7051 10.7031 -1.1855 124
4.4844 12.9531 -1.1162 119
5.7422 16.5938 -1.0186 245
11.710899999999999 33.8438 4.5977 152
8.9062 25.7188 -0.9481999999999999 211
9.4297 27.2344 4.3906 57
9.4219 27.2031 5.0703 169
2.457 7.015599999999999 -1.3037 254
2.793 7.9765999999999995 -1.2822 21
3.1660000000000004 9.0391 -1.2266 183
3.752 10.710899999999999 -1.1885 13
4.5469 12.9844 -1.1201 56
5.796900000000001 16.5469 -1.0176 198
8.9922 25.6875 -0.9487000000000001 110
9.5391 27.25 4.3945 21
9.5234 27.2031 5.0742 46
2.4805 7.011699999999999 -1.3047 20
2.8145 7.957000000000001 -1.2803 160
3.2031 9.0547 -1.2305 207
12.8828 36.4375 2.2461 152
3.7812 10.6875 -1.1875 219
4.582 12.9531 -1.1191 44
11.2422 31.7812 3.5370999999999997 178
5.863300000000001 16.5781 -1.0205 17
9.0938 25.7031 -0.9501999999999999 203
9.625 27.2188 5.082 169
2.5059 7.011699999999999 -1.3056999999999999 242
2.8398000000000003 7.9453 -1.2803 116
3.2363 9.0547 -1.2314 222
12.875 36.0 2.2227 245
3.8223000000000003 10.6875 -1.1885 212
4.6289 12.9531 -1.1201 246
11.343800000000002 31.7344 3.5391000000000004 247
5.921900000000001 16.5625 -1.0205 210
11.843800000000002 33.125 4.5195 170
9.1797 25.6719 -0.9501999999999999 131
2.5391 7.011699999999999 -1.3075999999999999 97
2.875 7.9414 -1.2812000000000001 100
3.2695 9.0312 -1.2295 4
12.8906 35.625 2.2012 49
3.8613 10.6719 -1.1875 249
4.6758 12.914100000000001 -1.1181999999999999 127
6.0078 16.5938 -1.0244 97
11.6719 32.25 4.4062 22
9.2812 25.6562 -0.9506999999999999 131
2.5625 7.0 -1.3066 77
2.9043 7.9297 -1.2812000000000001 234
3.3066000000000004 9.0312 -1.2314 214
3.918 10.7031 -1.1934 35
4.7227 12.898399999999999 -1.1181999999999999 238
6.0625 16.5469 -1.0234 54
12.0703 32.9688 4.5117 11
9.3906 25.6562 -0.9521 181
10.539100000000001 28.7812 4.668 117
2.5839999999999996 6.9961 -1.3075999999999999 149
2.9316000000000004 7.9336 -1.2832 104
12.8594 34.7812 1.2938999999999998 235
3.3379000000000003 9.0312 -1.2334 120
3.9492000000000003 10.6875 -1.1934 29
4.7695 12.906199999999998 -1.1201 156
6.1211 16.5625 -1.0244 243
12.1875 32.9688 4.5156 84
9.4844 25.6562 -0.9536 46
10.460899999999999 28.2969 4.5938 25
12.7578 34.5312 -0.4294 10
2.6113 6.9961 -1.3096 13
12.8594 34.4688 0.4292 177
2.9551 7.9140999999999995 -1.2822 140
12.835899999999999 34.375 1.2793 219
3.3711 9.0312 -1.2344 35
12.835899999999999 34.375 2.1328 43
3.9844 10.6719 -1.1934 160
4.8242 12.9219 -1.123 214
6.1914 16.5938 -1.0273 197
9.5781 25.6562 -0.9545999999999999 69
10.5547 28.2656 4.5938 217
12.7422 34.1562 -0.4253 250
2.6464999999999996 7.0078 -1.3135 242
2.9882999999999997 7.9102 -1.2832 120
3.4082 9.0234 -1.2354 170
12.968800000000002 34.3438 2.1328 25
4.0352 10.6797 -1.1953 209
4.8633 12.875 -1.1201 239
6.2578 16.5625 -1.0283 136
9.6875 25.6562 -0.9561 165
12.773399999999999 33.8125 -0.4219 23
10.593800000000002 28.0469 5.2773 89
2.6757999999999997 7.011699999999999 -1.3154 157
3.0176 7.9062 -1.2841999999999998 19
3.4395 9.0156 -1.2354 60
12.835899999999999 33.625 2.0918 237
4.0742 10.6719 -1.1963 89
4.918 12.8906 -1.123 149
6.324199999999999 16.5781 -1.0293 224
9.7969 25.6719 -0.958 26
10.9922 28.7969 4.6953 250
10.656199999999998 27.9219 5.261699999999999 2
2.6973000000000003 7.0 -1.3154 254
3.0488 7.9102 -1.2861000000000002 38
3.4726999999999997 9.0078 -1.2363 37
4.1211 10.6875 -1.1992 82
4.957 12.8672 -1.1220999999999999 189
6.390599999999999 16.5781 -1.0312000000000001 173
9.8984 25.6719 -0.9595 47
10.4844 27.2031 5.1328 69
2.7168 6.9765999999999995 -1.3125 156
3.0839999999999996 7.921900000000001 -1.29 209
3.502 9.0 -1.2363 234
4.1484 10.656199999999998 -1.1973 91
5.0 12.843800000000002 -1.1220999999999999 126
6.453099999999999 16.5781 -1.0322 192
9.9922 25.6719 -0.96 80
10.5547 27.1094 5.1211 99
2.7441000000000004 6.9765999999999995 -1.3144999999999998 54
3.1132999999999997 7.917999999999999 -1.291 210
3.543 9.0078 -1.2393 125
4.1836 10.6328 -1.1963 96
5.0508 12.843800000000002 -1.123 74
6.515599999999999 16.5625 -1.0332 14
10.0781 25.625 -0.96 113
12.718800000000002 32.3438 -0.40549999999999997 104
10.6719 27.125 5.1328 45
2.7676 6.9688 -1.3144999999999998 212
3.1348000000000003 7.890599999999999 -1.2881 205
3.5683999999999996 8.9844 -1.2383 159
4.2266 10.6406 -1.1992 8
5.0977 12.8281 -1.124 107
18.0781 45.5312 5.144500000000001 32
6.5625 16.5312 -1.0322 146
10.1641 25.5938 -0.9595 223
12.6797 31.9375 -0.40090000000000003 199
2.7969 6.9688 -1.3163999999999998 212
3.1601999999999997 7.875 -1.2871000000000001 106
12.7344 31.7188 1.1914 183
3.6055 8.9844 -1.2393 211
12.726600000000001 31.7031 1.9853999999999998 186
4.2656 10.625 -1.1992 134
5.1484000000000005 12.8203 -1.125 212
18.25 45.4688 5.144500000000001 85
6.644500000000001 16.5469 -1.0352 108
10.25 25.5312 -0.9590000000000001 83
12.7031 31.6562 -0.3979 137
11.343800000000002 28.25 5.363300000000001 79
2.8183999999999996 6.953099999999999 -1.3154 73
12.8125 31.5938 0.39770000000000005 188
3.1933999999999996 7.875 -1.29 60
12.789100000000001 31.5469 1.1865 219
3.6387 8.9766 -1.2402 187
12.7969 31.5625 1.9785 227
4.3242 10.664100000000001 -1.2041 24
5.1953 12.8125 -1.125 138
18.4375 45.4688 5.1523 94
6.6836 16.4844 -1.0322 86
10.343800000000002 25.5156 -0.9595 133
12.6797 31.2812 -0.39380000000000004 219
18.375 45.3125 8.6172 185
2.8379000000000003 6.9297 -1.3125 234
3.2266000000000004 7.875 -1.291 204
3.6699 8.9609 -1.2402 121
12.8281 31.3281 1.9668 94
4.3555 10.6328 -1.2031 97
5.2461 12.8047 -1.127 246
6.7539 16.5 -1.0342 84
10.4297 25.4688 -0.9595 244
12.6797 30.9531 -0.39039999999999997 50
11.4922 28.0781 5.3398 118
2.8691000000000004 6.9375 -1.3163999999999998 222
12.7969 30.9531 0.3909 123
3.252 7.863300000000001 -1.291 221
12.7578 30.8438 1.1641 162
3.7051 8.9609 -1.2422 152
12.75 30.8281 1.9385 65
4.3906 10.6094 -1.2021 53
5.292999999999999 12.7969 -1.127 167
6.824199999999999 16.5 -1.0361 224
10.523399999999999 25.4531 -0.96 251
12.7031 30.7031 -0.38770000000000004 155
11.531199999999998 27.875 5.3125 14
2.8983999999999996 6.9414 -1.3193000000000001 224
3.2793 7.8515999999999995 -1.291 3
3.75 8.9766 -1.2461 20
4.4375 10.625 -1.2051 247
5.3398 12.781199999999998 -1.1279000000000001 31
6.886699999999999 16.4844 -1.0371 181
10.6328 25.4688 -0.9619 44
12.6719 30.3438 -0.3835 146
11.531199999999998 27.6094 5.269500000000001 113
2.9276999999999997 6.9414 -1.3213 50
3.3164 7.863300000000001 -1.2949000000000002 72
12.710899999999999 30.125 1.1396 108
3.7832 8.9688 -1.2470999999999999 17
4.4766 10.6172 -1.2061 210
5.390599999999999 12.773399999999999 -1.1289 83
6.957000000000001 16.5 -1.0391 10
10.718800000000002 25.4062 -0.9614 7
12.6797 30.0625 -0.38060000000000005 244
11.7344 27.8125 5.3164 154
2.9512 6.925800000000001 -1.3203 31
3.3495999999999997 7.863300000000001 -1.2969 17
3.8125 8.9531 -1.2461 227
12.718800000000002 29.8594 1.8857 194
4.5234 10.6172 -1.208 247
12.4453 29.2188 2.5898000000000003 122
5.4336 12.7578 -1.1289 56
7.0234000000000005 16.5 -1.04 14
10.781199999999998 25.3125 -0.9590000000000001 13
12.6172 29.625 -0.3757 193
11.835899999999999 27.7969 5.3203 172
2.9688 6.9023 -1.3174000000000001 242
3.373 7.8438 -1.2959 154
12.7031 29.5312 1.1211 118
3.8438 8.9375 -1.2461 53
12.6953 29.5156 1.8662 60
4.5508 10.585899999999999 -1.2061 120
5.5 12.789100000000001 -1.1328 150
7.082000000000001 16.4688 -1.04 66
12.898399999999999 29.9844 4.1953 68
10.8828 25.3125 -0.9604 50
12.6875 29.5 -0.37479999999999997 241
11.914100000000001 27.7031 5.3086 201
3.0 6.9140999999999995 -1.3213 57
3.4004000000000003 7.8359000000000005 -1.2959 102
12.7656 29.4219 1.1181999999999999 65
3.8808999999999996 8.9453 -1.249 240
12.7578 29.4062 1.8622999999999998 158
4.5859 10.5703 -1.2061 171
12.4453 28.6719 2.5488 215
5.5312 12.75 -1.1318000000000001 113
7.1562 16.5 -1.043 220
12.914100000000001 29.7656 4.168 210
10.976600000000001 25.2969 -0.9614 29
12.7656 29.4219 -0.374 243
3.0273000000000003 6.9102 -1.3232 207
12.875 29.4062 0.37450000000000006 78
3.4219 7.8164 -1.2938999999999998 27
12.8281 29.2969 1.1152 153
3.9199 8.9531 -1.252 190
12.8281 29.2969 1.8584 219
4.6211 10.5547 -1.2061 3
5.582000000000001 12.75 -1.1328 161
7.2265999999999995 16.5 -1.0449 59
13.0078 29.7031 4.1641 57
11.0547 25.25 -0.9609000000000001 214
12.851600000000001 29.3438 -0.3738 95
3.0526999999999997 6.9023 -1.3232 202
3.4707 7.8438 -1.3018 173
12.9219 29.2188 1.1143 67
3.9452999999999996 8.9219 -1.249 109
12.914100000000001 29.2031 1.8555000000000001 180
4.668 10.5547 -1.208 173
5.6328 12.7422 -1.1338 138
7.2890999999999995 16.4688 -1.0459 124
13.093800000000002 29.5938 4.1562 224
11.148399999999999 25.2031 -0.9604 189
12.9375 29.25 -0.373 104
3.0723000000000003 6.8828 -1.3213 20
3.5 7.8398 -1.3027000000000002 204
13.031199999999998 29.1875 1.1143 166
3.9844 8.9219 -1.251 27
13.0156 29.1406 1.8544999999999998 160
4.7109 10.5469 -1.21 118
5.6797 12.718800000000002 -1.1338 157
7.3477 16.4531 -1.0459 152
13.1797 29.5156 4.1523 76
11.2422 25.1719 -0.9609000000000001 173
13.0156 29.1406 -0.37229999999999996 147
3.0995999999999997 6.875 -1.3222999999999998 166
3.5351999999999997 7.8438 -1.3056999999999999 144
13.101600000000001 29.0625 1.1113 14
4.0117 8.9062 -1.251 193
13.085899999999999 29.0312 1.8506 50
4.7383 10.5156 -1.208 29
5.7265999999999995 12.7031 -1.1348 22
7.3789 16.375 -1.042 206
13.2578 29.4062 4.1445 140
11.343800000000002 25.1719 -0.9623999999999999 247
13.101600000000001 29.0781 -0.3721 90
3.127 6.875 -1.3241999999999998 239
3.5625 7.832000000000001 -1.3056999999999999 100
4.0508 8.8984 -1.2529000000000001 240
13.1875 29.0 1.8506 241
4.7695 10.4844 -1.2061 52
5.7812 12.710899999999999 -1.1367 6
20.6875 45.4688 5.2461 51
7.4648 16.4062 -1.0459 141
13.343800000000002 29.3281 4.1406 54
11.4297 25.125 -0.9619 191
20.5781 45.2188 8.7578 141
3.1543 6.8711 -1.3252000000000002 165
13.289100000000001 28.9531 0.3716 63
3.5938 7.828099999999999 -1.3066 110
13.2656 28.9062 1.1084 227
4.082 8.8906 -1.2529000000000001 34
13.2969 28.9688 1.8525 105
4.8125 10.4844 -1.208 143
5.8203 12.6797 -1.1357 132
13.531199999999998 29.4688 3.4043 235
7.5352 16.4062 -1.0479 32
13.4297 29.25 4.1328 76
11.539100000000001 25.125 -0.9639 69
13.273399999999999 28.9219 -0.3711 7
3.1836 6.8711 -1.3271000000000002 183
13.375 28.8594 0.3711 69
3.6094 7.792999999999999 -1.3027000000000002 193
13.343800000000002 28.8125 1.1064 141
4.1133 8.875 -1.2529000000000001 99
13.3828 28.8906 1.8496000000000001 4
4.8594 10.4922 -1.21 32
5.863300000000001 12.656199999999998 -1.1357 195
7.605499999999999 16.4219 -1.0498 166
13.5078 29.1562 4.1289 190
11.625 25.0938 -0.9639 88
13.375 28.8594 -0.3711 140
3.2031 6.8515999999999995 -1.3262 121
3.6483999999999996 7.8047 -1.3066 48
4.1523 8.8828 -1.2559 57
13.4531 28.7812 1.8457 105
4.9102 10.5078 -1.2139 34
5.9140999999999995 12.648399999999999 -1.1367 5
7.6562 16.375 -1.0488 168
13.585899999999999 29.0625 4.1211 124
11.726600000000001 25.0938 -0.9653 151
3.2266000000000004 6.8398 -1.3262 104
3.6855 7.8125 -1.3105000000000002 177
13.476600000000001 28.5625 1.1016 33
4.1914 8.8828 -1.2578 35
13.5469 28.7031 1.8447 79
4.9414 10.476600000000001 -1.2129 158
5.9648 12.648399999999999 -1.1387 96
7.730499999999999 16.3906 -1.0518 168
13.6719 28.9688 4.1133 204
11.8203 25.0469 -0.9653 81
13.4844 28.5781 -0.36869999999999997 132
3.2577999999999996 6.8438 -1.3291 14
3.6973000000000003 7.765599999999999 -1.3056999999999999 120
13.5703 28.5 1.1006 215
4.2227 8.875 -1.2588 60
13.625 28.6094 1.8408000000000002 200
4.9766 10.4453 -1.2119 225
6.019500000000001 12.648399999999999 -1.1406 23
7.796900000000001 16.375 -1.0527 85
13.7578 28.9062 4.1133 27
11.8672 24.9219 -0.9619 33
13.539100000000001 28.4375 -0.3674 1
3.2851999999999997 6.8398 -1.3300999999999998 127
3.7285000000000004 7.761699999999999 -1.3066 162
13.6406 28.3906 1.0986 92
4.2617 8.875 -1.2607 130
13.75 28.625 1.8447 214
5.0195 10.4453 -1.2129 93
13.0 27.0625 2.4492 26
6.0547 12.601600000000001 -1.1387 229
7.8789 16.3906 -1.0556999999999999 208
13.843800000000002 28.8125 4.1055 182
11.976600000000001 24.9219 -0.9639 10
13.593800000000002 28.2969 -0.36619999999999997 205
3.3145 6.8398 -1.3330000000000002 165
3.7598000000000003 7.7578 -1.3086000000000002 144
13.656199999999998 28.1875 1.0918 145
4.293 8.8672 -1.2617 100
5.0664 10.4531 -1.2158 86
6.1015999999999995 12.593800000000002 -1.1396 61
7.9336 16.375 -1.0556999999999999 177
13.9219 28.7344 4.1016 121
12.0625 24.9062 -0.9643999999999999 62
13.6406 28.1562 -0.365 65
21.8906 45.1875 8.8516 245
3.3339999999999996 6.8203 -1.3311000000000002 111
13.710899999999999 28.0625 0.3643 24
3.7891000000000004 7.7539 -1.3096 54
13.6875 28.0156 1.0869 232
4.3203 8.8438 -1.2607 98
13.851600000000001 28.3438 1.8330000000000002 49
5.1094 10.4531 -1.2187999999999999 140
6.144500000000001 12.5781 -1.1396 60
7.9961 16.3594 -1.0576 59
13.9844 28.625 4.0938 180
12.093800000000002 24.75 -0.9604 148
13.7031 28.0469 -0.3643 252
22.0625 45.1562 8.8594 183
3.3651999999999997 6.8203 -1.334 132
3.8281 7.761699999999999 -1.3135 85
13.773399999999999 27.9375 1.0859 93
4.3633 8.8438 -1.2637 75
13.968800000000002 28.3281 1.835 10
5.140599999999999 10.4219 -1.2168 31
6.203099999999999 12.5781 -1.1416 133
8.0547 16.3281 -1.0566 107
14.0703 28.5312 4.0859 65
12.2656 24.875 -0.9668000000000001 246
14.75 29.9219 -0.3892 251
22.2969 45.2188 8.8828 248
3.3906 6.8125 -1.335 72
14.8125 29.7812 0.38789999999999997 225
3.8555 7.75 -1.3135 212
18.75 37.6875 1.4678 35
4.4102 8.8672 -1.2686 79
14.023399999999999 28.1875 1.8291 156
5.175800000000001 10.406199999999998 -1.2168 66
6.2461 12.5547 -1.1416 195
22.5781 45.375 5.324199999999999 38
8.1328 16.3438 -1.0595999999999999 6
14.164100000000001 28.4688 4.0859 90
12.3281 24.7812 -0.9648 0
14.8594 29.8594 -0.3892 155
3.4199 6.8125 -1.3369 199
3.8789 7.7265999999999995 -1.3115 141
4.4375 8.8438 -1.2676 224
14.1094 28.125 1.8281 211
5.2227 10.406199999999998 -1.2187999999999999 189
6.292999999999999 12.539100000000001 -1.1426 197
8.2109 16.3594 -1.0625 83
14.2344 28.375 4.0781 48
12.406199999999998 24.7188 -0.9639 19
22.7031 45.2188 8.9141 24
3.4452999999999996 6.8086 -1.3378999999999999 40
14.1875 28.0156 0.3665 161
3.9141000000000004 7.730499999999999 -1.3144999999999998 197
14.164100000000001 27.9844 1.0937999999999999 59
4.4648 8.8203 -1.2656 194
14.1875 28.0156 1.8252000000000002 21
5.2578 10.3906 -1.2187999999999999 37
6.3438 12.531199999999998 -1.1436 58
8.2812 16.3594 -1.0645 8
14.3281 28.2969 4.0742 149
12.5156 24.7188 -0.9658 143
14.1875 28.0156 -0.3665 7
3.4668 6.796900000000001 -1.3378999999999999 131
14.289100000000001 28.0 0.3667 7
3.9452999999999996 7.734400000000001 -1.3174000000000001 40
14.2344 27.8906 1.0918 220
4.4961 8.8125 -1.2676 73
14.2422 27.9219 1.8213 55
5.300800000000001 10.3906 -1.2217 57
6.394500000000001 12.531199999999998 -1.1455 253
8.3203 16.3125 -1.0625 166
14.3906 28.2188 4.0703 201
12.6094 24.7188 -0.9673 214
3.4901999999999997 6.7852 -1.3378999999999999 233
3.9688 7.7148 -1.3163999999999998 195
14.3281 27.8594 1.0918 190
4.5312 8.8047 -1.2686 168
14.2969 27.7969 1.8154 227
5.3359000000000005 10.375 -1.2217 6
6.4609000000000005 12.5625 -1.1504 202
8.3906 16.3125 -1.0645 146
14.468800000000002 28.125 4.0625 104
12.75 24.7969 -0.9717 122
13.148399999999999 25.5625 4.375 168
14.2969 27.7812 -0.36450000000000005 157
3.5195 6.7734000000000005 -1.3388999999999998 20
4.0039 7.707000000000001 -1.3184 208
14.3906 27.7031 1.0879 55
4.5781 8.8125 -1.2715 138
14.375 27.6719 1.8115 53
5.390599999999999 10.375 -1.2246 42
6.519500000000001 12.5469 -1.1514 185
8.4844 16.3281 -1.0684 170
14.5625 28.0469 4.0586 110
12.875 24.7812 -0.9731000000000001 29
13.218800000000002 25.4531 4.3672 17
14.398399999999999 27.7188 -0.36450000000000005 69
3.5566000000000004 6.7852 -1.3428 0
4.0352 7.6953 -1.3184 194
14.460899999999999 27.5938 1.0859 57
4.6094 8.7969 -1.2715 17
14.468800000000002 27.6094 1.8105000000000002 109
5.421900000000001 10.351600000000001 -1.2236 192
6.542999999999999 12.4844 -1.1475 15
8.5312 16.2812 -1.0664 9
14.648399999999999 27.9531 4.0547 103
12.968800000000002 24.75 -0.9736 206
13.281199999999998 25.3438 4.3555 250
14.4844 27.6406 -0.364 153
3.582 6.7852 -1.3457 96
4.0547 7.675800000000001 -1.3174000000000001 160
14.539100000000001 27.5469 1.0859 18
4.6289 8.7656 -1.2705 180
14.523399999999999 27.5156 1.8075999999999999 171
5.457000000000001 10.335899999999999 -1.2246 15
6.5938 12.4922 -1.1504 14
8.6016 16.2969 -1.0693000000000001 15
14.710899999999999 27.875 4.0508 65
13.1094 24.8438 -0.9790000000000001 52
13.398399999999999 25.375 4.3711 155
14.539100000000001 27.5312 -0.36329999999999996 178
3.5957 6.7578 -1.3428 139
4.0859 7.675800000000001 -1.3193000000000001 235
14.6094 27.4531 1.084 201
4.6641 8.7656 -1.2715 118
14.601600000000001 27.4375 1.8056999999999999 108
5.4922 10.3203 -1.2246 163
6.6328 12.460899999999999 -1.1494 0
8.6484 16.25 -1.0684 181
14.7969 27.8125 4.0469 137
13.218800000000002 24.8438 -0.9804999999999999 226
13.5781 25.5156 4.4023 4
14.601600000000001 27.4375 -0.3625 222
13.4453 25.2656 5.0391 235
3.6211 6.7422 -1.3418 76
4.1211 7.671900000000001 -1.3213 11
14.6953 27.3594 1.083 224
4.7031 8.7578 -1.2725 82
14.6953 27.3594 1.8037 214
5.546900000000001 10.3281 -1.2275 124
6.6953 12.460899999999999 -1.1523 168
8.7344 16.2656 -1.0723 48
14.875 27.7031 4.0391 184
13.343800000000002 24.8438 -0.9829000000000001 32
13.7031 25.5156 4.4102 114
14.6953 27.3594 -0.36229999999999996 164
13.5625 25.25 5.0469 46
3.6543 6.7461 -1.3457 38
4.1406 7.6484000000000005 -1.3193000000000001 239
12.914100000000001 23.8438 0.9448000000000001 161
4.7422 8.75 -1.2754 2
14.7656 27.2656 1.8008000000000002 21
5.578099999999999 10.2969 -1.2266 66
6.7461 12.4531 -1.1533 69
15.085899999999999 27.8594 3.3262 13
8.7891 16.2344 -1.0713 166
13.8906 25.6406 3.7461 188
12.898399999999999 23.8125 -0.9438 243
12.8828 23.7812 4.1172 61
12.875 23.7656 -0.3152 71
13.656199999999998 25.2188 5.0469 50
3.6855 6.7539 -1.3496000000000001 53
13.4219 24.5781 0.3267 218
4.1758 7.6484000000000005 -1.3222999999999998 143
12.960899999999999 23.7344 0.9429000000000001 110
4.7773 8.75 -1.2773 174
14.875 27.25 1.8037 203
5.625 10.3047 -1.2295 37
6.7812 12.4219 -1.1523 25
22.8906 41.9375 5.0156 223
8.8516 16.2188 -1.0723 74
13.976600000000001 25.6094 3.7461 163
13.5156 24.7656 -0.9834 178
12.960899999999999 23.75 4.1172 163
13.476600000000001 24.6875 -0.32789999999999997 137
13.7344 25.1719 5.0469 23
3.7089999999999996 6.7422 -1.3496000000000001 164
13.468800000000002 24.4844 0.3259 196
4.1953 7.6289 -1.3213 113
15.0 27.2656 1.085 0
4.8125 8.75 -1.2793 179
14.9922 27.25 1.8066 30
5.6640999999999995 10.289100000000001 -1.2305 51
6.828099999999999 12.414100000000001 -1.1533 96
15.468800000000002 28.1094 3.3691000000000004 254
8.9375 16.25 -1.0762 139
14.0703 25.5781 3.748 27
13.593800000000002 24.7031 -0.9829000000000001 135
13.0703 23.7656 4.1289 27
13.5156 24.5625 -0.3271 28
13.75 24.9844 5.0195 238
3.7324 6.7265999999999995 -1.3496000000000001 52
13.523399999999999 24.3594 0.325 226
4.2344 7.6289 -1.3241999999999998 172
15.1172 27.2344 1.0859 97
4.832 8.7031 -1.2754 82
15.1406 27.2812 1.8125 249
5.6953 10.2656 -1.2295 236
6.8828 12.398399999999999 -1.1543 6
9.0 16.2188 -1.0771 236
14.1875 25.5625 3.7558999999999996 137
13.6797 24.6562 -0.9829000000000001 95
13.148399999999999 23.7031 4.125 79
13.6328 24.5625 -0.3276 52
13.789100000000001 24.8438 5.0 241
3.7617000000000003 6.7227 -1.3516 40
13.5703 24.25 0.32420000000000004 30
4.2695 7.6289 -1.3262 179
4.8711 8.7031 -1.2773 181
18.0938 32.3438 2.1543 12
5.7422 10.2656 -1.2314 250
6.9336 12.3906 -1.1562000000000001 55
9.0469 16.1719 -1.0752 189
14.289100000000001 25.5312 3.7577999999999996 60
13.6797 24.4375 -0.9765999999999999 9
13.1719 23.5469 4.1055 191
13.593800000000002 24.2969 -0.3247 172
13.226600000000001 23.6406 4.7695 50
3.7870999999999997 6.7148 -1.3525 233
4.293 7.613300000000001 -1.3262 133
4.9102 8.7031 -1.2803 197
18.25 32.375 2.1602 55
5.7773 10.2422 -1.2314 41
6.9727 12.3672 -1.1562000000000001 32
9.1406 16.2031 -1.0801 111
13.5469 24.0312 3.543 158
13.3203 23.625 -0.9453 63
13.273399999999999 23.5312 4.1133 100
13.289100000000001 23.5625 -0.3154 255
13.3047 23.5938 4.7695 158
3.8183999999999996 6.7188 -1.3555000000000001 55
4.3203 7.5977 -1.3262 118
4.9453 8.7031 -1.2822 177
18.4062 32.375 2.1641 112
5.8164 10.2344 -1.2334 21
7.0352 12.375 -1.1592 85
9.1953 16.1719 -1.0801 187
15.414100000000001 27.125 4.0078 182
13.656199999999998 24.0312 -0.9634 94
13.3828 23.5469 4.1211 207
13.6172 23.9688 -0.3215 33
13.585899999999999 23.9062 4.8438 101
3.8495999999999997 6.7109000000000005 -1.3563999999999998 134
4.3594 7.5977 -1.3291 152
4.9844 8.6875 -1.2832 232
18.5312 32.3125 2.1641 223
5.859400000000001 10.2109 -1.2334 222
7.0977 12.3672 -1.1611 124
21.8594 38.0938 4.6133 114
9.2578 16.1406 -1.0801 6
13.7031 23.8906 3.5370999999999997 112
13.7969 24.0625 -0.9668000000000001 163
13.6875 23.8594 4.1875 119
13.7422 23.9531 -0.322 171
13.4922 23.5156 4.7734 21
3.875 6.6953 -1.3563999999999998 87
4.3789 7.5703 -1.3271000000000002 76
5.0117 8.6641 -1.2822 110
15.789100000000001 27.2969 1.8319999999999999 115
5.9062 10.2109 -1.2354 251
7.1328 12.3281 -1.1602 118
21.8281 37.75 4.5781 166
9.3125 16.1094 -1.0801 8
15.6094 26.9844 4.0039 228
13.906199999999998 24.0312 -0.9678 49
13.781199999999998 23.8281 4.1914 149
13.8594 23.9531 -0.32280000000000003 99
13.6797 23.6406 4.8086 177
3.8945 6.6836 -1.3563999999999998 4
4.4258 7.6015999999999995 -1.335 127
15.875 27.2656 1.0996 170
5.0508 8.6719 -1.2852000000000001 219
15.8672 27.2344 1.8319999999999999 24
5.9297 10.1797 -1.2334 90
7.1953 12.351600000000001 -1.1641 195
14.468800000000002 24.8438 3.0176 93
9.375 16.0938 -1.0811 157
15.664100000000001 26.8906 3.998 23
14.0078 24.0469 -0.9697 40
13.8203 23.7188 4.1797 111
13.960899999999999 23.9688 -0.3235 89
13.6172 23.375 4.7617 50
3.9219 6.6836 -1.3584 92
4.4375 7.5625 -1.3311000000000002 15
30.8281 52.5312 2.125 143
5.0859 8.6719 -1.2871000000000001 45
16.0 27.25 1.8359 78
5.9688 10.1719 -1.2354 20
7.2461 12.343800000000002 -1.165 41
13.773399999999999 23.4688 2.8555 23
9.4609 16.1094 -1.085 29
15.773399999999999 26.875 4.0039 23
14.6406 24.9375 -1.0078 177
13.8281 23.5625 4.1602 210
13.6094 23.1875 4.7344 174
3.9531 6.6797 -1.3613 75
4.4727 7.5586 -1.3330000000000002 166
31.0312 52.4375 2.125 101
5.1211 8.6562 -1.2881 228
16.125 27.25 1.8397999999999999 184
6.015599999999999 10.1641 -1.2363 84
7.2890999999999995 12.3125 -1.165 192
13.906199999999998 23.4844 2.8651999999999997 114
9.5234 16.0938 -1.0859 80
14.2344 24.0469 3.5898000000000003 181
14.25 24.0781 -0.9756 138
13.9531 23.5781 4.1719 86
16.1406 27.2656 -0.3696 230
13.7344 23.2031 4.7461 221
3.9863 6.6797 -1.3643 89
18.4531 30.9375 0.4204 17
4.4961 7.5352 -1.3311000000000002 120
5.1562 8.6406 -1.2891 166
16.25 27.25 1.8437999999999999 18
6.0547 10.1484 -1.2383 108
7.3515999999999995 12.3203 -1.168 163
13.9531 23.3906 2.8594 248
9.5938 16.0781 -1.0869 250
13.960899999999999 23.3906 3.5 170
14.2969 23.9531 -0.9727 215
14.0078 23.4844 4.1641 114
16.2969 27.3125 -0.3711 17
15.101600000000001 25.3125 5.1914 238
4.0078 6.6640999999999995 -1.3643 149
18.5781 30.8906 0.4207 67
4.5469 7.5625 -1.3388999999999998 148
5.1836 8.6172 -1.2881 80
16.3906 27.2344 1.8466999999999998 89
6.0977 10.1406 -1.2393 235
7.3984000000000005 12.2969 -1.1689 86
14.0625 23.375 2.8632999999999997 191
9.6484 16.0312 -1.0859 134
14.023399999999999 23.3125 3.4941000000000004 94
14.1875 23.5781 -0.9590000000000001 109
14.0703 23.3906 4.1562 105
14.1406 23.5156 -0.31980000000000003 213
15.1875 25.25 5.1875 249
4.0273 6.644500000000001 -1.3622999999999998 128
14.2578 23.5156 0.3208 102
4.5703 7.5352 -1.3369 187
5.2265999999999995 8.6172 -1.291 106
16.5156 27.2344 1.8496000000000001 214
6.136699999999999 10.1172 -1.2393 165
7.457000000000001 12.2969 -1.1709 153
14.148399999999999 23.3281 2.8632999999999997 81
9.6875 15.9844 -1.085 142
14.3281 23.6406 3.5507999999999997 124
14.1328 23.3125 4.1523 46
14.2578 23.5156 -0.3206 14
14.1719 23.375 4.8125 32
4.0586 6.640599999999999 -1.3652000000000002 165
14.3281 23.4375 0.32030000000000003 168
4.5938 7.519500000000001 -1.3369 163
16.6406 27.2344 1.1123 56
5.2578 8.6016 -1.291 163
6.175800000000001 10.1016 -1.2402 97
7.5078 12.289100000000001 -1.1729 6
14.1953 23.2344 2.8574 82
9.75 15.960899999999999 -1.0859 126
14.4297 23.6094 3.5547000000000004 136
14.468800000000002 23.6875 -0.9673 245
14.2578 23.3281 4.1602 3
14.3594 23.5 -0.321 246
14.2578 23.3281 4.8164 28
4.0898 6.636699999999999 -1.3672 174
14.414100000000001 23.4062 0.3206 85
4.625 7.511699999999999 -1.3388999999999998 62
16.75 27.2031 1.1143 157
5.300800000000001 8.6094 -1.2949000000000002 50
16.8125 27.2969 1.8622999999999998 234
6.2109000000000005 10.0859 -1.2402 62
7.550800000000001 12.2578 -1.1719 24
9.8047 15.9219 -1.0859 208
14.2578 23.1406 3.4922000000000004 226
14.5625 23.6406 -0.9678 128
14.1094 22.9062 4.0977 122
14.4922 23.5312 -0.3223 119
14.4219 23.4062 4.8398 191
4.1172 6.636699999999999 -1.3700999999999999 230
14.539100000000001 23.4375 0.3218 254
4.6406 7.480499999999999 -1.3359 12
5.3203 8.5781 -1.2930000000000001 223
6.2578 10.0938 -1.2431999999999999 111
7.5898 12.2344 -1.1729 195
9.8828 15.9375 -1.0889 196
14.226600000000001 22.9375 3.4668 121
14.039100000000001 22.625 4.0547 46
16.9219 27.2656 -0.3743 33
14.531199999999998 23.4219 4.8516 116
4.1289 6.609400000000001 -1.3672 199
4.6758 7.484400000000001 -1.3388999999999998 123
5.359400000000001 8.5781 -1.2959 206
6.292999999999999 10.0703 -1.2441 72
7.640599999999999 12.226600000000001 -1.1738 15
15.25 24.4062 3.0195 153
9.9141 15.8594 -1.0859 126
14.2969 22.875 3.4648000000000003 200
14.2031 22.7188 4.0781 247
17.0312 27.2656 -0.375 158
13.914100000000001 22.2656 4.6211 144
4.1602 6.5977 -1.3672 127
4.7148 7.480499999999999 -1.3418 225
5.390599999999999 8.5547 -1.2949000000000002 58
6.3438 10.0625 -1.2451 156
7.707000000000001 12.218800000000002 -1.1768 165
15.2656 24.2188 3.0039 117
9.9922 15.843800000000002 -1.0869 240
14.343800000000002 22.75 3.4551 154
14.5781 23.125 4.1602 234
17.1875 27.25 -0.3757 185
13.960899999999999 22.1406 4.6055 27
4.1875 6.5898 -1.3700999999999999 243
4.7383 7.453099999999999 -1.3397999999999999 28
5.4375 8.5547 -1.2988 74
17.3281 27.2812 1.8779 101
6.390599999999999 10.0547 -1.2470999999999999 44
7.7812 12.2422 -1.1806999999999999 192
15.2969 24.0625 2.9922000000000004 167
10.0234 15.773399999999999 -1.085 239
14.4375 22.7188 3.457 202
16.1094 25.3594 -1.0479 133
13.968800000000002 21.9844 3.9648000000000003 156
17.3281 27.2656 -0.37670000000000003 32
13.8594 21.7969 4.5469 35
4.2109 6.578099999999999 -1.3700999999999999 85
17.4375 27.25 0.3774 221
4.7617 7.4414 -1.3408000000000002 36
17.4062 27.2031 1.126 248
5.4648 8.5391 -1.2988 1
17.4219 27.2188 1.8779 73
6.421900000000001 10.0312 -1.2470999999999999 0
7.792999999999999 12.1797 -1.1777 37
15.3281 23.9375 2.9824 67
10.1016 15.781199999999998 -1.0879 252
14.5625 22.75 3.4688 10
14.023399999999999 21.9219 3.9608999999999996 107
17.4531 27.2656 -0.37770000000000004 55
13.9844 21.8594 4.5664 31
4.2383 6.574199999999999 -1.3721 32
4.7891 7.4297 -1.3418 6
32.7812 50.875 2.1113 208
5.4961 8.5234 -1.2988 36
6.4688 10.0312 -1.25 235
7.859400000000001 12.1953 -1.1816 133
15.4531 23.9688 2.9922000000000004 180
10.1484 15.7344 -1.0869 164
14.843800000000002 23.0156 3.5176 71
14.1172 21.9062 3.9668 137
17.5781 27.2656 -0.3784 7
14.0625 21.8125 4.5664 107
4.2695 6.5703 -1.374 99
4.8242 7.425800000000001 -1.3437999999999999 62
33.0 50.8125 2.1133 108
5.5312 8.5156 -1.3008000000000002 18
33.5312 51.5938 3.5781 31
6.519500000000001 10.0391 -1.2529000000000001 22
7.921900000000001 12.1953 -1.1845999999999999 221
15.148399999999999 23.3125 2.918 81
10.1953 15.6953 -1.0859 157
16.9844 26.1562 4.0078 167
14.531199999999998 22.375 4.0625 62
17.7031 27.25 -0.37920000000000004 248
14.3203 22.0469 4.6289 106
4.2852 6.546900000000001 -1.3721 73
4.8555 7.421900000000001 -1.3457 16
33.2188 50.7812 2.1172 167
5.5625 8.5 -1.3008000000000002 117
33.6875 51.4688 3.5762 135
6.550800000000001 10.0078 -1.2529000000000001 232
7.9648 12.1719 -1.1845999999999999 71
15.1719 23.1875 2.9062 155
10.2578 15.6797 -1.0869 71
15.523399999999999 23.7188 3.6426 102
14.726600000000001 22.5 4.0938 47
17.8594 27.2812 -0.3804 35
14.101600000000001 21.5469 4.5312 196
4.3086 6.5312 -1.3721 91
4.875 7.390599999999999 -1.3428 130
33.5 50.8125 2.123 63
5.609400000000001 8.5078 -1.3047 213
6.5898 9.9922 -1.2539 153
8.0234 12.164100000000001 -1.1865 191
15.2031 23.0469 2.8983999999999996 186
10.3281 15.664100000000001 -1.0889 153
17.0938 25.9219 3.9882999999999997 59
14.789100000000001 22.4219 4.0898 88
15.75 23.875 -0.3335 189
14.1172 21.4062 4.5156 8
4.3359 6.5234000000000005 -1.374 71
4.8984 7.3711 -1.3428 45
33.6875 50.6875 2.123 146
5.636699999999999 8.4766 -1.3037 243
6.6328 9.9766 -1.2549 220
8.0703 12.1406 -1.1865 168
15.2656 22.9688 2.8926 250
10.414100000000001 15.664100000000001 -1.0918 242
15.8047 23.7812 3.668 3
14.414100000000001 21.6875 3.9629000000000003 94
15.710899999999999 23.6406 -0.3311 225
14.226600000000001 21.4062 4.5234 171
4.3633 6.515599999999999 -1.376 69
18.2344 27.2188 0.3821 72
4.9375 7.375 -1.3466999999999998 6
18.1875 27.1562 1.1396 251
5.667999999999999 8.4688 -1.3047 82
18.2031 27.1875 1.9013999999999998 60
6.675800000000001 9.9688 -1.2559 120
8.1328 12.1406 -1.1895 213
15.3047 22.8594 2.8867000000000003 171
10.468800000000002 15.6328 -1.0918 122
14.5547 21.7344 3.3594 34
15.8203 23.625 -0.9906999999999999 108
14.460899999999999 21.5938 3.957 83
15.7656 23.5469 -0.33030000000000004 23
14.4844 21.625 4.582 99
4.3906 6.5039 -1.376 116
4.9648 7.359400000000001 -1.3477000000000001 55
18.2969 27.125 1.1406 170
5.707000000000001 8.4531 -1.3066 18
18.3125 27.1406 1.9022999999999999 165
6.7148 9.9453 -1.2568000000000001 165
8.1875 12.1328 -1.1924 29
15.406199999999998 22.8281 2.8906 65
10.5078 15.5781 -1.0908 235
14.601600000000001 21.6406 3.3516000000000004 59
15.914100000000001 23.5781 -0.9917 83
14.5156 21.5 3.9492000000000003 123
15.835899999999999 23.4688 -0.3301 200
14.773399999999999 21.8906 4.6484 72
4.4062 6.484400000000001 -1.375 6
5.0039 7.363300000000001 -1.3506 185
18.4688 27.1875 1.1455 117
5.738300000000001 8.4453 -1.3075999999999999 63
18.4375 27.125 1.9053 201
6.75 9.9297 -1.2578 37
8.2188 12.093800000000002 -1.1904000000000001 28
15.539100000000001 22.8594 2.9004000000000003 119
10.585899999999999 15.5781 -1.0928 177
14.6719 21.5938 3.3535000000000004 172
15.9922 23.5312 -0.9917 161
15.0781 22.1875 4.082 17
14.8125 21.7969 4.6406 195
4.4297 6.4727 -1.376 247
5.0195 7.332000000000001 -1.3486000000000002 151
18.6094 27.1875 1.1484 242
5.765599999999999 8.4219 -1.3075999999999999 134
18.5781 27.1562 1.9111000000000002 219
6.800800000000001 9.9375 -1.2607 36
8.2734 12.093800000000002 -1.1934 163
15.718800000000002 22.9688 2.9199 166
10.656199999999998 15.5703 -1.0947 242
14.8125 21.6406 3.3691000000000004 2
14.8906 21.7656 4.0156 46
16.125 23.5625 -0.33299999999999996 171
14.843800000000002 21.6875 4.625 66
4.4648 6.4688 -1.3788999999999998 199
5.0469 7.3125 -1.3486000000000002 55
18.7812 27.2188 1.1533 245
5.8047 8.4141 -1.3096 51
18.7344 27.1406 1.916 16
6.8438 9.9219 -1.2627 240
8.3281 12.0781 -1.1943000000000001 109
15.835899999999999 22.9531 2.9276999999999997 94
10.7344 15.5625 -1.0967 91
17.4219 25.25 3.9414 142
14.75 21.3906 3.9551 12
18.9531 27.4688 -0.38939999999999997 179
15.085899999999999 21.8594 4.6758 89
4.4922 6.4609000000000005 -1.3799000000000001 207
5.0859 7.3164 -1.3516 101
22.5156 32.4062 1.376 166
5.8359000000000005 8.3984 -1.3105000000000002 20
18.9062 27.1875 1.9238 243
6.886699999999999 9.9141 -1.2637 99
8.3672 12.0469 -1.1943000000000001 183
15.875 22.8438 2.918 216
10.8281 15.585899999999999 -1.1016 140
17.4688 25.125 3.9297000000000004 170
16.8125 24.1875 -1.0273 51
14.8594 21.375 3.9629000000000003 224
19.0625 27.4219 -0.3896 43
15.156199999999998 21.8125 4.6758 242
4.5078 6.4336 -1.3779 203
5.1133 7.300800000000001 -1.3525 210
22.5469 32.1875 1.3700999999999999 84
5.875 8.3906 -1.3125 179
19.0156 27.1406 1.9247999999999998 91
6.9297 9.8906 -1.2646 87
8.4375 12.0469 -1.1982 142
16.0156 22.8594 2.9297000000000004 78
10.8672 15.5078 -1.0996 12
17.7656 25.375 3.9785000000000004 199
16.8281 24.0156 -1.0225 83
14.906199999999998 21.2812 3.9551 106
19.2031 27.4062 -0.39039999999999997 233
15.210899999999999 21.7188 4.668 29
4.5273 6.417999999999999 -1.3779 135
5.1562 7.3086 -1.3574000000000002 1
22.5469 31.9688 1.3643 249
5.9102 8.375 -1.3125 111
19.0625 27.0 1.9209 44
6.9727 9.8828 -1.2666 69
16.6406 23.5781 2.3535 62
8.5 12.039100000000001 -1.2002 80
10.9453 15.5156 -1.1025 72
18.0312 25.5469 4.0156 15
16.8594 23.875 -1.0186 95
15.3906 21.8125 4.0664 5
19.3438 27.4219 -0.39159999999999995 206
15.7031 22.25 4.7969 160
4.5547 6.4102 -1.3788999999999998 143
5.175800000000001 7.2812 -1.3555000000000001 128
17.2656 24.2969 1.0391 249
5.9453 8.3672 -1.3144999999999998 223
17.3125 24.3594 1.7363 47
7.011699999999999 9.8672 -1.2676 171
16.7188 23.5156 2.3535 50
8.5312 12.0078 -1.1992 117
18.25 25.6719 3.3066000000000004 21
11.0 15.476600000000001 -1.1016 167
18.125 25.5 4.0195 155
16.875 23.75 -1.0156 229
15.4531 21.7344 4.0625 196
19.5 27.4531 -0.39280000000000004 114
15.4453 21.7344 4.6953 236
4.582 6.4062 -1.3818000000000001 25
5.207000000000001 7.2773 -1.3584 94
16.9688 23.7031 1.0166 194
5.9765999999999995 8.3516 -1.3154 87
16.8906 23.6094 1.6865 115
7.0547 9.8516 -1.2695 166
16.7812 23.4531 2.3516 83
8.5859 11.9922 -1.2012 43
17.8438 24.9375 3.2188 146
11.0625 15.4531 -1.1025 230
16.9844 23.7344 3.748 210
16.9375 23.6562 -1.0146 89
15.148399999999999 21.1719 3.9629000000000003 0
17.25 24.1094 -0.34590000000000004 173
15.4453 21.5938 4.6719 21
4.6133 6.3984000000000005 -1.3838 139
17.2812 23.9688 0.3447 211
5.230499999999999 7.2539 -1.3574000000000002 148
17.0469 23.6406 1.0156 30
6.011699999999999 8.3359 -1.3163999999999998 78
16.9844 23.5469 1.6865 41
7.0938 9.8359 -1.2705 241
17.75 24.6094 2.4746 103
8.6484 11.9922 -1.2041 45
17.9062 24.8281 3.2129000000000003 3
11.156199999999998 15.468800000000002 -1.1074 128
15.843800000000002 21.9688 3.4785000000000004 106
17.0156 23.5938 -1.0146 208
15.156199999999998 21.0156 3.9452999999999996 160
17.3125 24.0 -0.345 207
15.531199999999998 21.5312 4.6719 49
4.6367 6.3789 -1.3828 115
17.3438 23.8594 0.344 205
5.2734000000000005 7.2578 -1.3613 189
17.1719 23.6406 1.0186 12
6.0390999999999995 8.3125 -1.3154 255
19.7656 27.2031 1.9541 153
7.140599999999999 9.8281 -1.2725 128
19.5312 26.875 2.7108999999999996 207
8.6953 11.968800000000002 -1.2041 213
17.9531 24.7188 3.207 174
11.218800000000002 15.4453 -1.1084 223
15.9297 21.9219 3.4805 128
17.1094 23.5469 -1.0146 81
15.218800000000002 20.9375 3.9414 128
17.375 23.9219 -0.345 10
15.789100000000001 21.7344 4.7305 171
4.6562 6.363300000000001 -1.3828 146
17.4688 23.8594 0.345 208
5.3047 7.25 -1.3633000000000002 19
19.8438 27.1094 1.1719 107
6.082000000000001 8.3125 -1.3203 99
19.8281 27.1094 1.9512 129
7.1836 9.8203 -1.2744 89
19.6875 26.9062 2.7207 88
8.75 11.9531 -1.2061 237
18.1406 24.7969 3.2245999999999997 186
11.281199999999998 15.414100000000001 -1.1084 161
15.9844 21.8438 3.4766000000000004 151
17.2031 23.5156 -1.0156 222
15.3281 20.9531 3.9512 4
17.4688 23.875 -0.3452 120
15.718800000000002 21.4844 4.6875 233
4.6836 6.355499999999999 -1.3847999999999998 106
5.328099999999999 7.230499999999999 -1.3633000000000002 188
20.0 27.1406 1.1758 62
6.109400000000001 8.2891 -1.3193000000000001 127
19.9688 27.1094 1.9561000000000002 249
7.2148 9.7969 -1.2744 72
8.7969 11.9453 -1.208 152
11.335899999999999 15.3906 -1.1094 99
16.1094 21.8594 3.4882999999999997 10
17.2969 23.4688 -1.0166 23
15.414100000000001 20.9219 3.9551 18
20.0469 27.2031 -0.3943 147
15.6094 21.1875 4.6328 164
4.7188 6.355499999999999 -1.3887 249
20.2031 27.2188 0.39549999999999996 122
5.359400000000001 7.2188 -1.3643 229
20.125 27.125 1.1777 65
6.1523 8.2891 -1.3222999999999998 192
20.1094 27.0938 1.96 155
7.265599999999999 9.7812 -1.2764 114
19.9219 26.8438 2.7266000000000004 74
8.8594 11.9297 -1.21 207
16.7344 22.5469 2.9452999999999996 88
11.406199999999998 15.3672 -1.1113 21
16.2344 21.8594 3.4961 6
17.4062 23.4375 -1.0176 220
16.0156 21.5781 4.0938 180
20.1875 27.1875 -0.395 90
15.625 21.0469 4.6172 97
4.7539 6.355499999999999 -1.3925999999999998 104
20.3594 27.2188 0.3967 228
5.386699999999999 7.199199999999999 -1.3643 14
20.2969 27.1406 1.1816 135
6.1797 8.2656 -1.3222999999999998 135
20.2656 27.0938 1.9658000000000002 15
7.3086 9.7734 -1.2783 124
20.0938 26.875 2.7382999999999997 148
8.9219 11.9297 -1.2129 54
16.8281 22.5 2.9492000000000003 32
11.460899999999999 15.3203 -1.1104 215
16.25 21.7344 3.4863 70
17.5312 23.4531 -1.0205 10
15.843800000000002 21.1875 4.0273 196
20.3281 27.1875 -0.3962 140
15.6719 20.9531 4.6055 43
4.7773 6.3398 -1.3925999999999998 18
20.5312 27.2656 0.3982 114
5.425800000000001 7.203099999999999 -1.3691 43
20.5312 27.2656 1.1904000000000001 187
6.2188 8.2578 -1.3241999999999998 122
20.4375 27.125 1.9736000000000002 177
7.355499999999999 9.7656 -1.2803 156
8.9609 11.898399999999999 -1.2129 155
16.5 21.8906 2.877 228
11.523399999999999 15.3047 -1.1123 147
15.875 21.0781 3.3887 150
17.6875 23.4844 -1.0244 92
15.8906 21.0938 4.0195 214
20.4688 27.1875 -0.397 138
15.7422 20.9062 4.6055 190
4.7969 6.3203 -1.3916 109
20.6719 27.2344 0.39890000000000003 122
5.4609000000000005 7.1953 -1.3711000000000002 31
20.6719 27.2344 1.1924 10
6.25 8.2344 -1.3241999999999998 65
20.5781 27.1094 1.9775 220
7.4140999999999995 9.7656 -1.2841999999999998 207
20.375 26.8594 2.75 143
9.0312 11.906199999999998 -1.2168 48
16.5625 21.8281 2.875 118
11.5625 15.2422 -1.1104 149
15.898399999999999 20.9531 3.3789 228
15.898399999999999 20.9531 4.0039 132
20.6094 27.1719 -0.3979 114
15.8203 20.8438 4.6055 115
4.8281 6.3164 -1.3944999999999999 32
5.480499999999999 7.171900000000001 -1.3700999999999999 130
20.8281 27.25 1.1963 25
6.300800000000001 8.2422 -1.3291 140
20.7188 27.1094 1.9834 225
7.4336 9.7266 -1.2812000000000001 10
20.5312 26.8594 2.7577999999999996 131
9.1016 11.906199999999998 -1.2197 122
16.5312 21.6406 2.8574 248
11.6328 15.218800000000002 -1.1113 51
15.960899999999999 20.8906 3.377 82
15.9922 20.9219 4.0117 89
20.75 27.1562 -0.39890000000000003 80
16.0781 21.0469 4.6641 40
4.8594 6.3086 -1.3965 177
21.0469 27.3281 0.4023 70
5.5039 7.1484000000000005 -1.3691 172
20.9531 27.2188 1.1973 199
6.332000000000001 8.2266 -1.3300999999999998 111
20.8594 27.0938 1.9872999999999998 53
7.4727 9.7109 -1.2832 175
20.6406 26.8281 2.7617000000000003 158
9.1172 11.843800000000002 -1.2168 150
16.6094 21.5781 2.8574 182
11.7031 15.2031 -1.1143 59
16.0312 20.8281 3.375 102
16.0625 20.8594 4.0078 195
20.9062 27.1562 -0.39990000000000003 185
16.2031 21.0469 4.6758 79
4.8867 6.300800000000001 -1.3984 76
21.1406 27.25 0.4023 171
5.546900000000001 7.1562 -1.374 247
21.1094 27.2188 1.2012 123
6.3515999999999995 8.1953 -1.3281 154
21.0312 27.1094 1.9941 33
7.5390999999999995 9.7188 -1.2881 63
9.1797 11.843800000000002 -1.2207 208
16.75 21.6094 2.8691000000000004 188
11.781199999999998 15.1875 -1.1152 82
16.1719 20.8438 3.3887 231
16.2031 20.8906 4.0273 43
21.0625 27.1562 -0.40090000000000003 241
16.2031 20.9062 4.6562 145
4.9062 6.2812 -1.3975 120
21.2812 27.25 0.4033 244
5.5703 7.1328 -1.374 37
21.2656 27.2188 1.2041 225
6.394500000000001 8.1875 -1.3311000000000002 102
21.1562 27.0938 1.9980000000000002 196
7.574199999999999 9.7031 -1.2891 114
20.9531 26.8281 2.7773000000000003 143
9.2188 11.8047 -1.2197 235
16.9219 21.6562 2.8848000000000003 183
11.843800000000002 15.164100000000001 -1.1172 88
16.75 21.4531 3.4941000000000004 128
18.5 23.6875 -1.0479 89
16.5 21.125 4.0781 198
16.2656 20.8281 4.6523 16
4.9258 6.265599999999999 -1.3975 123
21.4375 27.2812 0.4048 239
5.6172 7.144500000000001 -1.3788999999999998 134
21.3906 27.2031 1.207 219
6.4297 8.1797 -1.3330000000000002 75
21.2969 27.0938 2.002 242
7.613300000000001 9.6875 -1.29 70
19.4219 24.7188 2.5645 206
9.2812 11.8047 -1.2227 215
17.3125 22.0156 2.9395 34
11.8828 15.1172 -1.1162 199
16.7969 21.375 3.4901999999999997 108
20.2969 25.8125 -1.1455 16
16.5156 21.0156 4.0703 28
16.3125 20.75 4.6484 197
4.957 6.261699999999999 -1.4003999999999999 129
21.5781 27.2656 0.4058 99
5.640599999999999 7.1289 -1.3799000000000001 250
21.5469 27.2344 1.2109 52
6.4648 8.1719 -1.335 211
21.4375 27.0781 2.0059 208
7.6562 9.6719 -1.2919999999999998 117
19.5312 24.6719 2.5664 16
9.3281 11.789100000000001 -1.2236 12
17.3906 21.9688 2.9414 205
11.968800000000002 15.1172 -1.1191 119
16.8438 21.2969 3.4863 107
20.4375 25.8281 -1.1484 39
16.6094 20.9844 4.0742 12
21.4844 27.1406 -0.40380000000000005 77
16.3594 20.6719 4.6406 6
4.9844 6.25 -1.4022999999999999 226
21.75 27.2812 0.4072 44
5.6640999999999995 7.105499999999999 -1.3788999999999998 120
21.6875 27.2031 1.2129 124
6.511699999999999 8.1641 -1.3378999999999999 34
21.5938 27.0781 2.0117 160
7.6953 9.6484 -1.2930000000000001 60
19.5469 24.5 2.5566 28
9.3594 11.7422 -1.2227 140
17.5156 21.9688 2.9492000000000003 4
12.0703 15.1328 -1.124 34
16.9531 21.2656 3.4941000000000004 100
17.1875 21.5469 4.1953 37
21.6406 27.1406 -0.405 128
16.4531 20.625 4.6445 20
5.0156 6.2461 -1.4053 44
21.875 27.2344 0.4077 85
5.6953 7.0898 -1.3799000000000001 13
21.875 27.2188 1.2178 158
6.5390999999999995 8.1406 -1.3378999999999999 60
21.7344 27.0625 2.0176 196
7.7422 9.6406 -1.2949000000000002 238
9.4062 11.710899999999999 -1.2236 94
17.5781 21.8906 2.9473000000000003 151
12.1328 15.1094 -1.125 92
17.0781 21.2656 3.5039 210
17.3438 21.5938 4.2148 9
21.7812 27.125 -0.406 182
16.5156 20.5781 4.6445 245
5.0312 6.2188 -1.4033000000000002 250
22.0781 27.2812 0.4094 129
5.730499999999999 7.082000000000001 -1.3828 243
22.0 27.1875 1.2197 21
6.5664 8.1172 -1.3369 17
21.875 27.0312 2.0215 191
7.796900000000001 9.6328 -1.2978999999999998 2
9.4766 11.710899999999999 -1.2266 84
17.6719 21.8438 2.9473000000000003 233
12.218800000000002 15.093800000000002 -1.127 160
17.1562 21.2031 3.502 159
17.4375 21.5625 4.2227 46
21.9375 27.1094 -0.40700000000000003 9
18.1719 22.4531 5.0859 195
5.0547 6.199199999999999 -1.4033000000000002 204
5.7734000000000005 7.082000000000001 -1.3866999999999998 130
22.1719 27.2031 1.2236 246
6.609400000000001 8.1094 -1.3397999999999999 236
22.0312 27.0312 2.0254 86
7.8359000000000005 9.6172 -1.2988 127
9.5391 11.7031 -1.2295 236
17.75 21.7812 2.9492000000000003 66
12.25 15.023399999999999 -1.125 212
17.25 21.1719 3.5077999999999996 191
17.5938 21.5781 4.2383 199
22.1094 27.125 -0.40840000000000004 145
18.6719 22.9062 5.203099999999999 136
5.0898 6.203099999999999 -1.4082 202
22.2656 27.125 0.4094 210
5.792999999999999 7.0586 -1.3857 106
22.1875 27.0312 1.2197 37
6.6640999999999995 8.125 -1.3457 35
22.1875 27.0312 2.0312 231
7.875 9.6016 -1.3008000000000002 43
9.5938 11.6875 -1.2314 58
17.7812 21.6719 2.9414 187
12.273399999999999 14.960899999999999 -1.123 130
17.3594 21.1562 3.5156 53
17.5156 21.3594 4.207 202
22.25 27.1094 -0.4092 61
18.7969 22.9062 5.2148 68
5.1172 6.1953 -1.4091999999999998 80
5.8125 7.0352 -1.3847999999999998 234
22.3125 27.0156 1.2217 114
6.6914 8.1016 -1.3457 120
22.3281 27.0312 2.0371 134
7.917999999999999 9.5859 -1.3018 202
9.6094 11.6328 -1.2295 112
17.9062 21.6719 2.9512 91
12.3125 14.898399999999999 -1.1220999999999999 226
17.5625 21.25 3.5410000000000004 121
21.4219 25.9375 -1.1729 141
17.5938 21.2969 4.207 194
22.4062 27.125 -0.4104 32
18.8594 22.8281 5.2148 224
5.1523 6.1875 -1.4121000000000001 118
5.855499999999999 7.0312 -1.3887 209
22.4844 27.0156 1.2256 61
6.7227 8.0781 -1.3466999999999998 108
22.4844 27.0 2.041 222
7.980499999999999 9.5859 -1.3066 219
9.6719 11.6172 -1.2314 40
17.9375 21.5469 2.9433999999999996 38
12.3672 14.851600000000001 -1.1220999999999999 202
17.625 21.1562 3.5370999999999997 57
21.5312 25.8594 -1.1729 196
17.7031 21.2656 4.2109 79
22.5781 27.1094 -0.41159999999999997 3
20.4375 24.5469 5.625 153
5.167999999999999 6.1640999999999995 -1.4102000000000001 224
5.890599999999999 7.0273 -1.3916 68
22.7031 27.0625 1.2314 158
6.769500000000001 8.0703 -1.3496000000000001 153
22.6406 27.0156 2.0488 9
8.0312 9.5781 -1.3086000000000002 32
20.4375 24.3594 2.5938 70
9.7344 11.6094 -1.2344 71
18.7969 22.4062 3.0702999999999996 131
12.414100000000001 14.8047 -1.1211 148
18.1562 21.6562 3.6289 159
21.75 25.9375 -1.1797 64
18.2188 21.7188 4.3164 189
5.1875 6.144500000000001 -1.4102000000000001 98
5.921900000000001 7.011699999999999 -1.3925999999999998 182
6.8047 8.0625 -1.3516 133
22.7969 26.9844 2.0527 126
8.0625 9.5469 -1.3086000000000002 77
20.4531 24.2188 2.5858999999999996 201
9.7734 11.5781 -1.2344 47
18.4375 21.8438 3.0 161
12.4453 14.7422 -1.1201 50
18.2656 21.625 3.6367000000000003 195
18.3125 21.6719 4.3203 101
5.2265999999999995 6.144500000000001 -1.415 229
5.953099999999999 7.0 -1.3944999999999999 102
23.0156 27.0625 1.2383 226
6.8515999999999995 8.0547 -1.3555000000000001 104
22.9531 26.9844 2.0586 10
8.1094 9.5391 -1.3115 37
18.9375 22.2656 2.3848 124
9.8281 11.5547 -1.2354 58
18.5156 21.7656 2.998 201
12.4844 14.6797 -1.1181999999999999 200
18.5625 21.8281 3.6797000000000004 228
21.9219 25.7812 -1.1797 90
18.4844 21.7344 4.3438 116
5.2539 6.136699999999999 -1.4169999999999998 143
5.9727 6.9765999999999995 -1.3944999999999999 197
