# .PCD v0.7 - Point Cloud Data file format
VERSION 0.7
FIELDS x y z intensity
SIZE 4 4 4 4
TYPE F F F F
COUNT 1 1 1 1
WIDTH 1236
HEIGHT 1
VIEWPOINT 0 0 0 1 0 0 0
POINTS 1236
DATA ascii
-9.2891 -2.5664 1.0078 200
-12.2031 -3.373 1.6230000000000002 33
-6.5703 -1.8163999999999998 -0.23629999999999998 187
-8.8984 -2.459 1.4013999999999998 142
-15.4453 -4.2695 -0.1864 174
-12.085899999999999 -3.3398000000000003 2.2031 182
-18.8594 -5.140599999999999 0.22769999999999999 43
-3.5351999999999997 -0.9639 -0.5522 168
-18.8594 -5.140599999999999 0.6807 249
-6.167999999999999 -1.6806999999999999 -0.8169 207
-21.9531 -5.984400000000001 1.3213 50
-6.2461 -1.7021000000000002 -0.6758 220
-15.460899999999999 -4.2148 1.3047 205
-9.2969 -2.5352 1.0078 20
-12.210899999999999 -3.3301 1.6230000000000002 130
-6.6328 -1.8075999999999999 -0.23829999999999998 102
-11.8047 -3.2188 1.8594 91
-17.6719 -4.8203 -0.2134 227
-12.0781 -3.293 2.2012 246
-17.6094 -4.7383 0.21239999999999998 34
-19.125 -5.144500000000001 0.6899 4
-6.171900000000001 -1.6591999999999998 -0.8169 241
-20.75 -5.578099999999999 1.2470999999999999 72
-6.2461 -1.6787 -0.6748000000000001 110
-15.460899999999999 -4.1562 1.3037 52
-9.3203 -2.5059 1.0098 101
-12.226600000000001 -3.2870999999999997 1.6230000000000002 14
-8.8359 -2.375 1.3887 8
-17.5781 -4.7266 -0.212 77
-12.0703 -3.2441000000000004 2.1953 170
-17.6719 -4.6836 0.21289999999999998 188
-3.5410000000000004 -0.9390000000000001 -0.5522 10
-19.4375 -5.1562 0.7006999999999999 49
-6.1797 -1.6377000000000002 -0.8169 37
-19.5625 -5.1875 1.1748 155
-6.238300000000001 -1.6543 -0.6738 115
-15.4531 -4.0977 1.3018 234
-9.3359 -2.4746 1.0107 251
-12.210899999999999 -3.2382999999999997 1.6200999999999999 175
-9.0391 -2.3965 1.4188999999999998 221
-17.5938 -4.668 -0.212 106
-12.0703 -3.1992000000000003 2.1934 5
-3.1914 -0.8345 -0.5742 136
-17.6875 -4.625 0.21289999999999998 31
-19.6562 -5.136699999999999 0.7075 40
-6.1836 -1.6162 -0.8169 250
-19.8438 -5.1875 1.1904000000000001 36
-6.238300000000001 -1.6309 -0.6729 219
-15.4453 -4.0391 1.2997999999999998 158
-9.375 -2.4512 1.0137 186
-12.1953 -3.1875 1.6162 65
-9.0625 -2.3691 1.4219 28
-17.5938 -4.6016 -0.2118 251
-8.6719 -2.2656 1.5732 194
-17.7031 -4.5625 0.21289999999999998 169
-3.5469 -0.9140999999999999 -0.5522 44
-12.4219 -3.2012 0.44630000000000003 67
-6.175800000000001 -1.5918 -0.8149 228
-12.4219 -3.2012 0.7437 248
-6.25 -1.6103999999999998 -0.6733 17
-12.414100000000001 -3.1992000000000003 1.0439 118
-9.3906 -2.4199 1.0146 209
-12.218800000000002 -3.1483999999999996 1.6172 208
-11.789100000000001 -3.0391000000000004 1.8496000000000001 164
-12.398399999999999 -3.1933999999999996 -0.14880000000000002 53
-12.031199999999998 -3.0995999999999997 2.1836 248
-12.5156 -3.1776999999999997 0.1501 238
-12.3828 -3.1445 0.4443 204
-6.1562 -1.5635 -0.8115000000000001 98
-12.3672 -3.1406 0.7397 128
-6.2422 -1.585 -0.6724 110
-12.375 -3.1426 1.0391 129
-9.4062 -2.3887 1.0156 51
-12.218800000000002 -3.1035000000000004 1.6162 95
-11.789100000000001 -2.9922000000000004 1.8477000000000001 174
-12.335899999999999 -3.1348000000000003 -0.1479 209
-11.9922 -3.0449 2.1738 69
-3.2012 -0.8008 -0.5742 126
-12.3906 -3.0995999999999997 0.1484 71
-3.5547000000000004 -0.8896 -0.5522 54
-12.3672 -3.0957 0.4434 46
-6.167999999999999 -1.5438999999999998 -0.8125 118
-12.343800000000002 -3.0879000000000003 0.7378 117
-6.1602 -1.5419999999999998 -0.6631 22
-12.3828 -3.0995999999999997 1.0391 42
-9.4453 -2.3633 1.0186 105
-12.218800000000002 -3.0566000000000004 1.6143 139
-11.773399999999999 -2.9473000000000003 1.8447 192
-12.3203 -3.082 -0.1476 133
-11.875 -2.9726999999999997 2.1523 149
-12.375 -3.0526999999999997 0.1482 52
-12.351600000000001 -3.0449 0.4424 21
-6.171900000000001 -1.5215 -0.812 223
-12.343800000000002 -3.043 0.7368000000000001 60
-6.113300000000001 -1.5068000000000001 -0.6572 154
-12.375 -3.0507999999999997 1.0371 133
-9.5 -2.3418 1.0234 44
-6.3477 -1.5644999999999998 -0.37770000000000004 250
-12.210899999999999 -3.0117000000000003 1.6122999999999998 147
-11.789100000000001 -2.9082 1.8457 158
-12.3281 -3.0410000000000004 -0.1476 160
-11.8125 -2.9120999999999997 2.1387 94
-3.2051 -0.7783 -0.5742 61
-12.375 -3.0058999999999996 0.1479 213
-3.5605 -0.8647 -0.5522 85
-12.335899999999999 -2.9961 0.44170000000000004 64
-6.1797 -1.501 -0.8125 176
-12.3672 -3.0039 0.7378 244
-6.105499999999999 -1.4824000000000002 -0.6557999999999999 16
-12.375 -3.0058999999999996 1.0371 150
-9.5391 -2.3184 1.0273 48
-6.3515999999999995 -1.5430000000000001 -0.37770000000000004 69
-12.2344 -2.9707 1.6143 251
-11.8281 -2.873 1.8496000000000001 251
-12.343800000000002 -2.9961 -0.1476 124
-9.1953 -2.2324 1.6611000000000002 164
-12.406199999999998 -2.9668 0.1482 118
-3.5625 -0.8521 -0.5522 250
-12.3594 -2.9551 0.44189999999999996 149
-6.167999999999999 -1.4756 -0.8105 137
-12.3906 -2.9629000000000003 0.7383 62
-6.113300000000001 -1.4619 -0.6562 198
-12.4375 -2.9745999999999997 1.041 80
-6.175800000000001 -1.4775 -0.5151 83
-12.3672 -2.957 1.3311000000000002 107
-6.3477 -1.5186000000000002 -0.377 175
-9.6562 -2.3105 1.2725 92
-7.1836 -1.7178 -0.2561 145
-9.6562 -2.3086 1.5078 176
-12.351600000000001 -2.9531 -0.1476 246
-9.1953 -2.1992 1.6591999999999998 57
-3.2108999999999996 -0.7563 -0.5742 200
-12.4375 -2.9276999999999997 0.14859999999999998 207
-3.5664 -0.8398 -0.5522 60
-12.406199999999998 -2.9219 0.4434 92
-6.171900000000001 -1.4531 -0.8101 51
-12.4297 -2.9276999999999997 0.7402 89
-6.1289 -1.4434 -0.6572 198
-12.5547 -2.957 1.0498 12
-6.203099999999999 -1.46 -0.5166 105
-12.4453 -2.9316000000000004 1.3397999999999999 89
-6.3477 -1.4941 -0.37670000000000003 78
-9.6484 -2.2715 1.2695 94
-7.1875 -1.6924000000000001 -0.2561 89
-9.6641 -2.2754 1.5068000000000001 61
-12.3594 -2.9101999999999997 -0.1476 248
-9.2109 -2.168 1.6611000000000002 19
-3.2148000000000003 -0.7451000000000001 -0.5742 104
-3.5683999999999996 -0.8271 -0.5522 62
-12.468800000000002 -2.8906 0.44530000000000003 252
-6.175800000000001 -1.4316 -0.8101 186
-12.531199999999998 -2.9043 0.7461 127
-6.136699999999999 -1.4228999999999998 -0.6577 199
-13.4922 -3.127 1.1279000000000001 10
-6.230499999999999 -1.4443000000000001 -0.5186 192
-13.5 -3.1289 1.4521000000000002 181
-6.3398 -1.4697 -0.376 215
-9.6641 -2.2383 1.2705 26
-7.332000000000001 -1.6991999999999998 -0.261 4
-9.6641 -2.2402 1.5068000000000001 52
-12.414100000000001 -2.877 -0.1481 113
-11.773399999999999 -2.7285000000000004 2.123 113
-13.4531 -3.0702999999999996 0.1605 153
-3.5723000000000003 -0.8149 -0.5522 182
-13.476600000000001 -3.0742000000000003 0.48100000000000004 57
-6.1836 -1.4111000000000002 -0.8105 174
-13.476600000000001 -3.0742000000000003 0.8018000000000001 114
-6.140599999999999 -1.4003999999999999 -0.6572 244
-13.468800000000002 -3.0723000000000003 1.125 190
-6.296900000000001 -1.4365 -0.5239 26
-13.5 -3.0801 1.4502000000000002 23
-6.355499999999999 -1.4502000000000002 -0.37670000000000003 188
-9.6641 -2.2051 1.2695 36
-7.4688 -1.7041 -0.2656 30
-9.7109 -2.2148 1.5116999999999998 217
-9.5859 -2.1855 1.7256 59
-3.2188 -0.7236 -0.5742 49
-13.5 -3.0351999999999997 0.1609 61
-3.6132999999999997 -0.812 -0.5581 230
-13.468800000000002 -3.0293 0.4805 188
-6.1875 -1.3916 -0.8105 131
-13.4922 -3.0332 0.8018000000000001 163
-6.1640999999999995 -1.3857 -0.6592 70
-13.4531 -3.0254000000000003 1.123 84
-13.4922 -3.0332 1.4491999999999998 8
-6.3711 -1.4325999999999999 -0.3772 181
-12.2344 -2.752 1.6084 180
-7.6523 -1.7207 -0.2722 112
-11.9531 -2.6875 1.8613 164
-13.4531 -3.0254000000000003 -0.1604 209
-9.5859 -2.1543 1.7246000000000001 162
-3.2207 -0.7129000000000001 -0.5742 129
-13.4844 -2.9844 0.1606 103
-13.4531 -2.9785000000000004 0.47950000000000004 192
-6.171900000000001 -1.3662 -0.8076000000000001 38
-13.476600000000001 -2.9824 0.8003 151
-13.4844 -2.9844 1.124 22
-13.4922 -2.9863 1.4472999999999998 220
-12.2422 -2.7089999999999996 1.6074000000000002 84
-7.671900000000001 -1.6982 -0.2727 90
-9.8438 -2.1797 1.5312000000000001 178
-13.4531 -2.9766000000000004 -0.1602 44
-9.6016 -2.125 1.7266 35
-3.2245999999999997 -0.7001999999999999 -0.5742 117
-13.4922 -2.9297000000000004 0.1605 192
-13.460899999999999 -2.9219 0.479 153
-6.1640999999999995 -1.3388999999999998 -0.8062 82
-13.476600000000001 -2.9257999999999997 0.7998000000000001 226
-6.292999999999999 -1.3662 -0.6724 30
-13.476600000000001 -2.9257999999999997 1.123 226
-13.476600000000001 -2.9257999999999997 1.4443000000000001 55
-12.226600000000001 -2.6562 1.6044999999999998 50
-13.476600000000001 -2.9257999999999997 -0.4797 35
-9.8906 -2.1465 1.5371000000000001 42
-13.4375 -2.918 -0.15990000000000001 188
-9.5859 -2.0801 1.7216999999999998 76
-3.2266000000000004 -0.688 -0.5742 81
-13.4844 -2.877 0.1604 6
-3.6797000000000004 -0.7847 -0.5674 146
-13.460899999999999 -2.8711 0.479 120
-6.1640999999999995 -1.3154 -0.8057 198
-13.468800000000002 -2.873 0.7988 222
-6.2578 -1.334 -0.6679999999999999 102
-13.460899999999999 -2.8711 1.1211 87
-13.468800000000002 -2.873 1.4434 119
-12.2344 -2.6094 1.6035 92
-13.5 -2.8789 -0.4802 89
-12.0625 -2.5723000000000003 1.874 17
-13.4531 -2.8691000000000004 -0.16 89
-9.8828 -2.1074 1.7744 87
-13.375 -2.8066000000000004 0.1589 214
-13.460899999999999 -2.8242000000000003 0.47850000000000004 189
-6.171900000000001 -1.2949000000000002 -0.8062 200
-13.460899999999999 -2.8242000000000003 0.7979 108
-6.2539 -1.3125 -0.667 239
-13.468800000000002 -2.8262 1.1201 94
-13.4844 -2.8281 1.4434 90
-12.226600000000001 -2.5664 1.6016 4
-13.476600000000001 -2.8281 -0.479 193
-12.0781 -2.5332 1.875 52
-13.468800000000002 -2.8262 -0.16 45
-9.8203 -2.0605 1.7616999999999998 194
-13.3672 -2.7558999999999996 0.15869999999999998 234
-3.6426 -0.7509999999999999 -0.5605 188
-13.4531 -2.7754000000000003 0.478 117
-6.1797 -1.2734 -0.8062 108
-13.4922 -2.7832 0.7988 124
-6.2578 -1.29 -0.667 206
-13.5078 -2.7851999999999997 1.123 190
-13.4844 -2.7793 1.4424000000000001 4
-12.2422 -2.5234 1.6025 172
-13.460899999999999 -2.7754000000000003 -0.478 120
-12.0781 -2.4902 1.874 95
-13.476600000000001 -2.7773000000000003 -0.16 92
-11.7578 -2.4238 2.1094 231
-13.375 -2.7129000000000003 0.15869999999999998 58
-3.6601999999999997 -0.7426999999999999 -0.563 210
-13.5 -2.7401999999999997 0.4792 99
-6.1797 -1.2539 -0.8057 38
-13.539100000000001 -2.748 0.8012999999999999 78
-6.2773 -1.2744 -0.6689 219
-13.5547 -2.75 1.126 10
-13.476600000000001 -2.7344 1.4404 232
-12.25 -2.4863 1.6025 227
-13.460899999999999 -2.7305 -0.4778 88
-12.093800000000002 -2.4531 1.875 252
-13.4531 -2.7305 -0.1597 85
-11.7578 -2.3848 2.1074 50
-13.375 -2.668 0.1586 76
-3.6620999999999997 -0.7304999999999999 -0.563 44
-13.5547 -2.7031 0.48100000000000004 99
-6.167999999999999 -1.2305 -0.8031999999999999 86
-13.5781 -2.7089999999999996 0.8027 61
-6.2852 -1.2539 -0.6689 191
-13.5781 -2.7089999999999996 1.1279000000000001 39
-6.296900000000001 -1.2559 -0.521 252
-13.460899999999999 -2.6855 1.4385 226
-12.2578 -2.4453 1.6025 61
-13.468800000000002 -2.6855 -0.4778 227
-12.085899999999999 -2.4121 1.8730000000000002 83
-13.4375 -2.6797000000000004 -0.1593 231
-11.7656 -2.3457 2.1074 185
-3.2382999999999997 -0.6328 -0.5742 203
-13.375 -2.6132999999999997 0.15839999999999999 204
-3.6933999999999996 -0.7217 -0.5674 159
-13.5781 -2.6543 0.48119999999999996 28
-6.167999999999999 -1.2061 -0.8031999999999999 4
-13.5703 -2.6523000000000003 0.8018000000000001 102
-6.265599999999999 -1.2246 -0.6665000000000001 80
-13.601600000000001 -2.6582 1.1289 156
-6.3047 -1.2324 -0.521 91
-13.460899999999999 -2.6308999999999996 1.4365 194
-12.2422 -2.3926 1.5986000000000002 52
-13.4844 -2.6348000000000003 -0.4778 209
-12.101600000000001 -2.3652 1.874 5
-13.4531 -2.6289 -0.1594 238
-11.75 -2.2969 2.1035 64
-3.2401999999999997 -0.6215999999999999 -0.5742 47
-13.3672 -2.5645 0.1583 80
-3.7226999999999997 -0.7139 -0.5713 27
-13.5703 -2.6035000000000004 0.48100000000000004 171
-6.171900000000001 -1.1836 -0.8027 14
-13.585899999999999 -2.6074 0.8022 162
-6.300800000000001 -1.209 -0.6698999999999999 30
-13.585899999999999 -2.6074 1.126 92
-6.3086 -1.2109 -0.521 217
-13.476600000000001 -2.5839999999999996 1.4375 85
-12.2422 -2.3477 1.5977000000000001 116
-13.4531 -2.582 -0.47659999999999997 157
-11.9531 -2.293 1.8486000000000002 23
-13.4531 -2.5801 -0.1593 50
-11.773399999999999 -2.2578 2.1055 130
-3.293 -0.6201 -0.5835 177
-13.375 -2.5195 0.1583 196
-3.7207 -0.7012 -0.5708 247
-13.5703 -2.5566 0.4802 101
-6.1836 -1.165 -0.8042 21
-13.593800000000002 -2.5625 0.8022 81
-6.3438 -1.1953 -0.6738 29
-13.5781 -2.5586 1.125 226
-6.300800000000001 -1.1875 -0.52 111
-13.468800000000002 -2.5371 1.4355000000000002 134
-12.2422 -2.3066 1.5977000000000001 172
-13.460899999999999 -2.5352 -0.47659999999999997 26
-11.8594 -2.2344 1.834 115
-13.4453 -2.5332 -0.1592 237
-11.781199999999998 -2.2188 2.1055 32
-13.3906 -2.4766 0.1583 55
-3.6992000000000003 -0.6846 -0.5674 24
-13.5625 -2.5078 0.4797 198
-6.171900000000001 -1.1416 -0.8022 187
-13.601600000000001 -2.5156 0.8022 146
-6.296900000000001 -1.165 -0.6685 29
-13.585899999999999 -2.5137 1.125 26
-6.292999999999999 -1.1641 -0.519 213
-13.460899999999999 -2.4902 1.4346 191
-12.2578 -2.2676 1.5986000000000002 153
-13.4531 -2.4883 -0.47609999999999997 233
-11.843800000000002 -2.1914 1.8300999999999998 46
-13.4375 -2.4863 -0.1589 83
-11.7656 -2.1758 2.1016 113
-13.414100000000001 -2.4297 0.15839999999999999 190
-3.7031 -0.6709 -0.5674 203
-13.5625 -2.457 0.47950000000000004 32
-6.171900000000001 -1.1181999999999999 -0.8018000000000001 89
-13.5781 -2.4609 0.8003 112
-6.3515999999999995 -1.1514 -0.6738 30
-13.585899999999999 -2.4609 1.124 228
-6.300800000000001 -1.1416 -0.5195000000000001 221
-13.468800000000002 -2.4395 1.4336000000000002 124
-12.25 -2.2207 1.5957 19
-13.468800000000002 -2.4395 -0.47609999999999997 104
-11.843800000000002 -2.1465 1.8291 208
-13.4375 -2.4336 -0.1588 147
-11.781199999999998 -2.1348 2.1035 248
-13.4219 -2.3828 0.15839999999999999 100
-3.6738 -0.6523 -0.5625 252
-13.5703 -2.4102 0.47950000000000004 173
-6.171900000000001 -1.0967 -0.8012999999999999 143
-13.5703 -2.4102 0.7993000000000001 19
-6.355499999999999 -1.1289 -0.6738 144
-13.585899999999999 -2.4121 1.123 197
-6.324199999999999 -1.123 -0.521 24
-13.460899999999999 -2.3906 1.4325999999999999 47
-12.2422 -2.1738 1.5937999999999999 71
-13.468800000000002 -2.3926 -0.4758 183
-12.023399999999999 -2.1348 1.8555000000000001 50
-13.4375 -2.3867 -0.15869999999999998 178
-11.75 -2.0859 2.0977 127
-13.406199999999998 -2.332 0.1582 93
-3.6952999999999996 -0.6431 -0.5654 59
-13.5703 -2.3613 0.4792 142
-6.175800000000001 -1.0742 -0.8008 214
-13.5781 -2.3613 0.7988 172
-6.359400000000001 -1.1064 -0.6738 186
-13.5781 -2.3613 1.1220999999999999 188
-6.3359000000000005 -1.1025 -0.5215 155
-13.5 -2.3477 1.4355000000000002 5
-12.2422 -2.1309 1.5928 68
-13.460899999999999 -2.3418 -0.47509999999999997 240
-12.125 -2.1094 1.8700999999999999 196
-13.4375 -2.3379 -0.1586 127
-11.7656 -2.0469 2.0977 209
-13.4297 -2.2891 0.15839999999999999 47
-3.7089999999999996 -0.6318 -0.5674 237
-13.5547 -2.3105 0.47850000000000004 136
-6.1836 -1.0537 -0.8018000000000001 30
-13.585899999999999 -2.3145 0.7988 173
-6.363300000000001 -1.085 -0.6738 92
-13.5781 -2.3125 1.1211 91
-6.332000000000001 -1.0791 -0.521 239
-13.5 -2.3008 1.4346 246
-7.425800000000001 -1.2656 -0.4355 212
-12.2344 -2.084 1.5908000000000002 205
-13.4531 -2.293 -0.47490000000000004 131
-12.1172 -2.0645 1.8672 26
-13.4531 -2.293 -0.15869999999999998 112
-11.7578 -2.0039 2.0957 131
-13.4453 -2.2402 0.15839999999999999 209
-3.7656 -0.6274000000000001 -0.5757 8
-13.5469 -2.2578 0.4778 41
-6.1797 -1.0293 -0.8003 167
-13.5781 -2.2617 0.7983 94
-6.328099999999999 -1.0547 -0.6698999999999999 85
-13.5703 -2.2598 1.1201 155
-13.5078 -2.25 1.4346 229
-7.542999999999999 -1.2568000000000001 -0.4421 223
-12.2578 -2.043 1.5937999999999999 31
-13.4531 -2.2402 -0.4744 160
-12.101600000000001 -2.0156 1.8643 103
-13.4297 -2.2383 -0.1583 197
-11.7656 -1.9609 2.0957 233
-13.468800000000002 -2.1953 0.15869999999999998 232
-3.748 -0.6113000000000001 -0.5728 92
-13.5547 -2.209 0.4778 151
-6.167999999999999 -1.0059 -0.7983 134
-13.5469 -2.209 0.7959 229
-6.2734000000000005 -1.0225 -0.6636 116
-13.5703 -2.2129 1.1201 104
-13.5 -2.2012 1.4325999999999999 244
-7.7188 -1.2578 -0.4521 93
-12.2578 -1.999 1.5928 204
-13.460899999999999 -2.1953 -0.4746 93
-12.101600000000001 -1.9736000000000002 1.8633000000000002 77
-13.4219 -2.1875 -0.15810000000000002 19
-11.773399999999999 -1.9188999999999998 2.0957 71
-13.4297 -2.1465 0.1582 85
-3.8516000000000004 -0.6157 -0.5884 144
-13.5547 -2.166 0.4775 243
-6.1797 -0.9878 -0.7993000000000001 153
-13.531199999999998 -2.1621 0.7944 129
-6.2539 -1.0 -0.6611 9
-13.531199999999998 -2.1621 1.1162 220
-6.644500000000001 -1.0625 -0.5459 247
-13.460899999999999 -2.1504 1.4277000000000002 136
-7.7188 -1.2334 -0.45189999999999997 1
-12.2656 -1.96 1.5928 136
-13.468800000000002 -2.1523 -0.4744 76
-12.1094 -1.9355000000000002 1.8633000000000002 52
-13.4297 -2.1465 -0.15810000000000002 114
-11.75 -1.8779 2.0918 214
-13.4375 -2.1016 0.15810000000000002 134
-3.7754000000000003 -0.5908 -0.5761999999999999 184
-13.5078 -2.1133 0.4756 14
-6.175800000000001 -0.9658 -0.7983 86
-13.4531 -2.1055 0.7896 20
-6.269500000000001 -0.9804999999999999 -0.6620999999999999 181
-13.4453 -2.1035 1.1084 100
-13.4531 -2.1035 1.4268 184
-7.730499999999999 -1.209 -0.4526 54
-12.25 -1.9169999999999998 1.5897999999999999 16
-13.460899999999999 -2.1055 -0.4739 124
-12.1172 -1.8955000000000002 1.8643 212
-13.4375 -2.1016 -0.15810000000000002 161
-11.7422 -1.8369 2.0898 233
-13.4375 -2.0508 0.15810000000000002 246
-3.7773000000000003 -0.5767 -0.5761999999999999 197
-13.4297 -2.0508 0.4727 29
-6.1875 -0.9443 -0.7993000000000001 86
-13.4453 -2.0527 0.7890999999999999 95
-6.2461 -0.9536 -0.6597 87
-13.4375 -2.0508 1.1064 217
-13.468800000000002 -2.0566 1.4268 127
-13.4453 -2.0527 -0.7886 207
-12.2656 -1.8721 1.5897999999999999 14
-13.4453 -2.0527 -0.4731 148
-12.1094 -1.8486000000000002 1.8613 176
-13.4375 -2.0508 -0.15810000000000002 141
-11.7656 -1.7959 2.0918 181
-3.3613 -0.501 -0.5918 72
-13.4297 -2.002 0.1578 242
-3.8574 -0.5752 -0.5884 211
-13.4219 -2.0 0.4719 42
-6.1797 -0.9209 -0.7979 160
-13.4375 -2.0039 0.7881 71
-6.269500000000001 -0.9346 -0.6616 117
-13.4375 -2.0039 1.1064 43
-13.4375 -2.0039 1.4238 145
-13.460899999999999 -2.0078 -0.7896 223
-12.273399999999999 -1.8300999999999998 1.5908000000000002 170
-13.4453 -2.0039 -0.4729 32
-12.101600000000001 -1.8037 1.8594 39
-13.4297 -2.002 -0.1578 224
-11.7656 -1.7538999999999998 2.0898 138
-13.4453 -1.9512 0.158 151
-3.8613 -0.5605 -0.5884 181
-13.4375 -1.9512 0.47240000000000004 213
-6.1797 -0.897 -0.7974 25
-13.4375 -1.9512 0.7876000000000001 23
-6.269500000000001 -0.9106000000000001 -0.6616 74
-13.4453 -1.9512 1.1055 29
-13.4453 -1.9512 1.4228999999999998 168
-13.539100000000001 -1.9658000000000002 -0.7935 219
-12.289100000000001 -1.7841999999999998 1.5918 181
-13.468800000000002 -1.9550999999999998 -0.47340000000000004 251
-12.1094 -1.7578 1.8584 111
-13.4297 -1.9491999999999998 -0.1578 29
-11.7422 -1.7050999999999998 2.0859 175
-3.4551 -0.4888 -0.6079 7
-13.4219 -1.8984 0.1577 144
-3.8906 -0.5503 -0.5928 69
-13.4375 -1.9003999999999999 0.4719 132
-6.1836 -0.8745 -0.7979 179
-13.4297 -1.8994 0.7866 150
-6.269500000000001 -0.8867 -0.6611 187
-13.4453 -1.9022999999999999 1.1055 170
-7.0586 -0.998 -0.5786 224
-13.4297 -1.8994 1.4209 53
-13.468800000000002 -1.9053 -0.7886 97
-12.273399999999999 -1.7353999999999998 1.5888999999999998 151
-12.1172 -1.7138999999999998 1.8594 186
-13.4297 -1.8994 -0.1577 88
-11.75 -1.6611000000000002 2.084 105
-13.4297 -1.8594 0.1577 81
-3.8906 -0.5386 -0.5928 64
-13.4375 -1.8594 0.4719 90
-6.1875 -0.8564 -0.7979 5
-13.4375 -1.8594 0.7866 198
-6.2539 -0.8656999999999999 -0.6592 115
-13.4297 -1.8594 1.1035 225
-6.886699999999999 -0.9531000000000001 -0.5645 41
-13.4453 -1.8613 1.4219 105
-13.4219 -1.8574000000000002 -0.7856000000000001 15
-12.2578 -1.6963 1.5869 60
-12.125 -1.6777000000000002 1.8594 14
-13.4375 -1.8594 -0.1577 112
-11.7578 -1.6269999999999998 2.0859 173
-13.4219 -1.8125 0.1575 69
-3.9043 -0.5273 -0.5942000000000001 82
-13.4297 -1.8135 0.4714 145
-6.1953 -0.8364 -0.7983 214
-13.4297 -1.8135 0.7861 109
-6.265599999999999 -0.8462000000000001 -0.6602 198
-13.4297 -1.8135 1.1035 130
-6.949199999999999 -0.9384999999999999 -0.5693 171
-12.5078 -1.6894999999999998 1.3222999999999998 203
-13.4297 -1.8135 -0.7861 246
-12.273399999999999 -1.6572 1.5869 9
-13.4375 -1.8144999999999998 -0.4717 34
-12.1172 -1.6366999999999998 1.8584 237
-13.4375 -1.8144999999999998 -0.1577 131
-11.7656 -1.5888999999999998 2.0859 146
-13.4375 -1.7627000000000002 0.1576 244
-3.998 -0.5239 -0.6084 158
-13.4219 -1.7597999999999998 0.4707 213
-6.1875 -0.8109999999999999 -0.7968999999999999 254
-12.523399999999999 -1.6416 0.7319 192
-6.2852 -0.8242 -0.6616 118
-12.4922 -1.6377000000000002 1.0254 233
-7.125 -0.9340999999999999 -0.583 177
-12.5156 -1.6406 1.3222999999999998 136
-13.4375 -1.7616999999999998 -0.7856000000000001 194
-12.273399999999999 -1.6094 1.5869 200
-13.4453 -1.7627000000000002 -0.4717 203
-12.101600000000001 -1.5869 1.8544999999999998 96
-13.4375 -1.7616999999999998 -0.1576 237
-11.7578 -1.5419999999999998 2.084 244
-12.5547 -1.6016 0.1471 47
-4.1055 -0.5234000000000001 -0.6245 37
-12.5 -1.5947 0.4382 201
-6.175800000000001 -0.7881 -0.7954000000000001 198
-12.5078 -1.5957 0.731 133
-6.2852 -0.8018000000000001 -0.6616 115
-12.5078 -1.5957 1.0264 57
-7.269500000000001 -0.9272 -0.5947 8
-12.4844 -1.5928 1.3184 212
-13.4219 -1.7128999999999999 -0.7847 3
-12.273399999999999 -1.5654 1.5859 10
-12.5703 -1.6035 -0.4407 139
-12.085899999999999 -1.5419999999999998 1.8516 183
-12.476600000000001 -1.5918 -0.1462 162
-11.7578 -1.5 2.082 8
-12.5156 -1.5518 0.1466 215
-4.0898 -0.5073 -0.6221 187
-12.5078 -1.5518 0.4385 161
-6.1875 -0.7676000000000001 -0.7964 74
-12.468800000000002 -1.5469 0.7284999999999999 120
-6.261699999999999 -0.7764 -0.6587000000000001 138
-12.4453 -1.5430000000000001 1.0205 108
-7.324199999999999 -0.9081999999999999 -0.5991 196
-12.343800000000002 -1.5312000000000001 1.3027000000000002 63
-12.4922 -1.5488 -0.7295 39
-12.2656 -1.5215 1.584 173
-12.531199999999998 -1.5537 -0.43920000000000003 77
-11.8828 -1.4736000000000002 1.8193000000000001 249
-12.4922 -1.5497999999999998 -0.1464 78
-11.7344 -1.4561000000000002 2.0781 97
-12.476600000000001 -1.5038999999999998 0.1461 219
-4.0977 -0.49369999999999997 -0.6225999999999999 41
-12.343800000000002 -1.4872999999999998 0.4324 250
-6.199199999999999 -0.7465999999999999 -0.7974 9
-12.3281 -1.4853999999999998 0.7197 196
-6.269500000000001 -0.7554000000000001 -0.6592 226
-12.343800000000002 -1.4872999999999998 1.0117 207
-12.351600000000001 -1.4883000000000002 1.3027000000000002 255
-12.4922 -1.5049000000000001 -0.7295 77
-12.2578 -1.4766 1.5819999999999999 81
-12.468800000000002 -1.5019999999999998 -0.4368 13
-11.8828 -1.4316 1.8184 250
-11.75 -1.416 2.0801 70
-12.3672 -1.4463 0.1448 239
-4.1172 -0.4817 -0.6255 63
-12.3125 -1.4394999999999998 0.43090000000000006 128
-6.1953 -0.7245999999999999 -0.7968999999999999 118
-12.3047 -1.4394999999999998 0.7182999999999999 131
-6.2852 -0.7349 -0.6606000000000001 81
-12.2969 -1.4385 1.0078 132
-12.3047 -1.4394999999999998 1.2978999999999998 10
-12.3594 -1.4453 -0.7212000000000001 246
-12.2656 -1.4346 1.5830000000000002 158
-12.335899999999999 -1.4424000000000001 -0.43189999999999995 207
-11.8828 -1.3896000000000002 1.8184 88
-12.2969 -1.4375 -0.1438 228
-11.7578 -1.375 2.0801 135
-3.4688 -0.3933 -0.6079 206
-12.335899999999999 -1.3984 0.14429999999999998 89
-6.1562 -0.6981999999999999 -0.938 60
-12.281199999999998 -1.3925999999999998 0.42969999999999997 199
-6.199199999999999 -0.7031000000000001 -0.7968999999999999 175
-12.2969 -1.3944999999999999 0.7178 235
-6.296900000000001 -0.7143999999999999 -0.6616 16
-12.3047 -1.3955000000000002 1.0078 234
-12.2969 -1.3944999999999999 1.2959 52
-12.3047 -1.3955000000000002 -0.7178 113
-12.2656 -1.3906 1.5819999999999999 242
-12.3047 -1.3955000000000002 -0.4307 44
-11.968800000000002 -1.3574000000000002 1.8300999999999998 78
-12.273399999999999 -1.3916 -0.1436 79
-11.75 -1.3330000000000002 2.0781 167
-3.4688 -0.3818 -0.6079 213
-12.3125 -1.3555000000000001 0.1439 210
-6.1562 -0.6772 -0.938 73
-12.281199999999998 -1.3516 0.42969999999999997 146
-6.1914 -0.6812 -0.7959 149
-12.289100000000001 -1.3525 0.7168000000000001 244
-6.3086 -0.6938 -0.6620999999999999 199
-12.335899999999999 -1.3574000000000002 1.0098 36
-7.2265999999999995 -0.7954000000000001 -0.5903 211
-12.3047 -1.3535 1.2959 187
-12.273399999999999 -1.3506 -0.7158 237
-12.2656 -1.3496000000000001 1.5819999999999999 10
-12.289100000000001 -1.3525 -0.4299 85
-12.1094 -1.3319999999999999 1.8506 220
-12.2578 -1.3486000000000002 -0.1433 19
-11.75 -1.2930000000000001 2.0762 250
-3.4707 -0.3704 -0.6079 38
-12.3125 -1.3135 0.1439 3
-6.1602 -0.6572 -0.9384999999999999 208
-12.2969 -1.3115 0.4299 148
-6.1953 -0.6611 -0.7959 159
-12.3125 -1.3135 0.7178 144
-6.3047 -0.6729 -0.6620999999999999 135
-12.343800000000002 -1.3174000000000001 1.0107 40
-7.140599999999999 -0.7617 -0.583 31
-12.3594 -1.3184 1.3018 48
-12.273399999999999 -1.3096 -0.7158 176
-12.2578 -1.3075999999999999 1.5800999999999998 88
-12.3047 -1.3125 -0.4304 140
-12.1094 -1.2919999999999998 1.8506 93
-12.281199999999998 -1.3096 -0.1434 123
-11.7344 -1.252 2.0723 117
-3.4882999999999997 -0.3586 -0.6108 23
-12.3281 -1.2676 0.14400000000000002 227
-6.1602 -0.6333 -0.938 208
-12.3281 -1.2676 0.43119999999999997 70
-6.207000000000001 -0.6382 -0.7968999999999999 9
-12.3281 -1.2676 0.7182999999999999 5
-6.3047 -0.6479 -0.6616 27
-12.3906 -1.2744 1.0137 136
-7.167999999999999 -0.7368000000000001 -0.585 16
-12.398399999999999 -1.2754 1.3056999999999999 177
-12.281199999999998 -1.2627 -0.7158 27
-12.25 -1.2598 1.5781 145
-12.2969 -1.2646 -0.4299 153
-12.125 -1.2461 1.8516 70
-12.281199999999998 -1.2627 -0.1434 250
-11.7344 -1.207 2.0742 246
-3.4492000000000003 -0.3425 -0.604 246
-12.3672 -1.2275 0.1444 110
-6.1523 -0.6108 -0.9359999999999999 84
-12.3672 -1.2275 0.4321 72
-6.2109000000000005 -0.6167 -0.7974 135
-12.3828 -1.2295 0.7212000000000001 30
-6.332000000000001 -0.6284000000000001 -0.6640999999999999 73
-12.4922 -1.2402 1.0225 156
-7.203099999999999 -0.7153 -0.5879 74
-12.4922 -1.2402 1.3144999999999998 103
-12.3125 -1.2227 -0.7173 54
-12.4531 -1.2363 1.6044999999999998 131
-12.3281 -1.2236 -0.4307 119
-12.1094 -1.2021 1.8486000000000002 97
-12.3203 -1.2236 -0.1439 71
-11.7422 -1.166 2.0742 146
-3.5137 -0.33759999999999996 -0.6147 76
-12.4531 -1.1973 0.1454 155
-6.1562 -0.5918 -0.937 74
-12.4375 -1.1953 0.4346 175
-6.207000000000001 -0.5967 -0.7964 8
-12.5 -1.2021 0.728 62
-6.3359000000000005 -0.6093999999999999 -0.6646 80
-12.5078 -1.2021 1.0225 178
-7.2734000000000005 -0.6992 -0.5932999999999999 225
-12.5156 -1.2031 1.3163999999999998 41
-12.351600000000001 -1.1865 -0.7192000000000001 89
-12.351600000000001 -1.1865 1.5897999999999999 224
-12.3672 -1.1885 -0.43189999999999995 45
-12.101600000000001 -1.1631 1.8466999999999998 187
-12.3672 -1.1885 -0.1444 162
-11.7422 -1.1289 2.0742 139
-3.5214999999999996 -0.3267 -0.6162 172
-12.5078 -1.1611 0.146 80
-6.1640999999999995 -0.5718 -0.9375 240
-12.4922 -1.1592 0.4363 189
-6.207000000000001 -0.5757 -0.7964 38
-12.4922 -1.1592 0.7275 176
-6.355499999999999 -0.5893999999999999 -0.6659999999999999 81
-12.5 -1.1592 1.0215 242
-7.324199999999999 -0.6792 -0.5972 155
-12.4922 -1.1582 1.3135 184
-12.4453 -1.1543 -0.7245999999999999 18
-12.476600000000001 -1.1572 1.6063999999999998 58
-12.4844 -1.1582 -0.436 165
-12.1953 -1.1318000000000001 1.8613 44
-12.460899999999999 -1.1562000000000001 -0.14550000000000002 84
-11.726600000000001 -1.0879 2.0703 168
-3.4882999999999997 -0.31079999999999997 -0.6099 152
-12.5 -1.1133 0.1459 194
-6.175800000000001 -0.5503 -0.9390000000000001 45
-12.5 -1.1133 0.4363 247
-6.2109000000000005 -0.5532 -0.7968999999999999 13
-12.4844 -1.1123 0.7265999999999999 105
-6.375 -0.5679 -0.6679999999999999 183
-12.5078 -1.1143 1.0215 43
-7.3477 -0.6543000000000001 -0.5986 39
-12.5 -1.1133 1.3144999999999998 97
-12.468800000000002 -1.1113 -0.7256 3
-12.4844 -1.1113 1.6063999999999998 126
-12.523399999999999 -1.1152 -0.43729999999999997 159
-12.343800000000002 -1.0996 1.8838 112
-12.4844 -1.1123 -0.1456 11
-11.726600000000001 -1.0449 2.0684 98
-3.5449 -0.3032 -0.6196 253
-12.5078 -1.0703 0.1459 154
-6.1640999999999995 -0.5273 -0.937 123
-12.4922 -1.0684 0.436 167
-6.2188 -0.5322 -0.7974 167
-12.4844 -1.0684 0.7261 123
-6.3789 -0.5454 -0.6679999999999999 43
-12.4922 -1.0684 1.0205 26
-7.375 -0.6309 -0.6011 204
-12.4844 -1.0674 1.3125 145
-12.476600000000001 -1.0674 -0.7256 162
-12.468800000000002 -1.0674 1.6044999999999998 216
-12.5 -1.0693000000000001 -0.4363 232
-12.343800000000002 -1.0566 1.8828 120
-12.4922 -1.0693000000000001 -0.1458 53
-11.7344 -1.0039 2.0703 71
-3.5370999999999997 -0.2903 -0.6187 27
-12.5 -1.0254 0.1458 108
-6.171900000000001 -0.5063 -0.938 251
-12.4844 -1.0244 0.4355 92
-6.234400000000001 -0.5117 -0.7993000000000001 211
-12.468800000000002 -1.0225 0.7251000000000001 121
-6.417999999999999 -0.5264 -0.6724 146
-12.4453 -1.0205 1.0166 219
-12.5156 -1.0264 -1.0225 251
-12.4453 -1.0215 1.3075999999999999 224
-12.4844 -1.0244 -0.7261 232
-12.4219 -1.0195 1.5986000000000002 13
-12.4844 -1.0244 -0.43579999999999997 79
-12.343800000000002 -1.0127 1.8818000000000001 200
-12.4844 -1.0244 -0.1456 190
-11.7344 -0.9629000000000001 2.0684 80
-3.5938 -0.2822 -0.6279 60
-12.468800000000002 -0.9790000000000001 0.1454 185
-6.171900000000001 -0.48460000000000003 -0.9375 139
-12.4219 -0.9751000000000001 0.43310000000000004 136
-12.476600000000001 -0.9795 0.7256 171
-6.4375 -0.5054 -0.6743000000000001 16
-12.476600000000001 -0.9795 1.0186 5
-12.460899999999999 -0.9784999999999999 -1.0176 224
-12.5 -0.9814 1.3125 82
-12.4531 -0.9775 -0.7241 223
-12.468800000000002 -0.9795 1.6035 242
-12.4531 -0.9775 -0.4343 190
-12.335899999999999 -0.9688 1.8799000000000001 204
-12.4297 -0.9761 -0.1449 10
-11.726600000000001 -0.9209 2.0664 98
-3.6776999999999997 -0.2759 -0.6426000000000001 17
-12.4922 -0.9375 0.1456 29
-6.1914 -0.4644 -0.9399 90
-12.4844 -0.9365000000000001 0.4353 17
-12.4922 -0.937 0.7261 133
-6.4648 -0.4851 -0.6768000000000001 62
-12.4922 -0.937 1.0195 115
-12.4453 -0.9336 -1.0156 43
-12.476600000000001 -0.9359999999999999 1.3105000000000002 61
-12.4531 -0.9340999999999999 -0.7241 191
-12.4844 -0.9365000000000001 1.6044999999999998 84
-12.5 -0.9375 -0.43579999999999997 109
-12.335899999999999 -0.9253 1.8799000000000001 82
-12.468800000000002 -0.9351 -0.14529999999999998 242
-11.7344 -0.8804000000000001 2.0664 66
-3.6035000000000004 -0.2576 -0.6294 67
-12.5 -0.8936 0.1456 218
-6.1953 -0.44310000000000005 -0.9409000000000001 192
-12.5 -0.8936 0.43579999999999997 4
-6.25 -0.447 -0.8008 7
-12.4844 -0.8926000000000001 0.7256 77
-6.4727 -0.4629 -0.6777 144
-12.4922 -0.8931 1.0195 213
-12.4922 -0.8931 -1.0195 232
-12.4844 -0.8931 1.3115 46
-12.468800000000002 -0.8916 -0.7245999999999999 47
-12.468800000000002 -0.8916 1.6025 234
-12.5078 -0.894 -0.436 186
-12.335899999999999 -0.8823000000000001 1.8799000000000001 62
-12.476600000000001 -0.8926000000000001 -0.1454 150
-11.718800000000002 -0.8379000000000001 2.0645 34
-3.6776999999999997 -0.2495 -0.6426000000000001 50
-12.4922 -0.8472 0.14550000000000002 86
-6.1914 -0.4199 -0.9399 252
-12.5 -0.8477 0.4355 4
-6.261699999999999 -0.42460000000000003 -0.8018000000000001 224
-12.4844 -0.8467 0.7256 230
-6.5078 -0.4414 -0.6807 25
-12.4922 -0.8472 1.0186 201
-12.4844 -0.8472 -1.0186 123
-12.4844 -0.8467 1.3105000000000002 132
-12.468800000000002 -0.8456999999999999 -0.7245999999999999 193
-12.460899999999999 -0.8452 1.6016 209
-12.5 -0.8477 -0.4355 244
-12.4297 -0.8432999999999999 1.8936000000000002 10
-12.4922 -0.8472 -0.14550000000000002 110
-11.7422 -0.7964 2.0684 115
-3.6797000000000004 -0.23670000000000002 -0.6426000000000001 57
-12.5 -0.8037000000000001 0.14550000000000002 99
-6.1953 -0.39840000000000003 -0.9399 4
-12.4922 -0.8037000000000001 0.4353 48
-6.265599999999999 -0.4031 -0.8022 203
-12.4844 -0.8027 0.7251000000000001 158
-6.5234000000000005 -0.41969999999999996 -0.6826000000000001 15
-12.476600000000001 -0.8022 1.0176 188
-12.468800000000002 -0.8022 -1.0176 78
-12.5078 -0.8042 1.3125 44
-12.4844 -0.8027 -0.7251000000000001 144
-12.468800000000002 -0.8018000000000001 1.6016 44
-12.4844 -0.8031999999999999 -0.4351 44
-12.4531 -0.8008 1.8955000000000002 95
-12.4844 -0.8031999999999999 -0.1454 168
-12.226600000000001 -0.7866 2.1523 128
-3.7344 -0.2285 -0.6523 222
-12.523399999999999 -0.7656000000000001 0.1458 15
-6.1953 -0.3789 -0.9399 197
-12.4844 -0.7637 0.43479999999999996 180
-6.2539 -0.3823 -0.8003 69
-12.4844 -0.7637 0.7251000000000001 223
-6.5625 -0.4014 -0.6865000000000001 65
-12.4844 -0.7637 1.0186 78
-12.468800000000002 -0.7626999999999999 -1.0166 42
-12.4844 -0.7637 1.3105000000000002 80
-12.4844 -0.7631999999999999 -0.7251000000000001 48
-12.476600000000001 -0.7631999999999999 1.6025 137
-12.4844 -0.7637 -0.43479999999999996 147
-12.4453 -0.7612000000000001 1.8944999999999999 210
-12.468800000000002 -0.7626999999999999 -0.14529999999999998 132
-12.375 -0.7568 2.1797 162
-3.748 -0.2168 -0.6548 229
-12.5078 -0.7236 0.1456 79
-6.207000000000001 -0.3589 -0.9414 3
-12.4844 -0.7222 0.43479999999999996 9
-6.230499999999999 -0.3604 -0.7974 210
-12.4844 -0.7222 0.7251000000000001 101
-6.613300000000001 -0.3826 -0.6919 235
-12.5 -0.7227 1.0186 209
-12.468800000000002 -0.7212000000000001 -1.0166 75
-12.4844 -0.7217 1.3096 121
-12.476600000000001 -0.7217 -0.7245999999999999 239
-12.476600000000001 -0.7217 1.6016 164
-12.4922 -0.7227 -0.4351 23
-12.460899999999999 -0.7206999999999999 1.8965 32
-12.468800000000002 -0.7212000000000001 -0.1451 253
-10.1953 -0.5893999999999999 1.7930000000000001 178
-3.7598000000000003 -0.2036 -0.6567000000000001 69
-12.468800000000002 -0.6753 0.1451 221
-6.2265999999999995 -0.3372 -0.9443 223
-12.4844 -0.6762999999999999 0.43479999999999996 142
-6.234400000000001 -0.33759999999999996 -0.7979 129
-12.468800000000002 -0.6753 0.7241 236
-6.613300000000001 -0.3582 -0.6914 25
-12.4922 -0.6768000000000001 1.0186 74
-12.476600000000001 -0.6758 -1.0166 209
-12.4922 -0.6768000000000001 1.3105000000000002 225
-12.468800000000002 -0.6753 -0.7241 53
-12.468800000000002 -0.6753 1.6006 154
-12.5 -0.6768000000000001 -0.4353 6
-12.468800000000002 -0.6753 1.8975 214
-12.468800000000002 -0.6753 -0.1451 248
-10.1797 -0.5513 1.7891 21
-3.8007999999999997 -0.1925 -0.6636 233
-12.4922 -0.6328 0.1454 72
-6.2109000000000005 -0.3147 -0.9419 135
-12.4844 -0.6323 0.43479999999999996 136
-6.2461 -0.3164 -0.7988 118
-12.4844 -0.6323 0.7245999999999999 125
-6.6562 -0.3372 -0.6958 217
-12.476600000000001 -0.6323 1.0166 225
-12.4844 -0.6323 -1.0176 32
-12.4922 -0.6328 1.3105000000000002 146
-12.468800000000002 -0.6318 -0.7236 195
-12.468800000000002 -0.6313 1.6006 238
-12.4844 -0.6323 -0.43479999999999996 42
-12.4844 -0.6323 1.8994 113
-12.476600000000001 -0.6323 -0.14529999999999998 197
-12.3828 -0.6274000000000001 2.1797 0
-3.8672000000000004 -0.18239999999999998 -0.6753 208
-12.476600000000001 -0.5884 0.1451 157
-6.2227 -0.29350000000000004 -0.9434 11
-12.468800000000002 -0.5879 0.4341 155
-12.4844 -0.5884 0.7241 178
-6.6953 -0.3157 -0.6997 134
-12.468800000000002 -0.5879 1.0156 184
-12.4844 -0.5889 -1.0176 118
-12.4922 -0.5889 1.3096 107
-12.476600000000001 -0.5884 -0.7241 129
-12.468800000000002 -0.5879 1.6006 122
-12.476600000000001 -0.5884 -0.4343 176
-12.468800000000002 -0.5879 1.8975 22
-12.476600000000001 -0.5884 -0.1451 87
-10.2344 -0.4827 1.7988 212
-6.199199999999999 -0.2705 -1.0869 101
-12.4922 -0.5454 0.14529999999999998 136
-6.2265999999999995 -0.2717 -0.9438 87
-12.468800000000002 -0.5444 0.4341 112
-6.2773 -0.2742 -0.8027 71
-12.4922 -0.5454 0.7245999999999999 205
-6.7188 -0.29350000000000004 -0.7026 248
-12.4844 -0.5449 1.0166 240
-12.468800000000002 -0.5444 -1.0166 214
-12.4844 -0.5449 1.3086000000000002 97
-12.476600000000001 -0.5449 -0.7241 3
-12.476600000000001 -0.5449 1.6006 46
-12.4844 -0.5449 -0.4343 227
-12.460899999999999 -0.5439 1.8955000000000002 185
-12.4531 -0.5435 -0.1449 217
-10.2344 -0.4468 1.7988 62
-12.5 -0.502 0.1454 119
-6.2461 -0.251 -0.9468000000000001 175
-12.468800000000002 -0.501 0.4341 101
-6.355499999999999 -0.2554 -0.813 156
-12.4844 -0.5015 0.7241 149
-6.796900000000001 -0.2729 -0.7104 17
-12.4844 -0.5015 1.0166 182
-12.476600000000001 -0.5015 -1.0166 23
-12.4844 -0.5015 1.3086000000000002 136
-12.476600000000001 -0.501 -0.7236 151
-12.476600000000001 -0.501 1.6006 164
-12.4922 -0.5015 -0.4346 38
-12.476600000000001 -0.5015 1.8984 184
-12.468800000000002 -0.501 -0.145 59
-12.3672 -0.4968 2.1758 46
-6.1914 -0.22690000000000002 -1.085 78
-12.476600000000001 -0.4575 0.1451 35
-6.2578 -0.22949999999999998 -0.9487000000000001 175
-12.476600000000001 -0.4575 0.4343 159
-6.359400000000001 -0.23329999999999998 -0.8134999999999999 105
-12.468800000000002 -0.4573 0.7231000000000001 194
-6.824199999999999 -0.2502 -0.7134 108
-12.4922 -0.45799999999999996 1.0176 81
-12.4844 -0.4578 -1.0166 221
-12.476600000000001 -0.4575 1.3075999999999999 186
-12.468800000000002 -0.457 -0.7231000000000001 42
-12.468800000000002 -0.457 1.5996000000000001 59
-12.4844 -0.45799999999999996 -0.4346 42
-12.468800000000002 -0.457 1.8955000000000002 228
-12.460899999999999 -0.457 -0.145 219
-12.3672 -0.4536 2.1758 159
-6.207000000000001 -0.2059 -1.0879 220
-12.468800000000002 -0.4138 0.145 69
-6.261699999999999 -0.2076 -0.9487000000000001 66
-12.4844 -0.41409999999999997 0.4343 34
-6.390599999999999 -0.2119 -0.8169 189
-12.476600000000001 -0.4138 0.7236 124
-6.855499999999999 -0.2274 -0.7162999999999999 20
-12.468800000000002 -0.41359999999999997 1.0156 216
-12.476600000000001 -0.4138 -1.0156 226
-12.4844 -0.41409999999999997 1.3075999999999999 66
-12.468800000000002 -0.4138 -0.7231000000000001 46
-12.460899999999999 -0.4133 1.5986000000000002 73
-12.4922 -0.4143 -0.4346 213
-12.4844 -0.41409999999999997 1.8975 63
-12.476600000000001 -0.4138 -0.1451 118
-12.375 -0.4104 2.1758 131
-6.2148 -0.1844 -1.0889 166
-12.476600000000001 -0.3704 0.1451 231
-6.265599999999999 -0.18600000000000003 -0.9497 193
-12.476600000000001 -0.3701 0.4338 63
-6.4140999999999995 -0.19030000000000002 -0.8198000000000001 69
-12.476600000000001 -0.3704 0.7236 57
-6.9062 -0.205 -0.7217 77
-12.4531 -0.3696 1.0137 162
-12.468800000000002 -0.3701 -1.0156 55
-12.476600000000001 -0.3704 1.3075999999999999 137
-12.4844 -0.3704 -0.7236 219
-12.460899999999999 -0.3696 1.5977000000000001 93
-12.476600000000001 -0.3704 -0.4341 198
-12.468800000000002 -0.3699 1.8955000000000002 201
-12.468800000000002 -0.3701 -0.145 15
-12.3828 -0.3674 2.1758 156
-6.2188 -0.1628 -1.0898 100
-12.4922 -0.3271 0.14529999999999998 199
-6.296900000000001 -0.1648 -0.9536 63
-12.468800000000002 -0.3264 0.4336 148
-6.4609000000000005 -0.16920000000000002 -0.8256999999999999 23
-12.4844 -0.32689999999999997 0.7236 164
-6.9765999999999995 -0.1826 -0.7290000000000001 68
-12.468800000000002 -0.3264 1.0146 176
-12.468800000000002 -0.3267 -1.0156 92
-12.476600000000001 -0.3267 1.3075999999999999 165
-12.468800000000002 -0.3264 -0.7231000000000001 241
-12.468800000000002 -0.3264 1.5986000000000002 120
-12.476600000000001 -0.32689999999999997 -0.4341 148
-12.4531 -0.3262 1.8936000000000002 185
-12.460899999999999 -0.3264 -0.1449 43
-10.0469 -0.26289999999999997 1.7646000000000002 180
-6.2265999999999995 -0.1412 -1.0908 155
-12.4844 -0.2832 0.1451 129
-6.328099999999999 -0.1436 -0.9584999999999999 184
-12.476600000000001 -0.2832 0.4338 185
-6.4648 -0.1467 -0.8262 203
-12.468800000000002 -0.28300000000000003 0.7231000000000001 226
-7.0547 -0.1602 -0.7373000000000001 3
-12.476600000000001 -0.2832 1.0156 151
-12.468800000000002 -0.28300000000000003 -1.0156 2
-12.468800000000002 -0.28300000000000003 1.3066 64
-12.468800000000002 -0.28300000000000003 -0.7231000000000001 5
-12.460899999999999 -0.2827 1.5977000000000001 190
-12.4922 -0.2834 -0.4346 171
-12.468800000000002 -0.28300000000000003 1.8944999999999999 94
-12.460899999999999 -0.2827 -0.1449 168
-10.0234 -0.2275 1.7607 120
-6.234400000000001 -0.1219 -1.0918 44
-12.476600000000001 -0.2439 0.145 177
-6.3477 -0.1241 -0.9619 67
-12.476600000000001 -0.244 0.4341 102
-6.5 -0.12710000000000002 -0.8311 170
-12.460899999999999 -0.2437 0.7227 158
-12.4844 -0.2441 -1.3075999999999999 229
-12.476600000000001 -0.2439 1.0156 103
-12.476600000000001 -0.2439 -1.0156 193
-12.468800000000002 -0.2438 1.3066 199
-12.460899999999999 -0.2437 -0.7227 192
-12.4453 -0.2434 1.5957 74
-12.4844 -0.2441 -0.4343 170
-12.468800000000002 -0.2438 1.8955000000000002 176
-12.468800000000002 -0.2438 -0.1449 240
-12.3672 -0.24170000000000003 2.1738 104
-6.269500000000001 -0.1017 -1.0977 20
-12.4922 -0.2028 0.1451 39
-6.3672 -0.1033 -0.9643999999999999 39
-12.476600000000001 -0.2025 0.4338 214
-6.5390999999999995 -0.1061 -0.8354 128
-12.460899999999999 -0.2023 0.7227 41
-12.468800000000002 -0.2024 -1.3056999999999999 138
-12.460899999999999 -0.2024 1.0146 164
-12.476600000000001 -0.2025 -1.0156 136
-12.476600000000001 -0.2026 1.3075999999999999 13
-12.460899999999999 -0.2023 -0.7222 33
-12.4453 -0.20199999999999999 1.5947 197
-12.476600000000001 -0.2025 -0.4341 117
-12.468800000000002 -0.2024 1.8955000000000002 156
-12.468800000000002 -0.2024 -0.1449 101
-12.3672 -0.2007 2.1738 67
-6.296900000000001 -0.078 -1.1025 182
-12.476600000000001 -0.1547 0.145 87
-6.3711 -0.0789 -0.9648 183
-12.468800000000002 -0.15439999999999998 0.4336 251
-6.5859000000000005 -0.0816 -0.8418000000000001 70
-12.468800000000002 -0.1545 0.7227 188
-12.468800000000002 -0.1545 -1.3066 63
-12.4531 -0.1543 1.0137 247
-12.468800000000002 -0.1545 -1.0146 239
-12.476600000000001 -0.1547 1.3066 197
-12.460899999999999 -0.15439999999999998 -0.7227 155
-12.4375 -0.1542 1.5947 117
-12.468800000000002 -0.1545 -0.4338 106
-12.460899999999999 -0.15439999999999998 1.8936000000000002 115
-12.468800000000002 -0.1545 -0.1449 58
-12.3828 -0.1534 2.1758 217
-6.3359000000000005 -0.0564 -1.1094 64
-12.476600000000001 -0.11109999999999999 0.145 90
-6.4102 -0.0571 -0.9712000000000001 7
-12.460899999999999 -0.1109 0.43329999999999996 242
-6.6289 -0.059000000000000004 -0.8472 41
-12.476600000000001 -0.11109999999999999 0.7236 73
-12.468800000000002 -0.111 -1.3056999999999999 250
-12.468800000000002 -0.111 1.0146 231
-12.460899999999999 -0.1109 -1.0146 183
-12.4531 -0.1109 1.3047 108
-12.476600000000001 -0.11109999999999999 -0.7231000000000001 11
-12.4531 -0.1109 1.5966999999999998 44
-12.476600000000001 -0.111 -0.4338 74
-12.460899999999999 -0.1109 1.8936000000000002 84
-12.4531 -0.1109 -0.1448 208
-12.3672 -0.1101 2.1738 139
-6.3477 -0.0355 -1.1123 125
-12.476600000000001 -0.0696 0.145 12
-6.4414 -0.036000000000000004 -0.9756 77
-12.460899999999999 -0.0696 0.43329999999999996 196
-6.6602 -0.037200000000000004 -0.8511 43
-12.468800000000002 -0.0696 0.7231000000000001 214
-12.468800000000002 -0.0696 -1.3056999999999999 1
-12.4844 -0.0697 1.0156 31
-12.460899999999999 -0.0696 -1.0146 253
-12.468800000000002 -0.0696 1.3056999999999999 138
-12.468800000000002 -0.0696 -0.7227 132
-12.460899999999999 -0.0696 1.5977000000000001 92
-12.476600000000001 -0.0697 -0.4338 91
-12.460899999999999 -0.0696 1.8936000000000002 27
-12.4453 -0.0695 -0.1447 45
-12.3672 -0.069 2.1738 111
-6.359400000000001 -0.0144 -1.1133 74
-12.476600000000001 -0.028300000000000002 0.145 151
-6.4765999999999995 -0.0147 -0.981 199
-12.460899999999999 -0.028300000000000002 0.43329999999999996 112
-6.7148 -0.0152 -0.8584 4
-12.460899999999999 -0.028300000000000002 0.7222 7
-12.4531 -0.028300000000000002 -1.3047 191
-12.4844 -0.028300000000000002 1.0166 250
-12.468800000000002 -0.028300000000000002 -1.0146 253
-12.5078 -0.028399999999999998 1.3096 133
-12.4531 -0.028300000000000002 -0.7222 206
-12.4531 -0.0282 1.5957 212
-12.3906 -0.0281 -0.43090000000000006 168
-12.468800000000002 -0.028300000000000002 1.8944999999999999 77
-12.4531 -0.028300000000000002 -0.1448 21
-12.3594 -0.027999999999999997 2.1719 51
-6.386699999999999 0.0089 -1.1181999999999999 84
-12.460899999999999 0.0174 0.1448 65
-6.515599999999999 0.0091 -0.9868000000000001 110
-12.4453 0.0174 0.4329 38
-6.7890999999999995 0.0095 -0.8676999999999999 29
-12.5 0.0175 0.7245999999999999 145
-12.4531 0.0174 -1.3047 134
-12.5469 0.0175 1.0215 227
-12.468800000000002 0.0174 -1.0146 227
-12.5703 0.0175 1.3163999999999998 73
-12.4531 0.0174 -0.7222 146
-12.4531 0.0174 1.5966999999999998 113
-12.375 0.0173 -0.4304 221
-12.476600000000001 0.0174 1.8955000000000002 230
-12.4297 0.0173 -0.1444 208
-12.3594 0.0173 2.1719 146
-6.425800000000001 0.031400000000000004 -1.125 57
-12.5156 0.061200000000000004 0.14550000000000002 156
-6.5390999999999995 0.032 -0.9906999999999999 159
-6.8515999999999995 0.0335 -0.8759999999999999 100
-12.5547 0.0613 0.728 230
-12.460899999999999 0.060899999999999996 -1.3047 105
-12.5625 0.061399999999999996 1.0225 198
-12.460899999999999 0.060899999999999996 -1.0137 56
-12.6094 0.0616 1.3203 89
-12.468800000000002 0.060899999999999996 -0.7227 5
-12.4531 0.060899999999999996 1.5957 52
-12.3594 0.0604 -0.4299 17
-12.4531 0.060899999999999996 1.8925999999999998 114
-12.5078 0.0611 -0.1454 43
-12.3594 0.0604 2.1719 11
-6.4727 0.0542 -1.1338 44
-12.5625 0.10529999999999999 0.146 148
-6.625 0.0555 -1.0039 154
-12.5547 0.1052 0.4368 160
-6.9140999999999995 0.0579 -0.8837999999999999 44
-12.6172 0.1057 0.7314 245
-12.460899999999999 0.10439999999999999 -1.3056999999999999 140
-12.710899999999999 0.1065 1.0352 5
-12.4453 0.1042 -1.0127 83
-12.7656 0.107 1.3378999999999999 246
-12.460899999999999 0.10439999999999999 -0.7222 61
-12.468800000000002 0.10439999999999999 1.5977000000000001 42
-12.3594 0.1035 -0.42969999999999997 134
-12.4453 0.1042 1.8906 173
-12.523399999999999 0.10490000000000001 -0.14550000000000002 126
-12.375 0.10369999999999999 2.1738 103
-6.5390999999999995 0.0776 -1.1455 96
-12.593800000000002 0.1495 0.1464 68
-6.730499999999999 0.0799 -1.0205 62
-12.648399999999999 0.1501 0.4399 244
-11.2031 0.1329 -1.4355000000000002 110
-12.718800000000002 0.151 0.7373000000000001 16
-12.468800000000002 0.1479 -1.3066 203
-12.773399999999999 0.1516 1.04 201
-12.4531 0.1478 -1.0137 13
-12.7656 0.1515 1.3369 35
-12.4531 0.1478 -0.7222 247
-12.460899999999999 0.1478 1.5977000000000001 59
-12.3672 0.1469 -0.4302 64
-12.4531 0.1478 1.8925999999999998 31
-12.4531 0.1478 -0.1448 253
-12.3672 0.1469 2.1738 48
-8.3438 0.1267 -1.4638999999999998 39
-12.625 0.1917 0.1467 215
-6.875 0.10439999999999999 -1.042 215
-12.5469 0.1906 0.4363 32
-11.1953 0.1699 -1.4346 193
-12.7344 0.1934 0.7383 119
-12.4375 0.18899999999999997 -1.3027000000000002 27
-12.781199999999998 0.1941 1.04 170
-12.460899999999999 0.1892 -1.0146 85
-12.75 0.1936 1.3359 23
-12.4375 0.1888 -0.7212000000000001 252
-12.4531 0.1891 1.5966999999999998 76
-12.375 0.18789999999999998 -0.4304 6
-12.460899999999999 0.1892 1.8936000000000002 56
-12.375 0.18789999999999998 -0.1438 244
-12.343800000000002 0.18739999999999998 2.1699 126
-6.8984000000000005 0.1277 -1.21 238
-12.648399999999999 0.23399999999999999 0.1471 73
-9.5781 0.1772 -1.4550999999999998 174
-12.6797 0.2345 0.4409 116
-11.1719 0.20670000000000002 -1.4316 25
-12.7422 0.23579999999999998 0.7387999999999999 17
-12.4453 0.2302 -1.3037 206
-12.7656 0.23620000000000002 1.0391 117
-12.4531 0.2303 -1.0137 131
-12.773399999999999 0.23629999999999998 1.3378999999999999 111
-12.4453 0.2302 -0.7212000000000001 149
-12.4453 0.2303 1.5957 108
-12.375 0.2289 -0.4304 98
-12.460899999999999 0.2306 1.8944999999999999 70
-12.398399999999999 0.22949999999999998 -0.1442 142
-12.3594 0.2288 2.1719 34
-8.3828 0.1858 -1.4707 240
-12.648399999999999 0.2805 0.1471 109
-9.5391 0.2114 -1.4482 241
-12.6719 0.281 0.4409 69
