# .PCD v0.7 - Point Cloud Data file format
VERSION 0.7
FIELDS x y z intensity
SIZE 4 4 4 4
TYPE F F F F
COUNT 1 1 1 1
WIDTH 1233
HEIGHT 1
VIEWPOINT 0 0 0 1 0 0 0
POINTS 1233
DATA ascii
-12.3828 -1.415 0.1449 206
-6.1562 -0.7036 -0.9384999999999999 73
-12.3047 -1.4062000000000001 0.4307 128
-6.1914 -0.7075 -0.7959 47
-12.2969 -1.4053 0.7173 66
-6.3047 -0.7206999999999999 -0.6626000000000001 244
-12.289100000000001 -1.4043 1.0068000000000001 204
-12.289100000000001 -1.4053 1.2959 200
-12.2969 -1.4053 -0.7173 4
-12.273399999999999 -1.4022999999999999 1.5830000000000002 255
-12.3125 -1.4072 -0.43090000000000006 34
-11.9297 -1.3633000000000002 1.8252000000000002 17
-12.273399999999999 -1.4022999999999999 -0.1436 147
-11.75 -1.3428 2.0781 214
-6.2148 -0.6884999999999999 -1.0957 5
-12.3203 -1.3643 0.14400000000000002 166
-6.1602 -0.6820999999999999 -0.9384999999999999 247
-12.273399999999999 -1.3594 0.4294 228
-6.1914 -0.6859999999999999 -0.7959 175
-12.281199999999998 -1.3594 0.7162999999999999 0
-6.296900000000001 -0.6978 -0.6616 81
-12.3203 -1.3652000000000002 1.0088 121
-7.2812 -0.8066 -0.5947 250
-12.289100000000001 -1.3613 1.2949000000000002 92
-12.281199999999998 -1.3603999999999998 -0.7162999999999999 67
-12.2578 -1.3574000000000002 1.5811000000000002 126
-12.3047 -1.3633000000000002 -0.4307 24
-12.1172 -1.3418 1.8525 245
-12.273399999999999 -1.3594 -0.1436 216
-11.7422 -1.3008000000000002 2.0762 155
-6.2148 -0.6665000000000001 -1.0947 59
-12.2969 -1.3184 0.1437 51
-6.1484000000000005 -0.6592 -0.9365000000000001 218
-12.2969 -1.3184 0.4302 82
-6.203099999999999 -0.665 -0.7968999999999999 247
-12.3047 -1.3193000000000001 0.7173 146
-6.300800000000001 -0.6758 -0.6616 219
-12.351600000000001 -1.3241999999999998 1.0107 212
-7.113300000000001 -0.7626999999999999 -0.5806 145
-12.3594 -1.3252000000000002 1.3018 141
-12.273399999999999 -1.3154 -0.7153 49
-12.25 -1.3135 1.5800999999999998 244
-12.289100000000001 -1.3174000000000001 -0.42969999999999997 249
-12.1094 -1.2988 1.8506 246
-12.289100000000001 -1.3174000000000001 -0.1437 96
-11.7422 -1.2588 2.0742 187
-6.2461 -0.6479 -1.1006 129
-12.3281 -1.2783 0.14400000000000002 159
-6.144500000000001 -0.6372 -0.9355 7
-12.2969 -1.2754 0.4299 138
-6.203099999999999 -0.6431 -0.7964 129
-12.335899999999999 -1.2793 0.7188 70
-6.3125 -0.6543000000000001 -0.6620999999999999 218
-12.3672 -1.2822 1.0117 75
-7.167999999999999 -0.7437 -0.585 12
-12.3906 -1.2852000000000001 1.3047 42
-12.289100000000001 -1.2744 -0.7162999999999999 223
-12.2422 -1.2695 1.5771000000000002 45
-12.281199999999998 -1.2734 -0.4294 22
-12.1172 -1.2568000000000001 1.8506 67
-12.289100000000001 -1.2744 -0.1436 160
-11.7422 -1.2178 2.0742 22
-6.2578 -0.627 -1.1016 239
-12.3672 -1.2393 0.1444 129
-6.1484000000000005 -0.6162 -0.9359999999999999 166
-12.335899999999999 -1.2354 0.43119999999999997 193
-6.203099999999999 -0.6215999999999999 -0.7964 150
-12.3906 -1.2412 0.7222 77
-6.324199999999999 -0.6338 -0.6636 80
-12.468800000000002 -1.249 1.0195 111
-7.199199999999999 -0.7212000000000001 -0.5874 158
-12.468800000000002 -1.249 1.3125 43
-12.3047 -1.2324 -0.7168000000000001 73
-12.4453 -1.2461 1.6035 251
-12.3203 -1.2344 -0.4307 149
-12.101600000000001 -1.2119 1.8477000000000001 60
-12.3125 -1.2334 -0.1438 60
-11.7578 -1.1777 2.0762 92
-6.261699999999999 -0.6064 -1.1025 72
-12.4844 -1.209 0.1458 232
-6.1602 -0.5962 -0.937 196
-12.398399999999999 -1.2002 0.43329999999999996 138
-6.203099999999999 -0.6006 -0.7959 45
-12.4922 -1.209 0.7275 18
-6.3477 -0.6147 -0.6659999999999999 135
-12.5078 -1.2109 1.0234 107
-7.2461 -0.7017 -0.5908 64
-12.4922 -1.21 1.3144999999999998 155
-12.335899999999999 -1.1943000000000001 -0.7182999999999999 242
-12.335899999999999 -1.1943000000000001 1.5888999999999998 72
-12.375 -1.1982 -0.4324 255
-12.101600000000001 -1.1719 1.8477000000000001 101
-12.351600000000001 -1.1963 -0.14429999999999998 244
-11.75 -1.1377 2.0742 41
-6.261699999999999 -0.5854 -1.1016 181
-12.4922 -1.168 0.1458 11
-6.171900000000001 -0.5767 -0.9384999999999999 111
-12.4844 -1.167 0.4363 63
-6.203099999999999 -0.5801 -0.7959 136
-12.4922 -1.167 0.7271 118
-6.3515999999999995 -0.5938 -0.6659999999999999 209
-12.5078 -1.1699 1.0225 6
-7.2852 -0.6807 -0.5938 43
-12.4922 -1.168 1.3144999999999998 90
-12.3906 -1.1582 -0.7212000000000001 14
-12.460899999999999 -1.165 1.6044999999999998 2
-12.468800000000002 -1.165 -0.4355 143
-12.1406 -1.1348 1.8525 126
-12.476600000000001 -1.166 -0.1456 107
-11.7344 -1.0967 2.0703 88
-6.2773 -0.5635 -1.1035 149
-12.4922 -1.1211 0.1458 124
-6.1602 -0.5532 -0.937 150
-12.5 -1.1220999999999999 0.4365 248
-6.2148 -0.5576 -0.7968999999999999 44
-12.5 -1.1220999999999999 0.7275 109
-6.3438 -0.5698 -0.665 213
-12.4922 -1.1211 1.0205 8
-7.3398 -0.6587000000000001 -0.5981000000000001 146
-12.5 -1.1220999999999999 1.3144999999999998 22
-12.4844 -1.1211 -0.7265999999999999 12
-12.468800000000002 -1.1191 1.6044999999999998 120
-12.5156 -1.123 -0.4368 110
-12.343800000000002 -1.1084 1.8828 51
-12.4922 -1.1211 -0.1458 254
-11.726600000000001 -1.0527 2.0684 168
-6.3047 -0.5439 -1.1084 134
-12.5 -1.0781 0.1458 227
-6.167999999999999 -0.5322 -0.9375 224
-12.4922 -1.0771 0.436 69
-6.230499999999999 -0.5371 -0.7988 90
-12.5 -1.0781 0.7271 104
-6.3828 -0.5508 -0.6689 9
-12.4922 -1.0771 1.0205 99
-7.363300000000001 -0.6353 -0.6001 240
-12.5 -1.0781 1.3144999999999998 224
-12.4844 -1.0771 -0.7265999999999999 190
-12.468800000000002 -1.0752 1.6044999999999998 108
-12.4922 -1.0771 -0.436 147
-12.335899999999999 -1.0645 1.8818000000000001 54
-12.5078 -1.0791 -0.1459 6
-11.726600000000001 -1.0117 2.0684 88
-6.1640999999999995 -0.5103 -1.083 160
-12.5 -1.0342 0.1458 118
-6.175800000000001 -0.5107 -0.9384999999999999 74
-12.476600000000001 -1.0322 0.4355 181
-6.2227 -0.5146000000000001 -0.7974 121
-12.4844 -1.0332 0.7265999999999999 187
-6.4102 -0.5303 -0.6714 124
-12.460899999999999 -1.0312000000000001 1.0176 247
-7.3984000000000005 -0.6123 -0.6025 51
-12.4375 -1.0293 1.3075999999999999 218
-12.4844 -1.0332 -0.7265999999999999 96
-12.4375 -1.0293 1.5996000000000001 231
-12.5 -1.0342 -0.4363 186
-12.3281 -1.0205 1.8799000000000001 225
-12.4844 -1.0332 -0.1456 104
-11.75 -0.9722 2.0723 208
-12.468800000000002 -0.9878 0.1454 174
-6.1797 -0.48969999999999997 -0.9390000000000001 13
-12.4297 -0.9849 0.4338 26
-6.234400000000001 -0.4939 -0.7988 6
-12.4531 -0.9863 0.7241 62
-6.4336 -0.5097999999999999 -0.6738 22
-12.476600000000001 -0.9883 1.0186 129
-12.476600000000001 -0.9883 -1.0186 219
-12.4844 -0.9893000000000001 1.3115 189
-12.4531 -0.9868000000000001 -0.7241 210
-12.468800000000002 -0.9878 1.6035 98
-12.468800000000002 -0.9878 -0.4351 197
-12.335899999999999 -0.9771 1.8799000000000001 216
-12.4219 -0.9843999999999999 -0.1448 245
-11.7344 -0.9297 2.0684 198
-6.1328 -0.4644 -1.0771 219
-12.460899999999999 -0.9438 0.14529999999999998 237
-6.1953 -0.469 -0.9409000000000001 114
-12.4922 -0.9458 0.4355 23
-12.4844 -0.9448000000000001 0.7256 17
-6.4453 -0.488 -0.6748000000000001 185
-12.4922 -0.9462999999999999 1.0195 227
-12.4453 -0.9423999999999999 -1.0156 33
-12.476600000000001 -0.9448000000000001 1.3105000000000002 188
-12.4375 -0.9419 -0.7231000000000001 180
-12.476600000000001 -0.9443 1.6035 222
-12.4844 -0.9448000000000001 -0.4353 52
-12.335899999999999 -0.9340999999999999 1.8799000000000001 56
-12.476600000000001 -0.9448000000000001 -0.1454 103
-11.7344 -0.8881999999999999 2.0664 178
-6.140599999999999 -0.4434 -1.0781 17
-12.4922 -0.9018999999999999 0.1456 174
-6.1875 -0.4468 -0.9395 94
-12.5 -0.9028 0.43579999999999997 191
-6.25 -0.4514 -0.8008 224
-12.4922 -0.9023 0.7261 56
-6.4648 -0.4668 -0.6768000000000001 21
-12.4844 -0.9014 1.0186 148
-12.4844 -0.9018999999999999 -1.0195 41
-12.4922 -0.9018999999999999 1.3115 78
-12.468800000000002 -0.9004000000000001 -0.7251000000000001 189
-12.460899999999999 -0.8998999999999999 1.6025 230
-12.5 -0.9028 -0.436 209
-12.343800000000002 -0.8911 1.8809 26
-12.4922 -0.9018999999999999 -0.14550000000000002 29
-11.726600000000001 -0.8467 2.0664 142
-6.1523 -0.4226 -1.0801 218
-12.5 -0.8589 0.1456 57
-6.1875 -0.425 -0.9390000000000001 251
-12.4922 -0.8579000000000001 0.4353 207
-6.25 -0.4294 -0.8008 202
-12.4922 -0.8579000000000001 0.7256 92
-6.4961 -0.44630000000000003 -0.6797 120
-12.468800000000002 -0.8564 1.0176 227
-12.476600000000001 -0.8573999999999999 -1.0186 198
-12.5 -0.8584 1.3125 76
-12.476600000000001 -0.8569 -0.7251000000000001 13
-12.468800000000002 -0.8569 1.6025 227
-12.4844 -0.8573999999999999 -0.4351 79
-12.406199999999998 -0.8525 1.8906 115
-12.4922 -0.8584 -0.14550000000000002 61
-11.7344 -0.8062 2.0664 102
-6.1523 -0.4011 -1.0801 140
-12.5 -0.8149 0.1456 205
-6.1914 -0.4036 -0.9395 225
-12.476600000000001 -0.8134999999999999 0.43479999999999996 217
-6.25 -0.4075 -0.8003 143
-12.5078 -0.8154 0.7265999999999999 255
-6.542999999999999 -0.4265 -0.6846 185
-12.4844 -0.8140000000000001 1.0186 238
-12.468800000000002 -0.813 -1.0176 122
-12.4844 -0.8140000000000001 1.3105000000000002 24
-12.476600000000001 -0.8134999999999999 -0.7245999999999999 152
-12.476600000000001 -0.8134999999999999 1.6025 36
-12.4922 -0.8145 -0.4353 229
-12.4531 -0.812 1.8965 134
-12.4844 -0.8140000000000001 -0.1454 228
-12.1172 -0.79 2.1348 7
-6.1523 -0.3796 -1.0801 146
-12.5 -0.7709999999999999 0.14550000000000002 226
-6.203099999999999 -0.38280000000000003 -0.9414 195
-12.4844 -0.7705 0.4351 53
-6.238300000000001 -0.3848 -0.7983 55
-12.4844 -0.77 0.7251000000000001 143
-6.5703 -0.4053 -0.687 26
-12.4922 -0.7705 1.0186 213
-12.476600000000001 -0.7695000000000001 -1.0176 89
-12.476600000000001 -0.7695000000000001 1.3096 179
-12.476600000000001 -0.7695000000000001 -0.7245999999999999 178
-12.476600000000001 -0.7695000000000001 1.6025 117
-12.4922 -0.7709999999999999 -0.4353 46
-12.4297 -0.7666 1.8916 202
-12.4844 -0.77 -0.1454 144
-12.3906 -0.7642 2.1816 132
-6.1562 -0.3582 -1.0801 78
-12.5 -0.7275 0.14550000000000002 117
-6.2227 -0.36210000000000003 -0.9438 102
-12.4922 -0.7265999999999999 0.4351 38
-6.2422 -0.36329999999999996 -0.7988 91
-12.476600000000001 -0.7261 0.7245999999999999 171
-6.5977 -0.384 -0.6899 45
-12.4922 -0.7265999999999999 1.0186 95
-12.468800000000002 -0.7256 -1.0166 182
-12.476600000000001 -0.7261 1.3096 251
-12.476600000000001 -0.7261 -0.7245999999999999 88
-12.476600000000001 -0.7256 1.6016 191
-12.4922 -0.7271 -0.4353 20
-12.468800000000002 -0.7256 1.8984 57
-12.476600000000001 -0.7261 -0.14529999999999998 107
-10.2031 -0.5938 1.7949000000000002 74
-6.1602 -0.3379 -1.0801 149
-12.4844 -0.6851 0.1454 5
-6.2109000000000005 -0.3408 -0.9419 6
-12.4844 -0.6851 0.43479999999999996 194
-6.238300000000001 -0.342 -0.7979 105
-12.476600000000001 -0.6846 0.7245999999999999 143
-6.605499999999999 -0.36229999999999996 -0.6909000000000001 200
-12.476600000000001 -0.6846 1.0176 49
-12.476600000000001 -0.6846 -1.0176 254
-12.4922 -0.6851 1.3096 185
-12.476600000000001 -0.6840999999999999 -0.7241 150
-12.460899999999999 -0.6836 1.6006 193
-12.4844 -0.6851 -0.43479999999999996 11
-12.476600000000001 -0.6846 1.8994 178
-12.4844 -0.6851 -0.1454 116
-12.375 -0.6787000000000001 2.1777 27
-6.1836 -0.3186 -1.085 201
-12.4844 -0.6436 0.14529999999999998 214
-6.2109000000000005 -0.3201 -0.9419 210
-12.4844 -0.6436 0.43479999999999996 105
-6.234400000000001 -0.32130000000000003 -0.7979 27
-12.4844 -0.6436 0.7251000000000001 25
-6.640599999999999 -0.3423 -0.6943 30
-12.468800000000002 -0.6426000000000001 1.0156 9
-12.476600000000001 -0.6431 -1.0166 166
-12.4922 -0.644 1.3105000000000002 3
-12.476600000000001 -0.6431 -0.7241 118
-12.468800000000002 -0.6426000000000001 1.6006 40
-12.476600000000001 -0.6426000000000001 -0.4343 56
-12.476600000000001 -0.6431 1.8984 5
-12.4922 -0.6436 -0.1454 116
-12.3672 -0.6372 2.1758 64
-6.1797 -0.2959 -1.084 21
-12.4922 -0.5977 0.1454 6
-6.2188 -0.29760000000000003 -0.9423999999999999 62
-12.468800000000002 -0.5967 0.4341 193
-12.4844 -0.5977 0.7245999999999999 227
-6.699199999999999 -0.3206 -0.7001999999999999 237
-12.4844 -0.5977 1.0176 128
-12.468800000000002 -0.5967 -1.0156 123
-12.4844 -0.5972 1.3086000000000002 57
-12.4844 -0.5972 -0.7245999999999999 241
-12.476600000000001 -0.5972 1.6016 162
-12.4844 -0.5977 -0.4346 163
-12.468800000000002 -0.5967 1.8975 52
-12.476600000000001 -0.5972 -0.1451 253
-10.2422 -0.4902 1.8008000000000002 166
-6.1836 -0.2742 -1.084 37
-12.4922 -0.5542 0.1454 89
-6.230499999999999 -0.2764 -0.9448000000000001 52
-12.476600000000001 -0.5532 0.4343 13
-6.2812 -0.2786 -0.8031999999999999 247
-12.4844 -0.5537 0.7241 254
-6.734400000000001 -0.2988 -0.7041 163
-12.476600000000001 -0.5537 1.0166 129
-12.476600000000001 -0.5532 -1.0166 174
-12.476600000000001 -0.5537 1.3075999999999999 251
-12.4844 -0.5537 -0.7241 76
-12.476600000000001 -0.5537 1.6016 46
-12.4844 -0.5537 -0.4346 73
-12.468800000000002 -0.5532 1.8975 91
-12.468800000000002 -0.5532 -0.145 43
-12.375 -0.5488000000000001 2.1758 167
-6.1875 -0.2529 -1.085 13
-12.4922 -0.5103 0.14529999999999998 56
-6.2461 -0.2554 -0.9468000000000001 32
-12.4844 -0.5103 0.4346 171
-6.359400000000001 -0.25980000000000003 -0.813 65
-12.468800000000002 -0.5097999999999999 0.7236 115
-6.765599999999999 -0.2764 -0.7070000000000001 161
-12.4844 -0.5103 1.0166 164
-12.4844 -0.5103 -1.0166 189
-12.476600000000001 -0.5097999999999999 1.3075999999999999 46
-12.468800000000002 -0.5093 -0.7231000000000001 195
-12.460899999999999 -0.5093 1.5996000000000001 2
-12.476600000000001 -0.5097999999999999 -0.4343 231
-12.468800000000002 -0.5097999999999999 1.8965 8
-12.476600000000001 -0.5097999999999999 -0.1451 76
-12.375 -0.5054 2.1758 128
-6.199199999999999 -0.23170000000000002 -1.0869 14
-12.468800000000002 -0.4661 0.145 1
-6.2422 -0.23329999999999998 -0.9462999999999999 105
-12.4844 -0.46630000000000005 0.4343 115
-6.363300000000001 -0.2378 -0.8140000000000001 222
-12.476600000000001 -0.4661 0.7236 19
-6.8164 -0.2546 -0.7123999999999999 192
-12.476600000000001 -0.46630000000000005 1.0166 103
-12.4844 -0.46630000000000005 -1.0166 83
-12.5 -0.467 1.3096 38
-12.460899999999999 -0.4656 -0.7231000000000001 137
-12.460899999999999 -0.4656 1.5986000000000002 140
-12.4844 -0.46659999999999996 -0.4343 211
-12.476600000000001 -0.46630000000000005 1.8975 164
-12.4844 -0.46659999999999996 -0.1451 61
-12.3672 -0.4622 2.1738 202
-6.207000000000001 -0.21030000000000001 -1.0879 55
-12.468800000000002 -0.4224 0.145 150
-6.2539 -0.2118 -0.9478 112
-12.468800000000002 -0.4224 0.4338 197
-6.3828 -0.2162 -0.8159000000000001 113
-12.4844 -0.42310000000000003 0.7241 172
-6.875 -0.2328 -0.7182999999999999 27
-12.468800000000002 -0.4224 1.0156 94
-12.468800000000002 -0.4224 -1.0156 15
-12.4844 -0.4229 1.3086000000000002 211
-12.476600000000001 -0.4226 -0.7236 94
-12.468800000000002 -0.4224 1.5996000000000001 52
-12.476600000000001 -0.4226 -0.4341 121
-12.468800000000002 -0.4224 1.8955000000000002 117
-12.468800000000002 -0.4224 -0.145 17
-12.3828 -0.4194 2.1777 199
-6.2188 -0.1888 -1.0898 250
-12.476600000000001 -0.37920000000000004 0.1451 194
-6.269500000000001 -0.19039999999999999 -0.9501999999999999 128
-12.4531 -0.3784 0.43329999999999996 238
-6.375 -0.1937 -0.8149 185
-12.4844 -0.37939999999999996 0.7241 182
-6.917999999999999 -0.2102 -0.7231000000000001 112
-12.468800000000002 -0.3789 1.0156 216
-12.460899999999999 -0.3784 -1.0146 175
-12.476600000000001 -0.37920000000000004 1.3075999999999999 26
-12.4844 -0.37920000000000004 -0.7236 12
-12.468800000000002 -0.3789 1.5996000000000001 6
-12.4844 -0.37920000000000004 -0.4343 169
-12.468800000000002 -0.3787 1.8955000000000002 209
-12.468800000000002 -0.3789 -0.145 159
-10.0625 -0.3057 1.7675999999999998 24
-6.2148 -0.1671 -1.0889 191
-12.4922 -0.3357 0.1451 240
-6.2890999999999995 -0.16920000000000002 -0.9531000000000001 191
-12.468800000000002 -0.33520000000000005 0.4336 161
-6.4609000000000005 -0.17370000000000002 -0.8256999999999999 200
-12.476600000000001 -0.3354 0.7231000000000001 34
-6.957000000000001 -0.187 -0.7265999999999999 247
-12.476600000000001 -0.3354 1.0156 225
-12.468800000000002 -0.33520000000000005 -1.0146 30
-12.476600000000001 -0.3354 1.3075999999999999 126
-12.460899999999999 -0.33520000000000005 -0.7227 207
-12.476600000000001 -0.3354 1.5996000000000001 7
-12.4844 -0.3357 -0.4343 155
-12.460899999999999 -0.335 1.8944999999999999 90
-12.4531 -0.335 -0.1448 239
-12.3906 -0.33299999999999996 2.1777 125
-6.2109000000000005 -0.14529999999999998 -1.0879 186
-12.468800000000002 -0.2917 0.1449 164
-6.3203 -0.1478 -0.9575 201
-12.476600000000001 -0.2917 0.4338 85
-6.4609000000000005 -0.15109999999999998 -0.8256999999999999 1
-12.468800000000002 -0.2917 0.7231000000000001 173
-7.0 -0.1637 -0.7314 111
-12.476600000000001 -0.2917 1.0156 137
-12.476600000000001 -0.2917 -1.0156 86
-12.476600000000001 -0.2917 1.3066 143
-12.460899999999999 -0.2915 -0.7222 240
-12.460899999999999 -0.2915 1.5977000000000001 75
-12.4844 -0.292 -0.4343 171
-12.476600000000001 -0.2917 1.8965 171
-12.460899999999999 -0.2915 -0.1449 208
-12.3672 -0.2893 2.1738 199
-6.2422 -0.1252 -1.0928 11
-12.460899999999999 -0.2502 0.1449 228
-6.332000000000001 -0.1272 -0.9595 213
-12.468800000000002 -0.2502 0.4336 11
-6.488300000000001 -0.13019999999999998 -0.8295999999999999 148
-12.468800000000002 -0.2502 0.7231000000000001 208
-12.4922 -0.2507 -1.3086000000000002 164
-12.468800000000002 -0.2502 1.0146 231
-12.476600000000001 -0.2505 -1.0156 144
-12.4922 -0.2507 1.3086000000000002 95
-12.460899999999999 -0.2502 -0.7227 221
-12.4453 -0.24989999999999998 1.5957 64
-12.476600000000001 -0.2505 -0.4338 69
-12.476600000000001 -0.2505 1.8965 222
-12.468800000000002 -0.2502 -0.1449 92
-12.375 -0.2484 2.1738 103
-6.269500000000001 -0.105 -1.0977 46
-12.468800000000002 -0.209 0.1449 180
-6.3477 -0.1063 -0.9614 190
-12.476600000000001 -0.2091 0.4338 12
-6.542999999999999 -0.1096 -0.8359000000000001 130
-12.476600000000001 -0.209 0.7231000000000001 114
-12.468800000000002 -0.2089 -1.3056999999999999 179
-12.476600000000001 -0.209 1.0156 66
-12.476600000000001 -0.209 -1.0156 46
-12.4844 -0.2091 1.3075999999999999 169
-12.460899999999999 -0.2089 -0.7227 226
-12.4453 -0.2086 1.5957 46
-12.476600000000001 -0.209 -0.4338 17
-12.460899999999999 -0.2089 1.8944999999999999 74
-12.476600000000001 -0.2091 -0.145 156
-12.375 -0.2073 2.1738 180
-6.2890999999999995 -0.0823 -1.1016 114
-12.4922 -0.1636 0.1451 21
-6.3711 -0.0834 -0.9648 195
-12.460899999999999 -0.1631 0.43329999999999996 54
-6.574199999999999 -0.0861 -0.8403 167
-12.468800000000002 -0.1632 0.7231000000000001 203
-12.476600000000001 -0.16329999999999997 -1.3066 32
-12.468800000000002 -0.1632 1.0146 52
-12.460899999999999 -0.1631 -1.0146 193
-12.468800000000002 -0.1632 1.3056999999999999 152
-12.476600000000001 -0.16329999999999997 -0.7231000000000001 201
-12.460899999999999 -0.1632 1.5977000000000001 170
-12.468800000000002 -0.1632 -0.4338 88
-12.4453 -0.163 1.8916 45
-12.468800000000002 -0.1632 -0.1449 212
-12.3828 -0.16210000000000002 2.1758 177
-6.3164 -0.060599999999999994 -1.1064 179
-12.4844 -0.1199 0.1451 122
-6.4102 -0.061500000000000006 -0.9706999999999999 200
-12.460899999999999 -0.11960000000000001 0.43329999999999996 249
-6.613300000000001 -0.0635 -0.8456999999999999 191
-12.468800000000002 -0.1197 0.7227 218
-12.476600000000001 -0.1198 -1.3066 29
-12.476600000000001 -0.1198 1.0156 64
-12.476600000000001 -0.1198 -1.0156 180
-12.468800000000002 -0.1197 1.3056999999999999 224
-12.460899999999999 -0.11960000000000001 -0.7227 122
-12.460899999999999 -0.11960000000000001 1.5977000000000001 101
-12.468800000000002 -0.1198 -0.4338 196
-12.468800000000002 -0.1197 1.8944999999999999 227
-12.460899999999999 -0.11960000000000001 -0.1448 69
-12.375 -0.1188 2.1738 64
-6.3438 -0.0387 -1.1113 52
-12.476600000000001 -0.0762 0.145 74
-6.4336 -0.0393 -0.9745999999999999 185
-12.476600000000001 -0.0762 0.4341 35
-6.6562 -0.0406 -0.8506 139
-12.460899999999999 -0.0761 0.7222 91
-12.460899999999999 -0.0761 -1.3047 125
-12.476600000000001 -0.0762 1.0156 103
-12.468800000000002 -0.0762 -1.0146 238
-12.476600000000001 -0.0762 1.3066 147
-12.4453 -0.076 -0.7217 185
-12.4531 -0.076 1.5966999999999998 164
-12.4844 -0.0762 -0.4341 223
-12.468800000000002 -0.0762 1.8944999999999999 64
-12.460899999999999 -0.0761 -0.1448 109
-12.3594 -0.0755 2.1719 74
-6.359400000000001 -0.0166 -1.1143 71
-12.468800000000002 -0.0327 0.1449 166
-6.4609000000000005 -0.0169 -0.9784999999999999 190
-12.4844 -0.0327 0.4341 68
-6.7148 -0.0176 -0.8584 152
-12.4531 -0.0326 0.7222 150
-12.460899999999999 -0.0326 -1.3047 117
-12.460899999999999 -0.0326 1.0146 59
-12.468800000000002 -0.0327 -1.0146 217
-12.5 -0.0327 1.3096 172
-12.4531 -0.0326 -0.7222 143
-12.4531 -0.0326 1.5957 69
-12.406199999999998 -0.0325 -0.4314 12
-12.468800000000002 -0.0326 1.8944999999999999 109
-12.468800000000002 -0.0326 -0.1449 149
-12.3594 -0.0323 2.1719 97
-6.386699999999999 0.005600000000000001 -1.1191 70
-12.476600000000001 0.0109 0.145 145
-6.488300000000001 0.005699999999999999 -0.9829000000000001 55
-12.4531 0.0109 0.4329 203
-6.7812 0.0059 -0.8667 116
-12.468800000000002 0.0109 0.7227 17
-12.460899999999999 0.0109 -1.3047 34
-12.539100000000001 0.0109 1.0205 72
-12.460899999999999 0.0109 -1.0146 42
-12.5625 0.011000000000000001 1.3154 212
-12.4531 0.0109 -0.7222 61
-12.4453 0.0109 1.5957 108
-12.351600000000001 0.0108 -0.42969999999999997 117
-12.460899999999999 0.0109 1.8936000000000002 47
-12.460899999999999 0.0109 -0.1449 212
-12.3672 0.0108 2.1738 74
-6.417999999999999 0.027999999999999997 -1.124 108
-12.5 0.0546 0.14529999999999998 239
-6.542999999999999 0.0285 -0.9912000000000001 22
-12.5156 0.0546 0.4353 41
-6.824199999999999 0.0298 -0.8726 52
-12.5703 0.0548 0.7284999999999999 127
-12.468800000000002 0.054400000000000004 -1.3066 111
-12.5625 0.0548 1.0225 129
-12.460899999999999 0.054400000000000004 -1.0146 235
-12.5703 0.0548 1.3163999999999998 102
-12.460899999999999 0.054400000000000004 -0.7222 191
-12.460899999999999 0.054400000000000004 1.5966999999999998 193
-12.3672 0.054000000000000006 -0.4302 120
-12.4453 0.054299999999999994 1.8916 81
-12.5 0.0546 -0.14529999999999998 180
-12.375 0.054000000000000006 2.1738 39
-6.4375 0.0506 -1.1279000000000001 150
-12.5469 0.0986 0.1459 31
-6.6172 0.052000000000000005 -1.002 44
-12.5625 0.0986 0.4368 104
-6.8984000000000005 0.0542 -0.8818 246
-12.5703 0.09880000000000001 0.7284999999999999 138
-12.4531 0.0978 -1.3047 182
-12.6719 0.09949999999999999 1.0312000000000001 8
-12.460899999999999 0.09789999999999999 -1.0146 123
-12.7422 0.1001 1.335 175
-12.4531 0.0978 -0.7217 111
-12.4531 0.0978 1.5966999999999998 184
-12.3672 0.09720000000000001 -0.4302 144
-12.4531 0.0978 1.8925999999999998 91
-12.523399999999999 0.0983 -0.14550000000000002 156
-12.3594 0.09699999999999999 2.1719 194
-6.5234000000000005 0.07400000000000001 -1.1436 25
-12.5781 0.1427 0.1461 104
-6.7109000000000005 0.0762 -1.0166 69
-12.6328 0.1433 0.4395 186
-11.2031 0.12710000000000002 -1.4355000000000002 25
-12.75 0.1447 0.7393000000000001 246
-12.4531 0.1412 -1.3047 18
-12.773399999999999 0.1449 1.04 233
-12.460899999999999 0.1414 -1.0146 115
-12.7656 0.1449 1.3378999999999999 251
-12.4453 0.1411 -0.7212000000000001 213
-12.4375 0.1411 1.5947 4
-12.375 0.1404 -0.4302 211
-12.460899999999999 0.1414 1.8936000000000002 68
-12.4844 0.1416 -0.1451 96
-12.3594 0.14029999999999998 2.1719 128
-6.6211 0.0959 -1.1602 125
-12.6328 0.183 0.1469 15
-6.8515999999999995 0.0992 -1.0381 107
-12.539100000000001 0.1816 0.4363 2
-11.2031 0.16219999999999998 -1.4355000000000002 191
-12.718800000000002 0.1843 0.7378 69
-12.4531 0.1804 -1.3037 6
-12.773399999999999 0.18510000000000001 1.04 167
-12.460899999999999 0.1805 -1.0146 141
-12.773399999999999 0.18510000000000001 1.3378999999999999 159
-12.4453 0.18030000000000002 -0.7217 33
-12.4453 0.18030000000000002 1.5957 217
-12.3672 0.17920000000000003 -0.4302 208
-12.468800000000002 0.1807 1.8944999999999999 192
-12.3594 0.1791 -0.1437 225
-12.3594 0.179 2.1719 56
-8.375 0.1492 -1.4697 2
-12.6406 0.22510000000000002 0.147 123
-9.5859 0.17079999999999998 -1.4561000000000002 6
-12.6719 0.2256 0.4407 48
-11.1797 0.19899999999999998 -1.4325999999999999 140
-12.7578 0.22719999999999999 0.7397 10
-12.4531 0.2217 -1.3047 179
-12.7578 0.22719999999999999 1.0391 250
-12.4531 0.2217 -1.0137 68
-12.781199999999998 0.2275 1.3388999999999998 244
-12.4531 0.2218 -0.7222 8
-12.4531 0.2217 1.5966999999999998 242
-12.3672 0.22010000000000002 -0.4299 151
-12.4531 0.2217 1.8925999999999998 72
-12.406199999999998 0.22089999999999999 -0.1442 51
-12.375 0.22030000000000002 2.1738 209
-8.3828 0.17989999999999998 -1.4707 31
-12.656199999999998 0.2717 0.1471 88
-9.5469 0.205 -1.4491999999999998 177
-12.664100000000001 0.272 0.4404 139
-11.148399999999999 0.2394 -1.4287 148
-12.7578 0.27390000000000003 0.7397 218
-12.4531 0.2673 -1.3047 196
-12.7578 0.27390000000000003 1.0381 146
-12.4375 0.2671 -1.0127 227
-12.7656 0.2742 1.3369 226
-12.460899999999999 0.2676 -0.7222 200
-12.4531 0.2673 1.5966999999999998 156
-12.3672 0.26539999999999997 -0.4302 67
-12.4453 0.2671 1.8916 50
-12.3906 0.2661 -0.14400000000000002 107
-12.3594 0.26539999999999997 2.1738 88
-8.375 0.2091 -1.4697 171
-12.656199999999998 0.3159 0.1472 143
-9.5234 0.2377 -1.4463 226
-12.6172 0.31489999999999996 0.439 98
-11.148399999999999 0.2783 -1.4287 101
-12.6797 0.31670000000000004 0.7354 136
-12.460899999999999 0.311 -1.3056999999999999 125
-12.7656 0.3188 1.04 253
-12.460899999999999 0.311 -1.0146 40
-12.7578 0.3186 1.3369 168
-12.4531 0.31079999999999997 -0.7222 80
-12.460899999999999 0.311 1.5977000000000001 138
-12.3906 0.3093 -0.43090000000000006 162
-12.4453 0.31079999999999997 1.8916 185
-12.398399999999999 0.3096 -0.1442 236
-12.343800000000002 0.3081 2.1699 82
-8.375 0.23829999999999998 -1.4697 10
-12.593800000000002 0.35840000000000005 0.1465 45
-9.5547 0.272 -1.4512 249
-12.656199999999998 0.3601 0.4404 213
-11.1328 0.31670000000000004 -1.4268 70
-12.7422 0.3625 0.7393000000000001 44
-12.4453 0.3542 -1.3047 159
-12.7578 0.363 1.0391 97
-12.460899999999999 0.35450000000000004 -1.0146 119
-12.7578 0.363 1.3369 144
-12.4375 0.354 -0.7212000000000001 120
-12.4375 0.354 1.5957 193
-12.406199999999998 0.353 -0.4316 244
-12.4531 0.35450000000000004 1.8936000000000002 7
-12.4219 0.3533 -0.1444 56
-12.343800000000002 0.3513 2.1699 233
-8.3594 0.2671 -1.4668 27
-12.6328 0.4036 0.1469 186
-9.5234 0.3042 -1.4463 54
-12.648399999999999 0.40409999999999996 0.4399 123
-11.1172 0.3552 -1.4247999999999998 19
-12.7344 0.4067 0.7387999999999999 166
-12.4297 0.3972 -1.3027000000000002 232
-12.7578 0.4077 1.0391 88
-12.4453 0.39770000000000005 -1.0137 107
-12.7656 0.408 1.3378999999999999 206
-12.4375 0.3975 -0.7217 149
-12.4453 0.3975 1.5957 193
-12.398399999999999 0.3962 -0.4314 232
-12.4531 0.3979 1.8936000000000002 34
-12.5 0.3992 -0.14529999999999998 18
-12.351600000000001 0.3948 2.1719 178
-8.3516 0.2974 -1.4658000000000002 108
-12.6328 0.45 0.1469 58
-9.4844 0.3379 -1.4413999999999998 165
-12.648399999999999 0.4507 0.44020000000000004 72
-11.1094 0.3958 -1.4238 236
-12.7344 0.4536 0.7387999999999999 52
-12.4375 0.4429 -1.3037 33
-12.7422 0.4539 1.0381 113
-12.4375 0.4429 -1.0127 59
-12.7656 0.4546 1.3378999999999999 136
-12.4453 0.44310000000000005 -0.7217 12
-12.4453 0.4434 1.5966999999999998 248
-12.398399999999999 0.44170000000000004 -0.4314 68
-12.4531 0.4436 1.8936000000000002 53
-12.5469 0.447 -0.146 88
-12.351600000000001 0.44020000000000004 2.1719 87
-8.3516 0.3267 -1.4658000000000002 219
-12.6328 0.4941 0.147 34
-9.5 0.3716 -1.4434 106
-12.5 0.489 0.4351 153
-11.093800000000002 0.4338 -1.4219 207
-12.7031 0.4968 0.7368000000000001 155
-12.4531 0.48710000000000003 -1.3047 154
-12.7578 0.499 1.0391 172
-12.4297 0.4861 -1.0127 234
-12.75 0.4988 1.3369 151
-12.4453 0.4868 -0.7217 9
-12.4453 0.4868 1.5966999999999998 199
-12.4219 0.4861 -0.4324 9
-12.4297 0.4863 1.8906 227
-12.4453 0.4868 -0.1448 113
-12.351600000000001 0.4832 2.1719 61
-8.3516 0.353 -1.4668 123
-12.6406 0.5342 0.1471 177
-9.5 0.40159999999999996 -1.4434 200
-12.6094 0.5332 0.439 137
-11.085899999999999 0.4685 -1.4219 186
-12.710899999999999 0.5371 0.7378 73
-12.4531 0.5264 -1.3047 119
-12.7578 0.5390999999999999 1.0391 251
-12.4453 0.5259 -1.0137 228
-12.75 0.5390999999999999 1.3369 97
-12.4297 0.5254 -0.7212000000000001 83
-12.4531 0.5264 1.5977000000000001 131
-12.4297 0.5254 -0.4326 126
-12.4375 0.5259 1.8916 230
-12.539100000000001 0.5297999999999999 -0.1459 70
-12.343800000000002 0.5215 2.1699 183
-8.3438 0.3801 -1.4647999999999999 55
-12.648399999999999 0.5767 0.1471 190
-9.4922 0.4326 -1.4413999999999998 161
-12.6328 0.5757 0.4397 91
-11.0703 0.5049 -1.4199000000000002 168
-12.7344 0.5806 0.7393000000000001 93
-12.4453 0.5674 -1.3047 13
-12.7656 0.5820000000000001 1.04 131
-12.4453 0.5674 -1.0137 186
-12.75 0.5811 1.3369 71
-12.4297 0.5664 -0.7212000000000001 200
-12.4453 0.5674 1.5966999999999998 218
-12.4453 0.5674 -0.43329999999999996 246
-12.4453 0.5674 1.8936000000000002 82
-12.5625 0.5728 -0.1462 153
-12.343800000000002 0.5625 2.1719 223
-8.3281 0.4133 -1.4638999999999998 11
-12.664100000000001 0.6279 0.14730000000000001 177
-9.4844 0.4705 -1.4413999999999998 223
-12.6406 0.627 0.4399 85
-11.0625 0.5488000000000001 -1.4188999999999998 94
-12.6875 0.6294 0.7363 242
-12.4375 0.6167 -1.3037 78
-12.7422 0.6323 1.0381 83
-12.4531 0.6177 -1.0146 230
-12.7578 0.6328 1.3378999999999999 5
-12.4297 0.6167 -0.7212000000000001 62
-12.4297 0.6167 1.5957 156
-12.4375 0.6172 -0.43310000000000004 7
-12.4531 0.6177 1.8944999999999999 149
-12.5625 0.623 -0.1461 112
-12.335899999999999 0.6123 2.1699 195
-8.3047 0.4424 -1.459 62
-12.6094 0.6718999999999999 0.1467 215
-9.4375 0.5029 -1.4355000000000002 189
-12.625 0.6729 0.4397 229
-11.0469 0.5884 -1.4169999999999998 66
-12.7344 0.6787000000000001 0.7393000000000001 124
-12.4453 0.6631 -1.3056999999999999 199
-12.7344 0.6787000000000001 1.0381 154
-12.4453 0.6631 -1.0146 231
-12.75 0.6792 1.3378999999999999 26
-12.4297 0.6626000000000001 -0.7217 198
-12.4375 0.6626000000000001 1.5957 180
-12.4375 0.6626000000000001 -0.43310000000000004 243
-12.4531 0.6636 1.8944999999999999 224
-12.5469 0.6685 -0.146 14
-12.3594 0.6581999999999999 2.1738 27
-8.3047 0.4673 -1.46 108
-12.6719 0.7129000000000001 0.1475 103
-9.4375 0.5312 -1.4355000000000002 9
-12.648399999999999 0.7119 0.4407 138
-11.0078 0.6196 -1.4131 21
-12.75 0.7173 0.7402 229
-12.4453 0.7001999999999999 -1.3047 76
-12.75 0.7173 1.04 218
-12.4297 0.6992 -1.0137 25
-12.75 0.7173 1.3369 162
-12.4375 0.6997 -0.7222 158
-12.4453 0.7001999999999999 1.5977000000000001 116
-12.4531 0.7006999999999999 -0.4336 30
-12.4219 0.6987000000000001 1.8906 72
-12.5625 0.7070000000000001 -0.1462 25
-12.3594 0.6953 2.1738 20
-8.3203 0.49560000000000004 -1.4619 117
-12.648399999999999 0.7534000000000001 0.1472 237
-9.4375 0.562 -1.4346 99
-12.6719 0.7548999999999999 0.4414 132
-11.0 0.6557999999999999 -1.4121000000000001 137
-12.710899999999999 0.7578 0.7383 19
-12.4375 0.7412000000000001 -1.3056999999999999 84
-12.7422 0.7593000000000001 1.0391 206
-12.4375 0.7412000000000001 -1.0146 49
-12.7422 0.7593000000000001 1.3369 183
-12.4297 0.7406999999999999 -0.7222 23
-12.4453 0.7417 1.5986000000000002 114
-12.4453 0.7417 -0.4336 174
-12.4375 0.7412000000000001 1.8936000000000002 236
-12.5625 0.7484999999999999 -0.1462 172
-12.343800000000002 0.7358 2.1738 133
-8.2812 0.5268999999999999 -1.4561000000000002 114
-12.625 0.8031999999999999 0.147 189
-9.4375 0.6006 -1.4355000000000002 166
-12.4844 0.7939 0.4351 125
-11.0 0.6997 -1.4121000000000001 72
-12.7031 0.8081 0.7378 119
-12.4297 0.7905 -1.3047 10
-12.75 0.8109999999999999 1.04 108
-12.4375 0.7909999999999999 -1.0146 170
-12.7422 0.8105 1.3369 3
-12.4297 0.7905 -0.7217 149
-12.4453 0.792 1.5986000000000002 10
-12.460899999999999 0.7925 -0.4341 125
-12.4297 0.7909999999999999 1.8936000000000002 144
-12.5156 0.7959 -0.1458 166
-12.3281 0.7842 2.1699 227
-8.2891 0.5581 -1.4580000000000002 46
-12.648399999999999 0.8511 0.14730000000000001 253
-9.4219 0.6343 -1.4336000000000002 198
-12.6797 0.8534999999999999 0.4421 62
-10.9922 0.7397 -1.4121000000000001 240
-12.710899999999999 0.8554999999999999 0.7383 106
-12.414100000000001 0.8354 -1.3037 111
-12.6328 0.8501000000000001 1.0303 205
-12.4297 0.8364 -1.0146 70
-12.5547 0.8452 1.3184 145
-12.4297 0.8364 -0.7222 213
-12.4453 0.8373999999999999 1.5996000000000001 162
-8.7578 0.5893999999999999 -0.30469999999999997 88
-12.4453 0.8373999999999999 1.8944999999999999 177
-8.75 0.5889 -0.1017 47
-12.335899999999999 0.8301000000000001 2.1738 222
-8.2969 0.583 -1.459 157
-12.6406 0.8887 0.14730000000000001 51
-9.3984 0.6602 -1.4297 164
-12.5703 0.8833 0.4382 75
-10.9922 0.7725 -1.4121000000000001 200
-12.539100000000001 0.8813 0.7284999999999999 90
-12.4297 0.8734999999999999 -1.3056999999999999 73
-12.531199999999998 0.8804000000000001 1.0225 81
-8.7656 0.6162 -0.7143999999999999 148
-12.523399999999999 0.8804000000000001 1.3154 104
-12.4531 0.875 1.6006 120
-12.4375 0.8745 1.8955000000000002 38
-8.7969 0.6182 -0.10220000000000001 192
-12.335899999999999 0.8672 2.1738 238
-8.2969 0.6108 -1.459 134
-12.523399999999999 0.9218999999999999 0.146 166
-9.3828 0.6909000000000001 -1.4287 145
-12.4922 0.9194 0.4355 122
-10.976600000000001 0.8081 -1.4102000000000001 212
-12.5078 0.9204000000000001 0.7271 200
-12.5156 0.9214 1.0215 229
-12.523399999999999 0.9218999999999999 1.3154 245
-8.7656 0.645 -0.5088 254
-12.468800000000002 0.9179999999999999 1.6035 117
-8.7422 0.6436 -0.3044 16
-12.4219 0.9146 1.8936000000000002 8
-8.7422 0.6436 -0.1016 235
-12.351600000000001 0.9092 2.1758 121
-8.2891 0.6406000000000001 -1.459 167
-12.5156 0.9673 0.1459 235
-8.7656 0.6777 -1.334 19
-12.4922 0.9653 0.43579999999999997 234
-8.75 0.6762999999999999 -1.124 107
-12.5 0.9662999999999999 0.7271 67
-8.7656 0.6777 -0.9194 176
-12.523399999999999 0.9678 1.0225 139
-8.75 0.6762999999999999 -0.7134 215
-12.5156 0.9673 1.3144999999999998 242
-8.7734 0.6781999999999999 -0.5093 216
-12.468800000000002 0.9639 1.6035 41
-12.4375 0.9609000000000001 1.8955000000000002 78
-8.6953 0.6724 -0.1011 53
-12.343800000000002 0.9541 2.1758 232
-8.2656 0.6679999999999999 -1.4550999999999998 138
-12.5 1.0107 0.1458 31
-8.7656 0.7084999999999999 -1.335 20
-12.5 1.0107 0.4363 7
-8.7422 0.7065 -1.123 119
-12.5 1.0107 0.7271 13
-12.4297 1.0049 -1.3066 12
-12.5156 1.0117 1.0225 247
-8.7734 0.7084999999999999 -0.7148 119
-12.5156 1.0117 1.3154 96
-12.406199999999998 1.002 -0.7212000000000001 54
-12.460899999999999 1.0068000000000001 1.6025 115
-12.4375 1.0049 1.8965 85
-8.7109 0.7041 -0.1013 109
-12.335899999999999 0.9965999999999999 2.1738 187
-8.2578 0.6948000000000001 -1.4541 112
-12.4922 1.0508 0.1456 79
-9.3203 0.7847 -1.4199000000000002 1
-12.5078 1.0527 0.4365 32
-10.9375 0.9204000000000001 -1.4072 125
-12.4844 1.0498 0.7261 93
-12.4219 1.0449 -1.3056999999999999 57
-12.5156 1.0527 1.0225 72
-12.414100000000001 1.0449 -1.0146 248
-12.523399999999999 1.0537 1.3163999999999998 191
-12.4219 1.0449 -0.7227 99
-12.460899999999999 1.0488 1.6035 75
-12.4375 1.0469 -0.4341 255
-12.4375 1.0469 1.8965 50
-12.3281 1.0381 2.1738 209
-8.2422 0.7212000000000001 -1.4512 137
-12.5 1.0937999999999999 0.1459 157
-9.3594 0.8184 -1.4258000000000002 127
-12.4453 1.0889 0.4346 94
-10.9297 0.9561 -1.4053 69
-12.5156 1.0947 0.7284999999999999 170
-12.4219 1.0869 -1.3056999999999999 14
-12.523399999999999 1.0957 1.0234 34
-12.4219 1.0869 -1.0146 107
-12.664100000000001 1.1084 1.3311000000000002 69
-12.4219 1.0869 -0.7231000000000001 115
-12.468800000000002 1.0908 1.6044999999999998 164
-12.4219 1.0869 -0.4336 187
-12.4297 1.0869 1.8955000000000002 194
-12.468800000000002 1.0908 -0.14550000000000002 75
-12.335899999999999 1.0791 2.1758 207
-8.2422 0.7515000000000001 -1.4512 158
-12.5 1.1396 0.1459 127
-9.3516 0.853 -1.4258000000000002 45
-12.5078 1.1406 0.4368 9
-10.914100000000001 0.9951000000000001 -1.4043 31
-12.539100000000001 1.1436 0.73 137
-12.4219 1.1328 -1.3066 214
-12.726600000000001 1.1602 1.04 165
-12.414100000000001 1.1318000000000001 -1.0146 216
-12.7344 1.1611 1.3397999999999999 144
-12.4219 1.1328 -0.7231000000000001 249
-12.468800000000002 1.1367 1.6055000000000001 251
-12.4375 1.1338 -0.4343 135
-12.414100000000001 1.1318000000000001 1.8944999999999999 229
-12.5078 1.1406 -0.146 64
-12.335899999999999 1.125 2.1777 138
-8.2109 0.7778 -1.4472999999999998 56
-12.648399999999999 1.1982 0.1477 172
-9.3516 0.8856999999999999 -1.4258000000000002 184
-12.6328 1.1963 0.4412 91
-10.8906 1.0312000000000001 -1.4013999999999998 146
-12.5078 1.1845999999999999 0.728 36
-12.4219 1.1768 -1.3066 228
-12.7422 1.207 1.042 215
-12.4219 1.1758 -1.0156 199
-12.718800000000002 1.2041 1.3378999999999999 179
-12.414100000000001 1.1758 -0.7231000000000001 228
-12.468800000000002 1.1806999999999999 1.6055000000000001 155
-12.4375 1.1777 -0.4343 138
-12.4219 1.1758 1.8955000000000002 249
-12.5547 1.1895 -0.1466 112
-12.343800000000002 1.1689 2.1777 59
-8.1875 0.8042 -1.4434 186
-12.6719 1.2441 0.1479 176
-9.3281 0.9159999999999999 -1.4228999999999998 33
-12.6094 1.2383 0.4407 72
-10.898399999999999 1.0703 -1.4022999999999999 147
-12.476600000000001 1.2256 0.7271 199
-12.4219 1.2197 -1.3066 56
-12.7422 1.251 1.042 110
-12.4297 1.2207 -1.0166 193
-12.726600000000001 1.25 1.3397999999999999 3
-12.398399999999999 1.2178 -0.7222 61
-12.476600000000001 1.2256 1.6063999999999998 143
-12.4453 1.2227 -0.43479999999999996 242
-12.4297 1.2207 1.8975 120
-12.5078 1.2285 -0.1461 158
-12.3125 1.209 2.1738 231
-8.1953 0.8334999999999999 -1.4443000000000001 132
-12.593800000000002 1.2812000000000001 0.1471 93
-9.3281 0.9497 -1.4238 167
-12.648399999999999 1.2871000000000001 0.4424 167
-10.8906 1.1074 -1.4022999999999999 135
-12.5 1.2715 0.7284999999999999 190
-12.414100000000001 1.2637 -1.3066 176
-12.726600000000001 1.2949000000000002 1.041 211
-12.4219 1.2637 -1.0166 116
-12.726600000000001 1.2949000000000002 1.3397999999999999 212
-12.406199999999998 1.2627 -0.7231000000000001 164
-12.460899999999999 1.2676 1.6055000000000001 200
-12.4297 1.2646 -0.4346 228
-12.4219 1.2646 1.8984 164
-12.539100000000001 1.2754 -0.1465 94
-12.3281 1.2539 2.1777 11
-8.1875 0.8637999999999999 -1.4443000000000001 208
-12.648399999999999 1.334 0.1478 123
-9.3125 0.9819 -1.4209 101
-12.656199999999998 1.334 0.4426 225
-10.8906 1.1484 -1.4022999999999999 114
-12.5156 1.3203 0.73 229
-12.4219 1.3096 -1.3075999999999999 93
-12.718800000000002 1.3408000000000002 1.041 36
-12.414100000000001 1.3096 -1.0156 206
-12.726600000000001 1.3418 1.3397999999999999 27
-12.4219 1.3096 -0.7236 163
-12.468800000000002 1.3144999999999998 1.6074000000000002 121
-12.4297 1.3105000000000002 -0.4346 19
-12.4297 1.3105000000000002 1.8984 15
-12.5625 1.3252000000000002 -0.1469 3
-12.343800000000002 1.3018 2.1797 72
-8.1953 0.8931 -1.4463 158
-12.648399999999999 1.3788999999999998 0.1479 37
-9.3125 1.0156 -1.4219 249
-12.6328 1.376 0.44189999999999996 143
-10.8594 1.1836 -1.3994 179
-12.4375 1.3555000000000001 0.7251000000000001 192
-12.4219 1.3544999999999998 -1.3086000000000002 2
-12.718800000000002 1.3857 1.041 30
-12.398399999999999 1.3516 -1.0156 201
-12.718800000000002 1.3866999999999998 1.3397999999999999 60
-12.4219 1.3535 -0.7241 34
-12.468800000000002 1.3594 1.6084 182
-12.4219 1.3535 -0.4346 45
-12.406199999999998 1.3525 1.8965 65
-12.5469 1.3672 -0.1467 131
-12.335899999999999 1.3437999999999999 2.1797 74
-8.1797 0.9189 -1.4434 237
-12.5625 1.4121000000000001 0.147 176
-9.3125 1.0459 -1.4219 108
-12.4844 1.4033000000000002 0.43700000000000006 164
-10.835899999999999 1.2168 -1.3965 136
-12.4922 1.4033000000000002 0.7284999999999999 56
-12.4297 1.3965 -1.3096 118
-12.726600000000001 1.4297 1.042 253
-12.414100000000001 1.3944999999999999 -1.0166 25
-12.718800000000002 1.4287 1.3408000000000002 166
-12.414100000000001 1.3944999999999999 -0.7241 118
-12.4844 1.4022999999999999 1.6103999999999998 248
-12.4297 1.3965 -0.4351 12
-12.414100000000001 1.3944999999999999 1.8984 186
-12.414100000000001 1.3944999999999999 -0.1451 90
-12.3281 1.3847999999999998 2.1797 67
-8.1562 0.9438 -1.4404 99
-12.664100000000001 1.4647999999999999 0.1482 245
-9.2891 1.0752 -1.4199000000000002 207
-12.648399999999999 1.4638999999999998 0.4429 85
-10.835899999999999 1.2539 -1.3975 131
-12.4922 1.4453 0.7290000000000001 161
-12.414100000000001 1.4365 -1.3096 224
-12.7344 1.4736000000000002 1.0439 203
-12.414100000000001 1.4365 -1.0176 83
-12.718800000000002 1.4716999999999998 1.3418 104
-12.398399999999999 1.4346 -0.7236 95
-12.476600000000001 1.4434 1.6103999999999998 240
-12.4297 1.4375 -0.4351 148
-12.4219 1.4375 1.9003999999999999 143
-12.5078 1.4472999999999998 -0.1464 159
-12.3125 1.4247999999999998 2.1777 142
-8.1484 0.9736 -1.4404 229
-12.648399999999999 1.5107 0.1481 240
-9.2734 1.1074 -1.4180000000000001 146
-12.656199999999998 1.5116999999999998 0.4434 227
-10.835899999999999 1.2938999999999998 -1.3984 237
-12.5 1.4922 0.7295 115
-12.406199999999998 1.4813999999999998 -1.3086000000000002 168
-12.6953 1.5166 1.041 72
-12.414100000000001 1.4824000000000002 -1.0176 132
-12.726600000000001 1.5194999999999999 1.3418 175
-12.398399999999999 1.4805000000000001 -0.7236 37
-12.460899999999999 1.4883000000000002 1.6084 118
-12.4219 1.4834 -0.43479999999999996 229
-12.414100000000001 1.4824000000000002 1.9003999999999999 152
-12.5078 1.4931999999999999 -0.1464 237
-12.3125 1.4707 2.1797 42
-8.1641 1.0039 -1.4434 217
-12.6094 1.5497999999999998 0.1476 201
-9.25 1.1367 -1.4141 242
-12.4297 1.5283000000000002 0.4355 141
-10.835899999999999 1.3330000000000002 -1.3994 247
-12.4453 1.5303 0.7271 223
-12.398399999999999 1.5244 -1.3086000000000002 238
-12.710899999999999 1.5625 1.042 226
-12.398399999999999 1.5244 -1.0166 135
-12.718800000000002 1.5644999999999998 1.3428 153
-12.406199999999998 1.5253999999999999 -0.7245999999999999 125
-12.468800000000002 1.5332 1.6103999999999998 134
-12.406199999999998 1.5253999999999999 -0.4346 144
-12.414100000000001 1.5263999999999998 1.9013999999999998 91
-12.4297 1.5283000000000002 -0.1456 237
-12.3203 1.5146000000000002 2.1816 62
-8.1797 1.0332 -1.4453 45
-12.601600000000001 1.5928 0.1477 237
-9.2578 1.1699 -1.4169999999999998 6
-12.601600000000001 1.5918 0.44189999999999996 128
-10.789100000000001 1.3633000000000002 -1.3936000000000002 65
-12.531199999999998 1.5830000000000002 0.7323999999999999 217
-12.4219 1.5693000000000001 -1.3115 139
-12.710899999999999 1.6055000000000001 1.043 149
-12.406199999999998 1.5674000000000001 -1.0176 228
-12.710899999999999 1.6063999999999998 1.3428 243
-12.406199999999998 1.5674000000000001 -0.7251000000000001 246
-12.4844 1.5771000000000002 1.6133000000000002 118
-12.406199999999998 1.5674000000000001 -0.4351 14
-12.406199999999998 1.5674000000000001 1.9003999999999999 114
-12.476600000000001 1.5762 -0.1462 156
-12.3281 1.5575999999999999 2.1836 24
-8.1562 1.0576 -1.4434 44
-12.656199999999998 1.6416 0.1483 35
-9.2656 1.2012 -1.4180000000000001 56
-12.6094 1.6357 0.4421 254
-10.789100000000001 1.3994 -1.3936000000000002 95
-12.539100000000001 1.626 0.7329000000000001 186
-12.4219 1.6113 -1.3125 200
-12.710899999999999 1.6494 1.0439 52
-12.406199999999998 1.6084 -1.0176 31
-12.6953 1.6475 1.3408000000000002 65
-12.3906 1.6074000000000002 -0.7245999999999999 111
-12.4844 1.6200999999999999 1.6143 240
-12.414100000000001 1.6094 -0.4353 107
-12.414100000000001 1.6094 1.9022999999999999 32
-12.4844 1.6191 -0.1462 143
-12.3203 1.5977000000000001 2.1836 149
-8.1484 1.0879 -1.4424000000000001 37
-12.656199999999998 1.6885 0.1484 81
-9.2656 1.2363 -1.4188999999999998 160
-12.6328 1.6855000000000002 0.4434 62
-10.7578 1.4355000000000002 -1.3906 107
-12.406199999999998 1.6553 0.7256 215
-12.406199999999998 1.6553 -1.3115 159
-12.6875 1.6934 1.042 67
-12.398399999999999 1.6543 -1.0186 102
-12.718800000000002 1.6963 1.3437999999999999 17
-12.3906 1.6533000000000002 -0.7245999999999999 175
-12.468800000000002 1.6641 1.6122999999999998 77
-12.4219 1.6572 -0.43579999999999997 192
-12.414100000000001 1.6562000000000001 1.9033000000000002 240
-12.4844 1.666 -0.1464 171
-12.3047 1.6425999999999998 2.1816 182
-8.1406 1.1152 -1.4413999999999998 168
-12.5469 1.7187999999999999 0.1472 126
-9.2422 1.2666 -1.416 72
-12.468800000000002 1.7080000000000002 0.43770000000000003 146
-10.7578 1.4736000000000002 -1.3906 175
-12.5781 1.7227000000000001 0.7358 116
-12.406199999999998 1.7002000000000002 -1.3115 180
-12.7031 1.7402000000000002 1.0439 251
-12.406199999999998 1.6991999999999998 -1.0195 205
-12.718800000000002 1.7431999999999999 1.3447 117
-12.3906 1.6972999999999998 -0.7251000000000001 157
-12.468800000000002 1.7080000000000002 1.6133000000000002 64
-12.4219 1.7012 -0.436 170
-12.414100000000001 1.7002000000000002 1.9043 83
-12.4375 1.7041 -0.1459 145
-12.3125 1.6865 2.1836 158
-8.1562 1.1484 -1.4453 228
-12.664100000000001 1.7822 0.1487 246
-9.2109 1.2969 -1.4121000000000001 239
-12.601600000000001 1.7734 0.4426 22
-10.75 1.5127000000000002 -1.3906 65
-12.601600000000001 1.7734 0.7378 46
-12.4219 1.7471 -1.3135 194
-12.7031 1.7871000000000001 1.0439 190
-12.398399999999999 1.7450999999999999 -1.0195 154
-12.710899999999999 1.7891 1.3447 248
-12.398399999999999 1.7441 -0.7256 146
-12.460899999999999 1.7538999999999998 1.6133000000000002 97
-12.406199999999998 1.7450999999999999 -0.4355 84
-12.398399999999999 1.7450999999999999 1.9033000000000002 129
-12.476600000000001 1.7559 -0.1465 7
-12.3125 1.7324000000000002 2.1855 186
-8.1641 1.1777 -1.4463 105
-12.6797 1.8300999999999998 0.1489 92
-9.2266 1.3311000000000002 -1.415 99
-12.593800000000002 1.8163999999999998 0.4424 235
-10.7031 1.5438999999999998 -1.3857 155
-12.601600000000001 1.8184 0.7383 125
-12.4219 1.7919999999999998 -1.3144999999999998 243
-12.6094 1.8193000000000001 1.0371 25
-12.3906 1.7881 -1.0186 3
-12.7031 1.8330000000000002 1.3447 9
-12.406199999999998 1.7891 -0.7265999999999999 241
-12.476600000000001 1.7997999999999998 1.6152000000000002 239
-12.406199999999998 1.79 -0.436 231
-12.398399999999999 1.7891 1.9033000000000002 82
-12.476600000000001 1.7997999999999998 -0.1465 51
-12.3203 1.7772999999999999 2.1875 118
-8.1484 1.2041 -1.4443000000000001 43
-12.648399999999999 1.8700999999999999 0.1487 47
-9.2109 1.3613 -1.4131 160
-12.3906 1.8311000000000002 0.4355 250
-10.726600000000001 1.5859 -1.3896000000000002 106
-12.5469 1.8555000000000001 0.7354 97
-12.4297 1.8369 -1.3154 26
-12.6875 1.875 1.0439 192
-12.398399999999999 1.8330000000000002 -1.0195 176
-12.5469 1.8544999999999998 1.3281 24
-12.3828 1.8311000000000002 -0.7256 101
-12.476600000000001 1.8447 1.6172 73
-12.414100000000001 1.835 -0.4363 192
-12.3906 1.8319999999999999 1.9043 78
-12.343800000000002 1.8252000000000002 -0.145 213
-12.2969 1.8184 2.1855 75
-8.1328 1.2314 -1.4434 46
-12.585899999999999 1.9062000000000001 0.1479 148
-9.2109 1.3944999999999999 -1.4131 151
-12.4453 1.8847999999999998 0.43770000000000003 13
-10.6953 1.6200999999999999 -1.3866999999999998 204
-12.531199999999998 1.8975 0.7349 232
-12.414100000000001 1.8799000000000001 -1.3154 139
-12.5156 1.8944999999999999 1.0303 205
-12.3906 1.8769999999999998 -1.0205 18
-12.4844 1.8906 1.3222999999999998 139
-12.3828 1.874 -0.7256 212
-12.460899999999999 1.8877000000000002 1.6162 233
-12.406199999999998 1.8788999999999998 -0.4365 84
-12.406199999999998 1.8779 1.9062000000000001 25
-12.460899999999999 1.8866999999999998 -0.1465 230
-12.3047 1.8622999999999998 2.1855 58
-8.1406 1.2598 -1.4443000000000001 155
-12.5 1.9346 0.147 58
-9.1797 1.4209 -1.4102000000000001 66
-12.4375 1.9258000000000002 0.43770000000000003 128
-10.6875 1.6553 -1.3857 45
-12.4844 1.9325999999999999 0.7323999999999999 50
-12.398399999999999 1.9188999999999998 -1.3135 71
-12.468800000000002 1.9306999999999999 1.0273 227
-12.414100000000001 1.9209 -1.0225 3
-12.476600000000001 1.9316 1.3222999999999998 103
-12.375 1.915 -0.7256 211
-12.4297 1.9238 1.6122999999999998 223
-12.406199999999998 1.9199000000000002 -0.4365 69
