# .PCD v0.7 - Point Cloud Data file format
VERSION 0.7
FIELDS x y z intensity
SIZE 4 4 4 4
TYPE F F F F
COUNT 1 1 1 1
WIDTH 1391
HEIGHT 1
VIEWPOINT 0 0 0 1 0 0 0
POINTS 1391
DATA ascii
17.25 21.1719 3.5077999999999996 82
17.5938 21.5938 4.2422 94
14.8125 18.1719 -0.2732 129
18.6719 22.9219 5.207000000000001 158
5.0898 6.203099999999999 -1.4072 28
5.7890999999999995 7.0586 -1.3857 135
22.2031 27.0625 1.2207 173
6.6484000000000005 8.1094 -1.3437999999999999 13
22.1562 27.0156 2.0293 101
7.8711 9.5938 -1.2997999999999998 4
9.5859 11.6797 -1.2305 82
17.7656 21.6719 2.9414 211
12.2656 14.9531 -1.1220999999999999 46
17.3125 21.0938 3.5058999999999996 42
17.5312 21.375 4.207 217
14.906199999999998 18.1719 -0.27390000000000003 131
18.7969 22.9062 5.2188 222
5.1094 6.1875 -1.4082 125
5.8164 7.042999999999999 -1.3866999999999998 47
22.3281 27.0312 1.2227 4
6.6914 8.1016 -1.3466999999999998 95
22.3125 27.0312 2.0371 153
7.9140999999999995 9.5859 -1.3018 18
9.625 11.656199999999998 -1.2314 110
17.9062 21.6875 2.9512 162
12.3047 14.898399999999999 -1.1211 129
17.5469 21.2344 3.5370999999999997 8
17.6094 21.3281 4.2109 13
15.0078 18.1719 -0.2747 129
20.3438 24.6406 5.6289 137
5.1484000000000005 6.1875 -1.4121000000000001 101
5.8438 7.019500000000001 -1.3866999999999998 156
22.5 27.0312 1.2266 168
6.7265999999999995 8.0859 -1.3477000000000001 219
22.4844 27.0 2.041 105
7.9765999999999995 9.5859 -1.3056999999999999 207
9.6719 11.625 -1.2314 175
17.9375 21.5625 2.9433999999999996 238
12.3594 14.851600000000001 -1.1211 121
17.625 21.1719 3.5370999999999997 113
17.6875 21.25 4.2109 175
15.101600000000001 18.1406 -0.2751 97
20.4844 24.6094 5.636699999999999 69
5.175800000000001 6.171900000000001 -1.4131 23
5.886699999999999 7.0234000000000005 -1.3916 72
22.6562 27.0312 1.2305 134
6.769500000000001 8.0781 -1.3496000000000001 170
22.6406 27.0156 2.0488 187
8.0156 9.5625 -1.3066 164
20.4219 24.3594 2.5938 227
9.7188 11.601600000000001 -1.2324 149
18.7969 22.4219 3.0723000000000003 118
12.414100000000001 14.8125 -1.1220999999999999 85
18.1094 21.6094 3.6211 149
18.25 21.7812 4.3242 167
15.1953 18.125 -0.2756 23
5.1953 6.1562 -1.4131 184
5.9140999999999995 7.0078 -1.3916 50
6.8047 8.0625 -1.3516 27
22.7969 27.0 2.0527 90
8.0703 9.5625 -1.3105000000000002 232
20.4531 24.2344 2.5858999999999996 211
9.7812 11.593800000000002 -1.2354 95
18.4531 21.8594 3.002 29
12.4453 14.75 -1.1201 238
18.2656 21.6406 3.6367000000000003 65
18.2969 21.6875 4.3203 189
15.281199999999998 18.1094 -0.2761 252
5.2188 6.140599999999999 -1.4141 16
5.9609000000000005 7.015599999999999 -1.3975 36
23.0 27.0625 1.2383 109
6.8438 8.0547 -1.3544999999999998 165
22.9375 27.0 2.0586 36
8.1016 9.5312 -1.3105000000000002 48
18.9531 22.2969 2.3867 248
9.8281 11.5703 -1.2363 253
18.5312 21.8281 3.0039 38
12.476600000000001 14.6875 -1.1181999999999999 20
18.5625 21.8438 3.6816000000000004 119
18.4531 21.7344 4.3398 204
15.375 18.0938 -0.27690000000000003 15
5.2422 6.125 -1.4141 246
5.984400000000001 6.9922 -1.3965 139
23.0156 26.9062 1.2344 188
6.890599999999999 8.0469 -1.3574000000000002 246
23.0938 26.9844 2.0645 131
8.1406 9.5156 -1.3115 33
19.0625 22.2812 2.3906 249
9.875 11.531199999999998 -1.2363 254
19.8125 23.1406 3.1973000000000003 165
12.5781 14.6953 -1.123 208
19.5938 22.8906 3.8691000000000004 186
18.5469 21.6719 4.3438 79
15.476600000000001 18.0781 -0.2773 176
5.2852 6.1328 -1.4199000000000002 22
6.0039 6.9648 -1.3955000000000002 4
23.0781 26.7656 1.2324 145
6.925800000000001 8.0391 -1.3594 126
23.2656 26.9844 2.0703 228
8.1797 9.4922 -1.3125 223
19.1406 22.2031 2.3906 106
9.9297 11.5156 -1.2383 35
19.9688 23.1719 3.2108999999999996 56
12.726600000000001 14.7656 -1.1309 154
20.1406 23.375 3.9629000000000003 150
18.7812 21.7969 4.3828 93
15.585899999999999 18.0781 -0.2783 136
20.6719 23.9688 5.574199999999999 226
5.3086 6.1172 -1.4209 115
6.0352 6.957000000000001 -1.3975 103
23.2344 26.7656 1.2363 74
6.9648 8.0312 -1.3613 95
23.4219 26.9844 2.0762 58
8.2422 9.4922 -1.3163999999999998 163
19.2188 22.1562 2.3926 24
9.9844 11.5 -1.2402 126
19.3125 22.25 3.0918 179
12.773399999999999 14.718800000000002 -1.1309 56
18.5938 21.4219 3.6445 34
18.7812 21.6406 4.3633 185
15.6719 18.0625 -0.2788 218
20.7344 23.8906 5.5703 207
5.324199999999999 6.0938 -1.4199000000000002 26
6.0859000000000005 6.9648 -1.4043 180
23.375 26.7656 1.2393 38
6.9961 8.0078 -1.3622999999999998 223
23.5625 26.9688 2.082 104
8.2734 9.4766 -1.3174000000000001 21
19.2656 22.0469 2.3887 84
10.0312 11.4844 -1.2422 222
20.0312 22.9375 3.1952999999999996 214
12.835899999999999 14.6953 -1.1328 149
18.6406 21.3281 3.6387 67
18.8594 21.5938 4.3672 182
15.7656 18.0469 -0.2793 11
5.3477 6.074199999999999 -1.4199000000000002 100
6.1015999999999995 6.9336 -1.4022999999999999 73
23.7656 27.0156 1.2549 189
7.0390999999999995 8.0 -1.3652000000000002 183
23.7344 26.9688 2.0879 18
8.3125 9.4375 -1.3174000000000001 157
19.6875 22.375 2.4316 138
10.0859 11.460899999999999 -1.2431999999999999 138
12.8828 14.6406 -1.1318000000000001 23
18.7188 21.2656 3.6387 209
15.8672 18.0312 -0.28 178
5.3828 6.074199999999999 -1.4238 165
6.1484000000000005 6.9375 -1.4072 239
23.9375 27.0 1.2578 30
7.082000000000001 7.988300000000001 -1.3681999999999999 100
23.9062 26.9688 2.0938 128
8.3594 9.4297 -1.3193000000000001 175
19.5312 22.0312 2.4004 237
10.1484 11.4531 -1.2461 163
19.4531 21.9531 3.0781 117
12.9453 14.601600000000001 -1.1328 87
19.1094 21.5625 3.7012 56
15.976600000000001 18.0156 -0.2808 163
5.4140999999999995 6.0664 -1.4258000000000002 137
6.1602 6.8984000000000005 -1.4043 119
24.0625 26.9688 1.2607 219
7.1211 7.9765999999999995 -1.3700999999999999 239
24.0781 26.9688 2.1016 171
8.4141 9.4219 -1.3232 46
19.6094 21.9688 2.4004 105
10.2031 11.4297 -1.2470999999999999 230
19.4688 21.8281 3.0702999999999996 41
12.968800000000002 14.531199999999998 -1.1299 115
16.0781 18.0156 -0.2815 255
5.449199999999999 6.0625 -1.4297 122
6.1875 6.8828 -1.4053 139
24.3125 27.0625 1.2686 134
7.1602 7.9648 -1.3721 195
24.25 26.9688 2.1074 58
8.4531 9.4062 -1.3252000000000002 110
19.6562 21.875 2.3984 164
10.25 11.406199999999998 -1.249 108
13.085899999999999 14.5625 -1.1367 244
16.1719 17.9844 -0.282 141
5.4727 6.046900000000001 -1.4306999999999999 43
6.2265999999999995 6.8789 -1.4082 236
24.5625 27.1406 1.2764 69
7.1875 7.9414 -1.3721 101
24.3906 26.9531 2.1113 104
8.5 9.3906 -1.3271000000000002 192
19.7656 21.8438 2.4023 42
10.3047 11.3906 -1.251 204
13.1172 14.4844 -1.1348 152
16.2656 17.9688 -0.2825 134
5.488300000000001 6.0234000000000005 -1.4297 90
6.261699999999999 6.8711 -1.4111000000000002 214
24.7812 27.1875 1.2822 73
7.238300000000001 7.9414 -1.3769999999999998 203
24.5781 26.9531 2.1191 96
8.5547 9.3828 -1.3300999999999998 120
19.8281 21.75 2.4004 133
10.375 11.375 -1.2539 183
13.1875 14.468800000000002 -1.1357 156
16.375 17.9531 -0.2832 74
5.515599999999999 6.011699999999999 -1.4306999999999999 94
6.2812 6.8438 -1.4102000000000001 175
24.9531 27.1719 1.2861000000000002 168
7.2812 7.9336 -1.3799000000000001 245
24.7344 26.9375 2.125 168
8.5859 9.3516 -1.3291 79
10.4531 11.3828 -1.2588 130
13.25 14.4297 -1.1367 211
16.5312 18.0156 -0.8521 169
16.4688 17.9531 -0.2839 71
5.5586 6.011699999999999 -1.4365 140
6.3086 6.828099999999999 -1.4111000000000002 43
25.0781 27.125 1.2881 9
7.328099999999999 7.925800000000001 -1.3828 132
24.9062 26.9531 2.1328 216
8.625 9.3359 -1.3311000000000002 179
10.531199999999998 11.3906 -1.2637 73
13.3125 14.398399999999999 -1.1387 7
16.5625 17.9219 -0.2844 175
5.5859000000000005 6.0039 -1.4385 11
16.875 18.1406 0.2888 162
6.3398 6.8164 -1.4131 154
25.2188 27.1094 1.291 113
7.3515999999999995 7.9023 -1.3828 244
25.0781 26.9531 2.1387 75
8.6797 9.3281 -1.334 221
10.5781 11.375 -1.2656 105
13.3828 14.3828 -1.1406 48
16.7969 18.0469 -0.8589 79
16.6719 17.9219 -0.2852 214
5.6015999999999995 5.980499999999999 -1.4375 125
16.9688 18.1094 0.2893 213
6.390599999999999 6.824199999999999 -1.4188999999999998 38
25.4375 27.1719 1.2978999999999998 242
7.386699999999999 7.886699999999999 -1.3847999999999998 88
21.9531 23.4375 1.8652000000000002 205
8.7188 9.3125 -1.3369 251
10.6094 11.3281 -1.2637 32
13.4453 14.351600000000001 -1.1416 132
16.8438 17.9844 -0.8584 106
16.7656 17.9062 -0.2859 184
5.625 5.9609000000000005 -1.4385 24
17.0938 18.1094 0.2903 157
6.417999999999999 6.800800000000001 -1.4199000000000002 250
25.6094 27.1406 1.3018 93
7.4375 7.8789 -1.3887 80
25.4062 26.9219 2.1523 7
8.7656 9.2891 -1.3378999999999999 182
10.6875 11.3203 -1.2676 218
13.476600000000001 14.281199999999998 -1.1396 229
16.9375 17.9531 -0.8599 117
16.875 17.875 -0.2866 31
5.6562 5.949199999999999 -1.4404 168
17.2188 18.125 0.2915 104
6.449199999999999 6.7890999999999995 -1.4209 50
25.75 27.1094 1.3037 17
7.4765999999999995 7.8672 -1.3906 43
25.5938 26.9219 2.1582 2
8.8125 9.2734 -1.3397999999999999 232
10.718800000000002 11.281199999999998 -1.2676 15
13.539100000000001 14.25 -1.1406 29
17.0469 17.9375 -0.8628 25
16.9844 17.875 -0.2874 245
5.6875 5.9453 -1.4434 26
26.0469 27.2344 0.4399 89
6.480499999999999 6.7734000000000005 -1.4228999999999998 223
25.9219 27.0938 1.3075999999999999 70
7.5234000000000005 7.863300000000001 -1.3944999999999999 164
25.7812 26.9375 2.166 160
8.8594 9.2578 -1.3418 203
10.7578 11.25 -1.2676 233
13.6328 14.25 -1.1445 234
55.5 58.0 10.3203 170
17.0938 17.875 -0.8618000000000001 228
17.0938 17.875 -0.2883 96
5.7109000000000005 5.9297 -1.4443000000000001 92
6.5234000000000005 6.7734000000000005 -1.4277000000000002 33
26.0625 27.0781 1.3105000000000002 47
7.5547 7.8438 -1.3955000000000002 213
25.9375 26.9375 2.1738 43
8.9062 9.2422 -1.3447 25
10.7969 11.210899999999999 -1.2676 182
13.6797 14.2031 -1.1445 87
17.1875 17.8594 -0.2891 176
5.7265999999999995 5.9023 -1.4434 60
26.25 27.0469 0.4399 57
6.5664 6.765599999999999 -1.4306999999999999 52
26.1562 26.9531 1.3096 39
7.5977 7.828099999999999 -1.3975 10
26.125 26.9219 2.1797 198
8.9531 9.2266 -1.3466999999999998 138
10.8672 11.1953 -1.2705 200
13.718800000000002 14.1406 -1.1436 100
20.4375 21.0625 -1.0234 226
17.3281 17.8438 -0.29 83
5.75 5.886699999999999 -1.4434 211
6.5977 6.75 -1.4325999999999999 157
26.3125 26.9219 1.3125 14
7.640599999999999 7.8164 -1.4003999999999999 39
26.2969 26.9062 2.1875 211
8.9922 9.2031 -1.3486000000000002 7
10.9375 11.1953 -1.2744 228
13.789100000000001 14.1094 -1.1455 252
20.625 21.1094 -1.0283 252
17.4531 17.8594 -0.2913 22
5.7812 5.8789 -1.4463 175
26.5625 27.0156 0.4421 17
6.609400000000001 6.7227 -1.4306999999999999 82
26.4688 26.9219 1.3163999999999998 176
7.6836 7.8125 -1.4043 210
26.4688 26.9062 2.1934 142
9.0391 9.1953 -1.3506 238
10.9844 11.1719 -1.2754 43
13.8594 14.093800000000002 -1.1475 247
20.75 21.1094 -1.0322 220
5.8203 5.8789 -1.4512 231
26.8125 27.0938 0.4448 36
6.636699999999999 6.707000000000001 -1.4325999999999999 28
26.7031 26.9688 1.3232 32
7.7227 7.800800000000001 -1.4062000000000001 96
26.6562 26.9219 2.2012 173
9.0781 9.1719 -1.3516 83
11.031199999999998 11.1406 -1.2764 39
13.9297 14.0703 -1.1494 4
5.855499999999999 5.8711 -1.4550999999999998 218
27.0156 27.0625 0.44630000000000003 140
6.6914 6.707000000000001 -1.4385 17
26.8281 26.8906 1.3252000000000002 146
7.7539 7.769500000000001 -1.4062000000000001 133
26.8438 26.9062 2.209 99
9.1484 9.1641 -1.3563999999999998 45
11.101600000000001 11.125 -1.2803 165
14.0156 14.0469 -1.1523 185
21.1875 21.2344 -0.34990000000000004 174
5.875 5.8438 -1.4541 115
6.7265999999999995 6.6914 -1.4404 121
26.8594 26.7188 1.3213 25
7.7890999999999995 7.75 -1.4082 18
27.0469 26.8906 2.2168 188
9.1875 9.1406 -1.3574000000000002 87
11.156199999999998 11.093800000000002 -1.2812000000000001 110
14.085899999999999 14.0156 -1.1533 32
5.9062 5.8359000000000005 -1.4561000000000002 107
27.4062 27.0781 0.4497 190
6.769500000000001 6.6914 -1.4453 124
26.8906 26.5781 1.3184 151
7.8477 7.7539 -1.4141 226
27.2031 26.8906 2.2227 98
9.2344 9.125 -1.3594 49
11.218800000000002 11.085899999999999 -1.2841999999999998 172
14.1797 14.0156 -1.1572 165
21.2656 21.0156 -0.3486 114
5.9336 5.8203 -1.4580000000000002 251
27.6094 27.0938 0.4514 74
6.796900000000001 6.667999999999999 -1.4453 201
27.1094 26.6094 1.3241999999999998 106
7.8828 7.734400000000001 -1.415 130
27.3906 26.8906 2.2305 97
9.2734 9.1016 -1.3603999999999998 203
11.2578 11.0469 -1.2841999999999998 68
14.2344 13.968800000000002 -1.1572 185
21.375 20.9688 -0.3494 77
5.9688 5.8203 -1.4628999999999999 160
27.7031 27.0156 0.4514 84
6.828099999999999 6.6602 -1.4482 234
27.2656 26.5938 1.3281 77
7.921900000000001 7.7227 -1.4180000000000001 69
27.5781 26.8906 2.2383 91
9.3125 9.0781 -1.3622999999999998 153
11.3047 11.031199999999998 -1.2861000000000002 102
14.2969 13.9375 -1.1592 36
6.0 5.8125 -1.4647999999999999 46
6.8711 6.6562 -1.4521000000000002 106
27.4062 26.5625 1.3311000000000002 54
7.957000000000001 7.707000000000001 -1.4188999999999998 186
27.7656 26.8906 2.2461 88
9.3672 9.0703 -1.3662 87
11.343800000000002 10.9922 -1.2861000000000002 241
14.3828 13.9297 -1.1621 103
6.0547 5.824199999999999 -1.4746000000000001 231
28.0312 26.9531 0.4539 249
6.921900000000001 6.6562 -1.4569999999999999 168
27.9375 26.8594 1.3516 55
7.988300000000001 7.6836 -1.4199000000000002 119
27.9219 26.8594 2.252 14
9.4219 9.0625 -1.3691 237
11.398399999999999 10.960899999999999 -1.2881 240
14.4219 13.8672 -1.1611 34
6.949199999999999 6.636699999999999 -1.459 239
28.2031 26.9219 1.3594 98
8.0391 7.675800000000001 -1.4238 35
28.1406 26.8594 2.2617 138
9.4531 9.0312 -1.3691 212
11.468800000000002 10.9531 -1.291 152
14.5078 13.8594 -1.165 186
28.5469 27.0625 0.45899999999999996 45
7.0078 6.640599999999999 -1.4658000000000002 249
30.375 28.7969 1.46 58
8.0938 7.667999999999999 -1.4287 156
28.3281 26.8594 2.2695 28
9.5 9.0078 -1.3721 132
11.5 10.906199999999998 -1.291 71
14.601600000000001 13.835899999999999 -1.168 6
7.0352 6.6211 -1.4668 35
28.7031 27.0156 1.374 245
8.1172 7.644500000000001 -1.4287 40
28.5312 26.8594 2.2773 152
9.5469 8.9844 -1.3730000000000002 223
11.5703 10.8906 -1.2938999999999998 126
14.6719 13.8125 -1.1699 127
30.3906 28.4219 0.48560000000000003 204
7.1484000000000005 6.6875 -1.4863 136
28.8906 27.0156 1.3799000000000001 32
8.1641 7.636699999999999 -1.4325999999999999 51
28.7188 26.875 2.2852 232
9.5938 8.9766 -1.3769999999999998 150
11.601600000000001 10.851600000000001 -1.2938999999999998 191
14.726600000000001 13.781199999999998 -1.1709 164
0.6318 0.5874 -0.1448 240
30.3906 28.2344 0.4841 14
29.0781 27.0156 1.3838 31
8.1953 7.6172 -1.4336000000000002 162
28.9062 26.8594 2.293 79
9.6406 8.9609 -1.3788999999999998 106
27.7344 25.7656 3.0879000000000003 76
11.6797 10.851600000000001 -1.2978999999999998 217
14.773399999999999 13.726600000000001 -1.1709 103
22.8906 21.2812 -0.36450000000000005 99
0.5761999999999999 0.5317000000000001 -0.1309 61
30.3438 27.9844 0.4819 209
29.2812 27.0156 1.3896000000000002 65
8.2422 7.6015999999999995 -1.4365 228
29.1094 26.8438 2.3008 119
9.6719 8.9219 -1.3788999999999998 208
11.75 10.835899999999999 -1.3018 161
14.835899999999999 13.6875 -1.1719 31
22.9219 21.1562 -1.0879 82
23.1094 21.3125 -0.3667 22
0.6274000000000001 0.5747 -0.1426 229
30.3281 27.7812 0.4802 118
29.4844 27.0 1.3944999999999999 193
8.2812 7.582000000000001 -1.4385 65
29.2969 26.8438 2.3086 238
9.7266 8.9062 -1.3809 157
27.7031 25.375 3.0645 127
11.781199999999998 10.7969 -1.3018 76
14.906199999999998 13.656199999999998 -1.1738 75
58.4062 53.5 10.1797 91
23.1406 21.2031 -1.0937999999999999 0
23.375 21.4062 -0.3696 60
0.5859000000000001 0.5327000000000001 -0.1322 184
30.3438 27.5938 0.4788 95
29.6875 27.0 1.3994 177
8.3281 7.578099999999999 -1.4434 169
27.6875 25.1875 2.1758 12
9.7656 8.8828 -1.3828 24
27.7969 25.2812 3.0645 35
11.8125 10.75 -1.3008000000000002 124
14.968800000000002 13.6172 -1.1748 82
23.2656 21.1562 -1.0967 68
30.2344 27.5156 -0.47729999999999995 119
0.6021 0.5439 -0.13570000000000002 38
0.6675 0.603 -0.1307 81
30.2656 27.3438 1.4228999999999998 1
8.3516 7.546900000000001 -1.4424000000000001 83
27.8281 25.1406 2.1797 199
9.8047 8.8594 -1.3847999999999998 69
27.7812 25.0938 3.0526999999999997 188
11.8672 10.718800000000002 -1.3027000000000002 96
15.0625 13.601600000000001 -1.1777 214
0.5835 0.5234000000000001 -0.1309 252
30.1094 27.0 1.4111000000000002 25
8.3984 7.5273 -1.4453 57
27.7344 24.8594 2.1641 17
9.8672 8.8438 -1.3887 185
28.1406 25.2344 3.0839999999999996 109
11.9297 10.6953 -1.3047 169
15.1172 13.5547 -1.1787 128
30.0625 26.9531 -0.4714 41
0.5796 0.5161 -0.1294 245
0.6718999999999999 0.5981000000000001 -0.1307 6
30.1562 26.8438 1.4082 195
8.4375 7.515599999999999 -1.4482 188
27.6719 24.6406 2.1523 230
9.8984 8.8125 -1.3887 37
28.25 25.1406 3.0858999999999996 201
11.968800000000002 10.656199999999998 -1.3056999999999999 132
28.7031 25.5469 4.0352 89
15.210899999999999 13.5469 -1.1826 145
30.2656 26.9531 -0.4731 0
0.5757 0.5088 -0.1281 216
0.6738 0.5957 -0.1307 64
30.3594 26.8438 1.4131 52
8.4922 7.5078 -1.4521000000000002 6
27.7656 24.5469 2.1523 232
9.9531 8.7969 -1.3916 117
27.8281 24.6094 3.0312 141
12.0469 10.648399999999999 -1.3096 59
15.273399999999999 13.5 -1.1836 188
0.5981000000000001 0.5249 -0.1329 53
28.9219 25.3906 1.3418 31
8.5312 7.4922 -1.4550999999999998 194
27.7188 24.3281 2.1426 246
9.9922 8.7734 -1.3925999999999998 225
28.0469 24.625 3.0449 239
12.085899999999999 10.6094 -1.3096 191
15.343800000000002 13.468800000000002 -1.1855 162
0.6118 0.5332 -0.13570000000000002 30
30.8125 26.875 1.4258000000000002 107
8.5625 7.4688 -1.4561000000000002 194
27.9375 24.3594 2.1543 179
10.0312 8.75 -1.3944999999999999 161
28.2188 24.6094 3.0547000000000004 176
12.1172 10.5625 -1.3096 193
15.406199999999998 13.4375 -1.1865 108
31.5938 27.5469 -0.4893 33
0.5776 0.5005 -0.1273 62
31.6875 27.4531 0.48950000000000005 71
29.4375 25.5 1.3584 7
8.6016 7.449199999999999 -1.4580000000000002 67
27.9531 24.2188 2.1484 222
10.0703 8.7266 -1.3955000000000002 86
28.6406 24.8125 3.0918 10
12.148399999999999 10.523399999999999 -1.3096 64
15.4922 13.4219 -1.1895 246
31.6562 27.4219 -0.4888 248
0.5854 0.5034000000000001 -0.1288 8
31.7188 27.2656 0.48829999999999996 114
31.2188 26.8438 1.4355000000000002 44
8.6406 7.4336 -1.4609 58
27.9531 24.0469 2.1426 132
10.125 8.7109 -1.3994 30
28.8906 24.8438 3.1094 205
12.210899999999999 10.5 -1.3115 235
15.539100000000001 13.3594 -1.1895 253
0.5874 0.5015 -0.1288 82
31.4219 26.8281 1.4413999999999998 237
8.6875 7.4140999999999995 -1.4638999999999998 62
27.8125 23.75 2.125 78
10.1484 8.6641 -1.3984 224
12.25 10.460899999999999 -1.3125 67
15.6328 13.351600000000001 -1.1934 219
26.3438 22.4844 -1.208 125
0.6191 0.5249 -0.13570000000000002 112
31.7656 26.9219 0.4861 4
0.6859999999999999 0.5815 -0.1307 126
28.7656 24.3906 1.3154 188
8.7266 7.3984000000000005 -1.4658000000000002 215
28.0938 23.8281 2.1406 189
10.2109 8.6562 -1.4022999999999999 251
28.9844 24.5625 3.0995999999999997 246
12.289100000000001 10.414100000000001 -1.3125 1
15.6797 13.2969 -1.1934 104
0.6147 0.5176 -0.1343 234
31.8906 26.8438 1.4541 56
8.75 7.3672 -1.4658000000000002 50
28.2656 23.7969 2.1465 241
10.2656 8.6406 -1.4062000000000001 174
12.343800000000002 10.3906 -1.3135 150
15.7578 13.2656 -1.1953 27
26.3438 22.1719 -1.2012 184
0.5864 0.49 -0.1273 8
29.1094 24.3281 1.3232 234
8.7891 7.3477 -1.4687999999999999 49
28.6406 23.9375 2.1699 92
10.3125 8.6172 -1.4082 117
12.406199999999998 10.3672 -1.3163999999999998 234
15.835899999999999 13.2344 -1.1982 123
0.5913 0.4905 -0.1281 108
0.6923999999999999 0.5747 -0.1307 247
30.6094 25.4062 1.3877000000000002 12
8.8281 7.328099999999999 -1.4707 168
27.75 23.0312 2.0957 218
10.375 8.6094 -1.4121000000000001 206
12.5 10.375 -1.3232 197
28.7031 23.8281 3.9160000000000004 26
15.906199999999998 13.2031 -1.2002 162
25.5938 21.2344 -0.38789999999999997 170
0.6021 0.4961 -0.1301 182
0.6943 0.5722999999999999 -0.1307 101
30.7812 25.375 1.3916 88
8.8828 7.324199999999999 -1.4756 2
27.7969 22.9062 2.0938 25
10.414100000000001 8.5781 -1.4131 95
29.625 24.4219 3.1327999999999996 235
12.5625 10.351600000000001 -1.3262 78
29.3438 24.1875 3.9922000000000004 207
15.9844 13.1719 -1.2021 47
25.6406 21.1406 -0.38770000000000004 101
0.6035 0.4941 -0.1301 226
29.2031 23.9062 0.4404 24
0.6962999999999999 0.5698 -0.1307 35
30.7656 25.1875 1.3866999999999998 98
8.9141 7.296900000000001 -1.4766 89
28.0469 22.9688 2.1074 81
10.4531 8.5625 -1.415 77
29.8125 24.4062 3.1426 213
12.601600000000001 10.3203 -1.3262 249
28.8438 23.6094 3.9141000000000004 23
16.0625 13.156199999999998 -1.2051 217
25.6875 21.0312 -0.3872 115
0.6143 0.4993 -0.1322 100
0.6981999999999999 0.5674 -0.1307 73
8.9688 7.2890999999999995 -1.4805000000000001 56
28.125 22.8594 2.1055 148
10.5078 8.5391 -1.4180000000000001 160
12.664100000000001 10.289100000000001 -1.3291 217
29.0781 23.6406 3.9355 252
16.1406 13.1094 -1.207 99
25.75 20.9219 -0.387 246
0.6225999999999999 0.502 -0.1335 80
9.0469 7.300800000000001 -1.4902000000000002 184
28.4375 22.9375 2.123 231
10.539100000000001 8.5 -1.4180000000000001 227
28.4375 22.9375 2.9805 23
12.7031 10.25 -1.3300999999999998 175
29.9375 24.1562 4.0391 104
16.2031 13.0781 -1.209 196
25.875 20.875 -0.38789999999999997 224
0.6211 0.4976 -0.1329 57
0.7021 0.5625 -0.1307 46
9.0938 7.2852 -1.4931999999999999 118
28.625 22.9375 2.1309 80
10.585899999999999 8.4766 -1.4209 237
29.2031 23.4062 3.0526999999999997 24
12.7656 10.2266 -1.3319999999999999 27
30.0781 24.0938 4.0469 145
16.2656 13.031199999999998 -1.21 127
26.0312 20.8594 -0.3892 137
0.6133 0.488 -0.1309 174
29.5781 23.5312 0.4412 199
0.7041 0.5600999999999999 -0.1307 62
9.1641 7.2852 -1.5 132
28.6562 22.7969 2.127 195
10.6172 8.4453 -1.4219 29
29.4375 23.4062 3.0683999999999996 171
12.8281 10.2031 -1.335 111
30.0625 23.9219 4.0352 48
16.3438 13.0078 -1.2129 75
26.1875 20.8281 -0.39039999999999997 250
0.5996 0.4736 -0.1273 85
0.7061 0.5576 -0.1307 255
29.8281 23.5625 1.3262 167
9.2031 7.265599999999999 -1.5029 56
28.8281 22.7656 2.1348 53
10.6797 8.4375 -1.4258000000000002 54
29.3594 23.1875 3.0526999999999997 172
12.8828 10.1719 -1.3369 196
29.375 23.2031 3.9297000000000004 60
16.4375 12.9844 -1.2168 77
26.375 20.8281 -0.3921 134
0.6353 0.49829999999999997 -0.135 57
0.708 0.5552 -0.1307 233
29.8125 23.375 1.3213 158
9.25 7.2539 -1.5068000000000001 100
28.8281 22.6094 2.1289 163
10.7344 8.4219 -1.4297 56
12.9219 10.1328 -1.3378999999999999 86
16.5156 12.9531 -1.2187999999999999 169
26.5625 20.8281 -0.39380000000000004 86
0.6187 0.4814 -0.1309 38
0.71 0.5527000000000001 -0.1307 92
29.9375 23.3125 1.3232 111
9.2891 7.230499999999999 -1.5088 113
29.0156 22.5938 2.1367 191
10.789100000000001 8.3984 -1.4325999999999999 216
29.3281 22.8281 3.0312 205
12.976600000000001 10.1016 -1.3397999999999999 47
16.5781 12.906199999999998 -1.2197 5
26.7188 20.7969 -0.395 172
0.583 0.45039999999999997 -0.1225 50
0.7119 0.5503 -0.1307 236
30.2031 23.3438 1.3311000000000002 7
9.3438 7.2188 -1.5137 98
10.8203 8.3672 -1.4325999999999999 159
29.5 22.7969 3.0410000000000004 208
13.0469 10.0859 -1.3437999999999999 141
29.75 23.0 3.9473000000000003 13
16.6875 12.898399999999999 -1.2246 39
26.9062 20.7969 -0.3967 234
0.5938 0.4558 -0.1246 63
0.6820999999999999 0.5239 -0.1246 219
31.25 24.0 1.374 242
9.3828 7.203099999999999 -1.5156 24
29.1562 22.3906 2.1367 139
10.8828 8.3516 -1.4375 101
29.5781 22.7188 3.043 194
13.1328 10.0859 -1.3486000000000002 3
29.7812 22.8594 3.9414 172
16.7812 12.8828 -1.2275 79
27.0938 20.7969 -0.39840000000000003 191
0.6172 0.4707 -0.1294 144
0.7153 0.5454 -0.1307 218
31.2188 23.8125 1.3691 155
9.4297 7.1875 -1.5194999999999999 127
28.3594 21.625 2.0723 134
10.914100000000001 8.3281 -1.4385 91
29.7031 22.6562 3.0488 225
13.156199999999998 10.0391 -1.3477000000000001 11
29.5312 22.5156 3.8983999999999996 122
16.8438 12.843800000000002 -1.2305 190
27.25 20.7812 -0.39990000000000003 150
0.6406000000000001 0.4849 -0.1343 68
0.7173 0.5429999999999999 -0.1307 34
35.3125 26.7188 1.5449000000000002 69
9.4766 7.171900000000001 -1.5234 193
28.4844 21.5625 2.0762 234
10.9844 8.3125 -1.4434 196
30.0625 22.75 3.0762 205
13.2031 9.9922 -1.3486000000000002 128
29.75 22.5156 3.9160000000000004 187
16.9375 12.8203 -1.2334 183
27.4375 20.7656 -0.40159999999999996 162
0.6489 0.4875 -0.13570000000000002 0
0.6592 0.4954 -0.1192 119
31.2812 23.5 1.3643 128
9.5078 7.144500000000001 -1.5244 68
30.0469 22.5781 2.1836 87
11.039100000000001 8.2969 -1.4472999999999998 93
30.7031 23.0625 3.1327999999999996 203
13.281199999999998 9.9766 -1.3525 11
29.6562 22.2812 3.8945 226
17.0156 12.781199999999998 -1.2354 233
27.625 20.7656 -0.4033 139
0.6157 0.4592 -0.1281 10
0.6958 0.519 -0.1259 29
35.8125 26.7188 1.5586000000000002 241
9.4688 7.0625 -1.5137 182
30.125 22.4688 2.1836 236
11.0703 8.2578 -1.4472999999999998 54
29.8438 22.25 3.0370999999999997 244
13.3594 9.9609 -1.3574000000000002 166
29.7969 22.2344 3.9023000000000003 55
17.1094 12.7656 -1.2393 72
27.8125 20.75 -0.4048 222
0.6362 0.47119999999999995 -0.1322 6
0.6689 0.4954 -0.1204 233
36.0312 26.6719 1.5635 154
9.4531 6.9961 -1.5068000000000001 115
30.2969 22.4375 2.1914 83
11.1094 8.2266 -1.4482 136
29.75 22.0312 3.0214999999999996 56
13.3906 9.9141 -1.3574000000000002 133
29.9688 22.2031 3.9160000000000004 167
17.1562 12.710899999999999 -1.2402 169
28.0 20.7344 -0.4067 160
0.6572 0.4829 -0.1364 216
0.6675 0.4907 -0.1198 163
36.3125 26.6875 1.5713 128
9.4844 6.9727 -1.5088 149
30.5312 22.4531 2.2031 236
11.1797 8.2188 -1.4531 149
29.2344 21.4844 2.9608999999999996 246
13.468800000000002 9.9062 -1.3622999999999998 216
29.9844 22.0312 3.9062 74
17.2656 12.6953 -1.2441 111
28.2188 20.75 -0.40869999999999995 113
0.6362 0.4644 -0.1315 150
0.6787000000000001 0.4954 -0.1216 60
9.5 6.9336 -1.5078 94
30.2344 22.0625 2.1758 120
11.210899999999999 8.1797 -1.4541 145
29.2188 21.3281 2.9512 151
13.5078 9.8594 -1.3622999999999998 181
29.9531 21.8594 3.8945 84
17.375 12.6797 -1.249 243
31.8594 23.25 -1.375 192
28.4219 20.7344 -0.4104 143
0.6221 0.4507 -0.1281 53
0.6646 0.4814 -0.1186 201
36.8438 26.6875 1.5859 93
9.5234 6.894500000000001 -1.5068000000000001 136
30.625 22.1875 2.1973 226
11.273399999999999 8.1641 -1.459 209
29.4062 21.2969 2.9629000000000003 85
13.5781 9.8359 -1.3662 195
30.25 21.9062 3.9199 58
17.4062 12.6094 -1.248 35
28.6094 20.7188 -0.4121 52
0.6299 0.4531 -0.1294 178
0.6597 0.4744 -0.1174 48
37.0938 26.6719 1.5937999999999999 146
9.5547 6.8711 -1.5078 120
31.2656 22.4844 2.2383 239
11.3203 8.1406 -1.4609 237
29.4219 21.1562 2.9551 55
13.6328 9.8047 -1.3681999999999999 9
30.4219 21.875 3.9336 228
17.5156 12.601600000000001 -1.2529000000000001 220
28.8281 20.7344 -0.4143 144
0.606 0.4326 -0.12390000000000001 78
0.6518999999999999 0.4653 -0.11560000000000001 168
9.5859 6.8438 -1.5088 244
31.4531 22.4688 2.2461 46
11.3594 8.1094 -1.4628999999999999 160
29.4375 21.0156 2.9512 10
13.6875 9.7734 -1.3700999999999999 76
30.5 21.7812 3.9336 100
17.6094 12.5703 -1.2559 25
29.0156 20.7188 -0.41600000000000004 95
0.6328 0.449 -0.1294 137
0.6533 0.4631 -0.11560000000000001 51
37.5938 26.6562 1.6074000000000002 161
9.5859 6.792999999999999 -1.5059 88
31.5938 22.4062 2.252 220
11.406199999999998 8.0859 -1.4647999999999999 50
30.6875 21.75 3.0683999999999996 202
13.726600000000001 9.7344 -1.3711000000000002 45
30.6094 21.7031 3.9375 209
17.7031 12.5469 -1.2598 63
29.2344 20.7344 -0.4182 124
0.625 0.4397 -0.1273 189
8.3906 5.9023 -1.5575999999999999 70
37.8438 26.625 1.6143 124
9.5859 6.7461 -1.5029 246
31.7656 22.3438 2.2578 44
11.460899999999999 8.0625 -1.4678 124
31.0625 21.8438 3.0976999999999997 206
13.781199999999998 9.6875 -1.3721 242
17.7969 12.523399999999999 -1.2637 70
29.4844 20.75 -0.4207 30
0.5977 0.4172 -0.1211 237
8.3281 5.8125 -1.5419999999999998 68
38.125 26.6094 1.6211000000000002 245
9.6094 6.7109000000000005 -1.5029 100
43.3125 30.25 3.0723000000000003 66
11.5078 8.0312 -1.4707 185
31.25 21.8281 3.1094 10
13.851600000000001 9.6719 -1.3769999999999998 181
17.9062 12.5 -1.2676 11
29.6875 20.7344 -0.4226 140
0.6377 0.4421 -0.1294 71
8.3047 5.7578 -1.5352000000000001 144
9.6406 6.6797 -1.5029 60
43.3125 30.0156 3.0645 207
11.531199999999998 7.9961 -1.4707 76
31.4219 21.7812 3.1191000000000004 102
13.9375 9.6641 -1.3818000000000001 124
18.0 12.4844 -1.2725 233
29.9531 20.7656 -0.4253 55
0.6455 0.4446 -0.1309 255
8.2969 5.7109000000000005 -1.5293 215
9.6719 6.6562 -1.5049000000000001 168
43.3125 29.7969 3.0566000000000004 30
11.593800000000002 7.980499999999999 -1.4746000000000001 115
14.0 9.6328 -1.3847999999999998 159
18.0938 12.4453 -1.2744 113
30.1875 20.7812 -0.4277 164
7.6328 5.2109000000000005 -1.6221 132
8.3125 5.675800000000001 -1.5283000000000002 109
39.0312 26.6562 1.6494 34
9.7031 6.625 -1.5049000000000001 132
43.2812 29.5625 3.0469 148
11.6406 7.953099999999999 -1.4775 171
14.031199999999998 9.5859 -1.3847999999999998 164
18.1562 12.398399999999999 -1.2764 108
31.5938 21.5781 -0.4465 111
7.6484000000000005 5.1836 -1.6221 35
8.3281 5.644500000000001 -1.5283000000000002 107
39.3125 26.6406 1.6562000000000001 80
9.7109 6.5859000000000005 -1.5038999999999998 143
43.2812 29.3438 3.0410000000000004 10
11.6953 7.925800000000001 -1.4794999999999998 168
14.093800000000002 9.5547 -1.3877000000000002 64
18.2344 12.3594 -1.2793 195
31.5781 21.4062 -0.44530000000000003 119
7.6484000000000005 5.144500000000001 -1.6181999999999999 25
8.3438 5.613300000000001 -1.5272999999999999 1
39.5625 26.6094 1.6631 35
9.7422 6.5547 -1.5049000000000001 82
43.25 29.1094 3.0312 251
11.75 7.9062 -1.4844 160
14.148399999999999 9.5156 -1.3896000000000002 83
18.3125 12.3203 -1.2822 28
31.5781 21.2344 -0.44409999999999994 80
7.6836 5.1289 -1.6221 138
8.3594 5.578099999999999 -1.5253999999999999 31
9.7734 6.5234000000000005 -1.5059 11
43.2812 28.8906 3.0254000000000003 42
11.7969 7.875 -1.4863 172
14.226600000000001 9.5 -1.3936000000000002 143
18.4219 12.3047 -1.2861000000000002 197
31.5938 21.0938 -0.4434 183
7.7148 5.1133 -1.625 224
8.3438 5.5312 -1.5205000000000002 134
9.8047 6.5 -1.5078 165
43.25 28.6562 3.0156 238
11.843800000000002 7.8477 -1.4883000000000002 255
14.281199999999998 9.4688 -1.3965 98
18.5312 12.273399999999999 -1.29 238
31.6094 20.9375 -0.4426 63
7.765599999999999 5.1055 -1.6318000000000001 174
8.3594 5.4961 -1.5186000000000002 235
9.8203 6.4609000000000005 -1.5068000000000001 250
43.2812 28.4688 3.0117000000000003 233
11.125 7.3125 -1.3944999999999999 75
14.375 9.4531 -1.4022999999999999 182
18.6719 12.273399999999999 -1.2978999999999998 223
31.6094 20.7969 -0.44170000000000004 55
7.8086 5.0977 -1.6366999999999998 131
8.375 5.4688 -1.5186000000000002 178
9.8359 6.417999999999999 -1.5049000000000001 86
43.2812 28.25 3.0039 250
11.148399999999999 7.2773 -1.3944999999999999 50
14.4297 9.4219 -1.4043 238
18.75 12.2422 -1.2997999999999998 89
31.6562 20.6719 -0.4412 58
7.8359000000000005 5.0781 -1.6387 151
8.3984 5.4453 -1.5194999999999999 210
9.8516 6.386699999999999 -1.5049000000000001 189
43.2188 28.0 2.9922000000000004 246
11.1953 7.2539 -1.3975 99
14.5 9.3984 -1.4082 172
18.7969 12.1875 -1.3008000000000002 117
31.7344 20.5781 -0.4414 145
7.863300000000001 5.0547 -1.6406 198
8.4062 5.4023 -1.5175999999999998 105
41.375 26.5938 1.7147999999999999 169
9.875 6.3438 -1.5038999999999998 71
43.2188 27.7812 2.9882999999999997 239
11.2344 7.2188 -1.3984 44
14.5625 9.3594 -1.4111000000000002 160
18.9219 12.164100000000001 -1.3056999999999999 135
31.875 20.4844 -0.4424 151
7.8672 5.0195 -1.6377000000000002 251
8.4297 5.375 -1.5175999999999998 163
41.625 26.5469 1.7227000000000001 242
9.9062 6.3164 -1.5059 149
43.25 27.5781 2.9824 78
11.2422 7.167999999999999 -1.3965 12
14.6328 9.3359 -1.4141 106
19.0156 12.1328 -1.3096 15
32.0938 20.4688 -0.44409999999999994 8
7.863300000000001 4.9805 -1.6338 208
8.4453 5.3438 -1.5175999999999998 228
41.9688 26.5781 1.7324000000000002 171
9.9297 6.2890999999999995 -1.5068000000000001 89
43.2188 27.3594 2.9726999999999997 102
11.289100000000001 7.1484000000000005 -1.3994 170
14.6875 9.2969 -1.4169999999999998 190
19.0938 12.085899999999999 -1.3115 189
32.3125 20.4531 -0.44630000000000003 254
7.8711 4.9453 -1.6318000000000001 101
8.4531 5.3125 -1.5156 252
42.3125 26.5938 1.7431999999999999 3
9.9453 6.25 -1.5059 89
43.2188 27.1562 2.9668 26
11.343800000000002 7.1289 -1.4033000000000002 39
14.75 9.2656 -1.4188999999999998 169
19.1719 12.0469 -1.3144999999999998 174
32.5312 20.4531 -0.4485 146
7.8438 4.8906 -1.6221 105
8.4766 5.2852 -1.5175999999999998 136
9.9609 6.207000000000001 -1.5038999999999998 139
43.25 26.9531 2.9629000000000003 166
11.3594 7.082000000000001 -1.4022999999999999 194
14.8281 9.2422 -1.4238 200
19.2812 12.023399999999999 -1.3193000000000001 211
32.7812 20.4375 -0.4507 87
7.832000000000001 4.8438 -1.6162 56
8.4922 5.2539 -1.5156 35
9.9844 6.175800000000001 -1.5049000000000001 129
43.2188 26.7344 2.9531 79
11.398399999999999 7.050800000000001 -1.4043 52
14.914100000000001 9.2266 -1.4287 17
19.3438 11.960899999999999 -1.3203 9
33.0 20.4219 -0.4531 143
7.8203 4.8008 -1.6103999999999998 75
8.5 5.2188 -1.5146000000000002 62
10.0156 6.1484000000000005 -1.5059 23
43.1875 26.5 2.9452999999999996 114
11.4297 7.015599999999999 -1.4053 92
15.0 9.2031 -1.4336000000000002 157
19.5156 11.976600000000001 -1.3291 205
33.2812 20.4219 -0.4556 244
7.832000000000001 4.7695 -1.6094 0
8.5312 5.1914 -1.5156 117
10.0312 6.109400000000001 -1.5049000000000001 118
43.4062 26.4375 2.9551 108
11.476600000000001 6.988300000000001 -1.4072 89
15.031199999999998 9.1562 -1.4336000000000002 107
19.6094 11.9375 -1.3330000000000002 25
33.5 20.4062 -0.45799999999999996 205
7.828099999999999 4.7305 -1.6055000000000001 214
44.0 26.5938 0.6006 251
8.5234 5.1523 -1.5127000000000002 139
10.0547 6.074199999999999 -1.5049000000000001 49
43.75 26.4375 2.9707 66
11.5625 6.984400000000001 -1.415 205
15.0703 9.1094 -1.4346 133
19.6719 11.8906 -1.335 127
33.75 20.3906 -0.4604 11
7.824199999999999 4.6914 -1.6016 92
44.375 26.5938 0.604 35
8.5312 5.1133 -1.5097999999999998 59
43.1562 25.875 1.7559 172
10.0625 6.0352 -1.5038999999999998 124
44.125 26.4375 2.9901999999999997 147
11.593800000000002 6.949199999999999 -1.416 163
15.1719 9.0938 -1.4413999999999998 118
19.8125 11.875 -1.3418 230
34.0312 20.3906 -0.4631 178
7.796900000000001 4.6367 -1.5918 111
44.7188 26.5938 0.6074 119
8.5469 5.0859 -1.5097999999999998 104
43.1562 25.6719 1.7519999999999998 26
10.0781 6.0 -1.5038999999999998 169
44.4062 26.4219 3.0039 218
11.593800000000002 6.8984000000000005 -1.4131 120
15.2344 9.0625 -1.4443000000000001 121
19.8438 11.8047 -1.3408000000000002 214
34.2812 20.3906 -0.4656 176
7.800800000000001 4.6055 -1.5897999999999999 74
45.0 26.5781 0.6103999999999999 176
8.5391 5.0391 -1.5049000000000001 182
44.875 26.5 1.8184 218
10.0938 5.957000000000001 -1.5019999999999998 80
44.7812 26.4375 3.0233999999999996 137
11.625 6.863300000000001 -1.4141 116
15.3125 9.0391 -1.4491999999999998 162
19.9375 11.7656 -1.3437999999999999 245
34.5625 20.4062 -0.4683 211
7.8086 4.5742 -1.5888999999999998 181
45.3438 26.5625 0.6138 209
8.5312 4.9922 -1.5 120
43.2812 25.3438 1.75 48
10.125 5.9297 -1.5038999999999998 147
45.0938 26.4062 3.0391000000000004 214
11.6719 6.832000000000001 -1.4169999999999998 34
15.375 9.0 -1.4521000000000002 13
20.0781 11.75 -1.3506 165
34.875 20.4219 -0.4717 203
7.8047 4.5352 -1.584 10
45.7188 26.5625 0.6172 120
8.5547 4.9688 -1.5019999999999998 114
43.0938 25.0156 1.7383000000000002 29
10.125 5.8828 -1.501 3
45.4688 26.4062 3.0566000000000004 143
11.726600000000001 6.8086 -1.4209 95
15.4375 8.9688 -1.4550999999999998 206
20.2188 11.7422 -1.3574000000000002 245
35.0938 20.3906 -0.4739 92
7.792999999999999 4.4922 -1.5791 191
46.0625 26.5469 0.6211 16
8.5625 4.9336 -1.501 228
45.875 26.4375 1.8477000000000001 96
10.1406 5.8438 -1.501 50
45.7812 26.375 3.0702999999999996 66
11.7578 6.7734000000000005 -1.4219 154
15.539100000000001 8.9531 -1.4609 123
20.3125 11.7031 -1.3603999999999998 24
35.375 20.375 -0.47659999999999997 176
7.7812 4.4492 -1.5732 214
46.375 26.5 0.6235 7
8.5938 4.9141 -1.5029 172
46.1875 26.3906 1.8555000000000001 58
10.1641 5.8086 -1.5 96
46.1562 26.375 3.0898000000000003 56
11.773399999999999 6.7265999999999995 -1.4209 241
15.6094 8.9219 -1.4647999999999999 81
20.4062 11.664100000000001 -1.3643 25
35.6562 20.375 -0.4792 149
7.7890999999999995 4.418 -1.5713 209
8.6016 4.875 -1.501 73
43.0312 24.4062 1.7256 206
10.1719 5.765599999999999 -1.4980000000000002 217
44.4062 25.1719 2.9668 4
11.789100000000001 6.6836 -1.4199000000000002 225
100.1875 56.8125 9.4062 134
15.6797 8.8906 -1.4687999999999999 123
20.5156 11.625 -1.3691 72
35.9375 20.375 -0.48219999999999996 15
7.7890999999999995 4.3789 -1.5684 31
8.6094 4.8398 -1.5 232
43.0938 24.2344 1.7256 92
10.1797 5.7265999999999995 -1.4971 242
44.1562 24.8438 2.9452999999999996 13
11.843800000000002 6.6602 -1.4228999999999998 239
12.101600000000001 6.8047 -1.1309 102
20.625 11.593800000000002 -1.374 193
36.25 20.375 -0.4854 242
7.7890999999999995 4.3438 -1.5654 60
47.4375 26.4688 0.6343 53
8.6406 4.8164 -1.5019999999999998 143
10.1875 5.6797 -1.4950999999999999 208
11.8594 6.613300000000001 0.7870999999999999 252
11.8594 6.6172 -1.4228999999999998 216
12.1094 6.7539 -1.1289 38
20.7656 11.5781 -1.3799000000000001 135
36.5312 20.375 -0.48829999999999996 73
7.769500000000001 4.2969 -1.5586000000000002 220
8.6484 4.7852 -1.501 79
10.1797 5.6289 -1.4912 35
11.8281 6.542999999999999 0.7842 67
11.9219 6.5938 -1.4268 103
11.9219 6.5977 1.1094 93
12.101600000000001 6.6953 -1.126 125
12.1953 6.7461 -0.8086 122
12.226600000000001 6.761699999999999 -0.4861 211
12.1719 6.730499999999999 -0.1617 45
7.765599999999999 4.2617 -1.5547 77
12.2344 6.7109000000000005 0.16219999999999998 13
8.6953 4.7695 -1.5059 89
12.2031 6.6953 0.4844 249
10.1875 5.5898 -1.4893 233
11.8281 6.488300000000001 0.7822 4
11.9375 6.546900000000001 -1.4258000000000002 54
11.9453 6.5547 1.1094 112
12.125 6.6523 -1.126 70
12.1875 6.6836 -0.8062 161
12.210899999999999 6.699199999999999 -0.48460000000000003 209
12.1875 6.6875 -0.1616 40
7.7578 4.2227 -1.5497999999999998 217
12.226600000000001 6.6523 0.16190000000000002 175
8.7031 4.7344 -1.5038999999999998 84
12.1875 6.6289 0.4827 248
10.2109 5.5547 -1.4893 184
11.8281 6.4336 0.7807999999999999 97
11.968800000000002 6.511699999999999 -1.4277000000000002 186
11.8828 6.4648 1.1016 60
12.156199999999998 6.613300000000001 -1.127 39
12.281199999999998 6.6836 1.4647999999999999 112
12.226600000000001 6.6523 -0.8076000000000001 172
12.218800000000002 6.6484000000000005 1.7841999999999998 91
12.218800000000002 6.6484000000000005 -0.4839 6
12.1875 6.6289 -0.16140000000000002 96
12.1875 6.6289 2.4395 27
7.769500000000001 4.1914 -1.5488 169
12.2969 6.6328 0.1625 246
8.7109 4.6992 -1.5029 22
12.2031 6.582000000000001 0.4824 198
10.2188 5.515599999999999 -1.4883000000000002 171
11.8203 6.3789 0.7787999999999999 220
11.9844 6.4688 -1.4268 197
11.9297 6.4375 1.1035 168
12.164100000000001 6.5625 -1.125 90
12.2969 6.6328 -0.8101 228
12.2344 6.6015999999999995 1.7822 46
12.2656 6.6172 -0.4849 130
12.2578 6.613300000000001 2.1172 253
12.273399999999999 6.6211 -0.16219999999999998 174
12.1875 6.578099999999999 2.4355 87
7.7773 4.1602 -1.5478999999999998 232
8.7344 4.6719 -1.5038999999999998 92
12.273399999999999 6.5664 0.4844 45
10.2188 5.4688 -1.4853999999999998 180
11.843800000000002 6.3359000000000005 0.7787999999999999 109
12.031199999999998 6.4375 -1.4297 139
12.289100000000001 6.578099999999999 -1.1348 15
21.3438 11.4219 -1.4062000000000001 236
12.2422 6.550800000000001 1.7812000000000001 74
49.7188 26.5938 -0.6581999999999999 73
12.218800000000002 6.5390999999999995 2.4355 187
7.7812 4.1289 -1.5459 129
49.7188 26.375 0.6572 202
8.7656 4.6523 -1.5068000000000001 191
44.375 23.5469 1.7519999999999998 10
10.2266 5.425800000000001 -1.4834 237
11.8281 6.2773 0.7764 54
12.0781 6.4062 -1.4316 45
11.8594 6.292999999999999 1.0928 73
16.3125 8.6562 -1.5049000000000001 166
21.4062 11.3594 -1.4082 119
50.1562 26.6094 -0.6631 121
12.3203 6.5352 2.4512 240
7.7812 4.0938 -1.5430000000000001 63
8.7891 4.6211 -1.5068000000000001 230
44.5625 23.4375 1.7559 81
10.2422 5.386699999999999 -1.4834 248
11.843800000000002 6.230499999999999 0.7764 135
12.1172 6.375 -1.4346 170
11.8828 6.25 1.0928 168
16.375 8.6172 -1.5078 153
21.5469 11.335899999999999 -1.4141 8
50.4062 26.5312 -0.6655 156
7.800800000000001 4.0742 -1.5449000000000002 249
8.7891 4.5898 -1.5059 161
44.8438 23.4219 1.7656 37
10.273399999999999 5.363300000000001 -1.4853999999999998 66
11.8828 6.203099999999999 0.7773 145
12.1406 6.3398 -1.4346 72
16.4688 8.6016 -1.5146000000000002 56
21.6719 11.3125 -1.4199000000000002 120
44.4688 23.2188 -1.75 151
44.9062 23.4531 -0.5913 216
7.8164 4.0508 -1.5449000000000002 54
8.8125 4.5625 -1.5068000000000001 244
44.9688 23.2969 1.7666 128
10.273399999999999 5.3203 -1.4824000000000002 19
11.9922 6.2109000000000005 0.7831999999999999 22
12.164100000000001 6.300800000000001 -1.4355000000000002 121
16.5312 8.5625 -1.5166 70
21.7969 11.289100000000001 -1.4247999999999998 41
44.5938 23.0938 -1.7519999999999998 143
7.8477 4.0273 -1.5478999999999998 250
8.8438 4.5352 -1.5088 255
45.3125 23.25 1.7763999999999998 227
10.289100000000001 5.2773 -1.4813999999999998 100
12.906199999999998 6.6211 0.8412999999999999 107
12.210899999999999 6.265599999999999 -1.4385 58
100.0 51.3125 9.1797 95
16.5938 8.5156 -1.5205000000000002 105
21.9062 11.2422 -1.4306999999999999 81
44.7188 22.9375 -1.7529 114
7.8515999999999995 3.9941000000000004 -1.5459 134
8.875 4.5117 -1.5116999999999998 78
46.1562 23.4688 1.8056999999999999 89
10.281199999999998 5.230499999999999 -1.4785 96
44.25 22.5156 2.8867000000000003 4
12.25 6.230499999999999 -1.4404 63
100.0 50.875 9.1641 99
16.6875 8.4844 -1.5253999999999999 190
22.0469 11.210899999999999 -1.4365 179
44.9375 22.8594 -1.7588 103
7.863300000000001 3.9668 -1.5449000000000002 108
8.8906 4.4883 -1.5127000000000002 132
45.0625 22.7344 1.7607 113
10.3203 5.207000000000001 -1.4813999999999998 90
45.5312 22.9688 2.9648000000000003 61
12.289100000000001 6.199199999999999 -1.4413999999999998 91
100.0 50.4375 9.1484 134
16.7812 8.4688 -1.5322 103
22.1094 11.156199999999998 -1.4385 22
7.886699999999999 3.9452999999999996 -1.5478999999999998 157
8.8984 4.4531 -1.5107 213
45.125 22.5781 1.7607 1
10.3281 5.167999999999999 -1.4805000000000001 36
45.5 22.7656 2.957 196
12.3203 6.1640999999999995 -1.4434 116
16.875 8.4453 -1.5381 53
22.2188 11.1172 -1.4424000000000001 137
52.8438 26.4375 -0.6899 114
7.9062 3.9199 -1.5488 117
8.9219 4.4258 -1.5127000000000002 69
45.375 22.5 1.7675999999999998 8
10.3672 5.136699999999999 -1.4824000000000002 64
52.8438 26.2031 3.4297000000000004 145
12.351600000000001 6.125 -1.4443000000000001 7
100.0625 49.5938 9.1172 141
16.9375 8.3984 -1.54 206
22.3594 11.085899999999999 -1.4491999999999998 21
54.0938 26.8125 -0.7051000000000001 44
7.9140999999999995 3.8906 -1.5478999999999998 146
8.9531 4.3984 -1.5146000000000002 47
45.75 22.4844 1.7783000000000002 36
10.3672 5.0938 -1.4805000000000001 160
46.375 22.7812 3.0039 37
12.375 6.082000000000001 -1.4443000000000001 0
99.9375 49.0938 9.0938 31
17.0 8.3594 -1.5438999999999998 33
22.5 11.0547 -1.4561000000000002 122
54.1562 26.6094 -0.7045999999999999 60
7.917999999999999 3.8555 -1.5459 233
54.0625 26.3281 0.7021 46
8.9844 4.3711 -1.5166 222
10.343800000000002 5.0352 -1.4736000000000002 246
12.398399999999999 6.0352 -1.4443000000000001 37
100.0 48.6875 9.0781 98
17.1094 8.3281 -1.5508000000000002 110
22.625 11.0156 -1.4619 184
46.75 22.7656 -0.6069 177
7.925800000000001 3.8242000000000003 -1.5438999999999998 131
9.0156 4.3516 -1.5194999999999999 239
47.0 22.6719 1.8203 204
10.3594 5.0 -1.4746000000000001 51
100.0 48.25 6.457000000000001 98
12.406199999999998 5.988300000000001 -1.4434 100
100.0 48.25 9.0625 149
17.1875 8.2969 -1.5556999999999999 236
22.7656 10.9844 -1.4687999999999999 235
7.9414 3.8026999999999997 -1.5449000000000002 103
9.0234 4.3203 -1.5194999999999999 56
47.0312 22.5156 1.8193000000000001 241
10.398399999999999 4.9766 -1.4775 49
99.9375 47.8438 6.4453 208
12.4297 5.949199999999999 -1.4434 152
99.9375 47.8438 9.0469 59
17.2656 8.2656 -1.5596 34
22.8594 10.9453 -1.4727000000000001 206
7.9727 3.7832 -1.5488 217
9.0234 4.2852 -1.5175999999999998 214
55.1562 26.1719 2.1309 229
10.414100000000001 4.9414 -1.4766 105
47.9688 22.7656 3.0858999999999996 146
12.4531 5.9102 -1.4443000000000001 89
99.9375 47.4375 9.0312 131
17.3281 8.2188 -1.5625 188
23.0 10.914100000000001 -1.4785 222
7.9922 3.7539 -1.5488 1
9.0312 4.2422 -1.5146000000000002 135
55.6875 26.1562 2.1465 233
10.4375 4.9023 -1.4775 115
12.476600000000001 5.859400000000001 -1.4443000000000001 246
99.9375 46.9375 9.0156 99
17.3906 8.1641 -1.5654 83
23.125 10.8672 -1.4844 99
46.3125 21.75 -1.7852000000000001 90
7.9961 3.7188 -1.5478999999999998 115
9.0625 4.2188 -1.5186000000000002 20
56.1562 26.1406 2.1621 105
10.460899999999999 4.8672 -1.4785 171
12.5156 5.824199999999999 -1.4463 186
99.9375 46.5 9.0 22
17.5 8.1406 -1.5732 167
23.2344 10.8125 -1.4883000000000002 54
46.1875 21.5 -1.7772999999999999 102
56.75 26.3906 -0.731 19
8.0 3.6933999999999996 -1.5459 101
9.1172 4.207 -1.5244 193
10.4922 4.8438 -1.4813999999999998 144
12.531199999999998 5.7852 -1.4463 230
17.5625 8.1016 -1.5762 126
23.3125 10.7656 -1.4912 23
46.1875 21.3125 -1.7744 175
57.1562 26.375 -0.7354 74
8.0156 3.668 -1.5469 162
9.1094 4.168 -1.5215 176
57.1562 26.1562 2.1934 21
10.5078 4.8086 -1.4805000000000001 79
12.5625 5.75 -1.4472999999999998 5
17.6562 8.0781 -1.5819999999999999 99
23.4844 10.7422 -1.5 140
57.6875 26.3906 -0.7406999999999999 35
8.0469 3.6426 -1.5497999999999998 16
9.125 4.1328 -1.5205000000000002 84
10.5469 4.7734 -1.4834 229
12.585899999999999 5.699199999999999 -1.4472999999999998 47
99.875 45.2188 8.9531 79
17.75 8.0391 -1.5878999999999999 131
19.4375 8.8047 -1.2393 146
8.0625 3.6132999999999997 -1.5497999999999998 22
9.1406 4.0977 -1.5215 59
10.5547 4.7344 -1.4824000000000002 37
12.6094 5.6562 -1.4482 188
17.8281 7.9961 -1.5928 70
60.1875 27.0 -0.7705 255
8.0703 3.5898000000000003 -1.5497999999999998 43
9.1719 4.082 -1.5244 210
55.0625 24.4844 2.1016 26
10.5703 4.7031 -1.4824000000000002 2
99.875 44.4375 6.355499999999999 217
12.648399999999999 5.625 -1.4502000000000002 203
99.875 44.4062 8.9219 16
14.9375 6.644500000000001 -1.3319999999999999 75
14.9531 6.6523 -0.9492 21
15.0469 6.6914 -0.5732 225
44.6875 19.875 -0.5713 30
8.0859 3.5664 -1.5508000000000002 221
9.1875 4.0508 -1.5253999999999999 171
10.601600000000001 4.6719 -1.4844 119
99.875 44.0 6.3477 106
12.664100000000001 5.582000000000001 -1.4502000000000002 62
14.9219 6.578099999999999 -1.3281 131
14.9219 6.578099999999999 -0.9458 132
14.960899999999999 6.5938 -0.5688 14
44.8438 19.7656 -0.5722999999999999 36
8.1094 3.5410000000000004 -1.5527000000000002 202
9.2031 4.0156 -1.5244 179
10.6172 4.6367 -1.4853999999999998 193
99.875 43.5938 6.3359000000000005 181
12.6797 5.5312 -1.4491999999999998 222
14.898399999999999 6.5039 -1.3241999999999998 59
14.898399999999999 6.5 -0.9429000000000001 158
14.906199999999998 6.5078 -0.5664 50
45.0625 19.6562 -0.5737 204
8.1406 3.5176 -1.5556999999999999 188
9.2188 3.9844 -1.5244 35
55.6875 24.0781 2.1172 189
10.648399999999999 4.6016 -1.4863 52
12.726600000000001 5.5 -1.4521000000000002 223
99.75 43.125 8.875 27
14.835899999999999 6.4140999999999995 -1.3163999999999998 105
14.875 6.4297 -0.9399 32
14.906199999999998 6.4453 -0.5654 45
61.4688 26.5625 -0.7822 8
8.1562 3.4901999999999997 -1.5566 112
61.4688 26.3125 0.7807999999999999 189
9.2266 3.9492000000000003 -1.5234 23
55.9375 23.9375 2.123 192
10.656199999999998 4.5625 -1.4863 80
12.773399999999999 5.4648 -1.4561000000000002 219
99.875 42.75 8.8672 71
14.8594 6.359400000000001 -1.3163999999999998 63
14.8828 6.3672 -0.9390000000000001 125
14.875 6.3672 -0.563 252
61.375 26.2656 -0.7798 150
8.1641 3.4608999999999996 -1.5566 124
61.5625 26.0938 0.7807999999999999 148
9.25 3.9219 -1.5253999999999999 96
55.8125 23.6562 2.1152 238
10.664100000000001 4.5195 -1.4844 15
12.7969 5.425800000000001 -1.4561000000000002 110
