# .PCD v0.7 - Point Cloud Data file format
VERSION 0.7
FIELDS x y z intensity
SIZE 4 4 4 4
TYPE F F F F
COUNT 1 1 1 1
WIDTH 1382
HEIGHT 1
VIEWPOINT 0 0 0 1 0 0 0
POINTS 1382
DATA ascii
-12.914100000000001 6.9727 -0.17079999999999998 96
-54.9688 29.6719 11.0078 55
-7.4062 4.0312 -1.4794999999999998 4
-8.1016 4.4102 -1.4003999999999999 240
-53.625 29.1875 2.1309 23
-9.2109 5.0156 -1.3437999999999999 196
-10.414100000000001 5.667999999999999 -1.2412 143
-13.9375 7.5859000000000005 1.2930000000000001 33
-12.906199999999998 7.0273 -1.1963 86
-13.9453 7.5898 1.6641 221
-12.9219 7.0352 -0.8534999999999999 147
-54.4688 29.6406 7.9688 73
-12.8594 7.0 -0.5093 4
-54.7812 29.8281 9.5078 70
-12.843800000000002 6.988300000000001 -0.17 71
-7.4023 4.0625 -1.4813999999999998 78
-8.0859 4.4375 -1.3994 10
-13.976600000000001 7.671900000000001 0.5552 98
-9.2109 5.0547 -1.3457 95
-13.960899999999999 7.6602 0.9238 54
-10.9844 6.0273 -1.3125 80
-13.9297 7.644500000000001 1.2938999999999998 158
-12.8203 7.0390999999999995 -1.1914 116
-13.9531 7.6602 1.6688999999999998 244
-12.8125 7.0312 -0.8477 154
-54.375 29.8438 7.9765999999999995 5
-12.789100000000001 7.015599999999999 -0.5073 127
-54.9062 30.1406 9.5469 176
-12.8047 7.0273 -0.1699 196
-7.3984000000000005 4.0938 -1.4834 179
-14.031199999999998 7.761699999999999 0.1866 246
-8.1094 4.4844 -1.4062000000000001 72
-13.9453 7.7148 0.5547 49
-9.2109 5.0977 -1.3486000000000002 17
-13.9531 7.7188 0.9253 129
-10.9844 6.078099999999999 -1.3144999999999998 38
-13.9453 7.7148 1.2978999999999998 157
-12.789100000000001 7.078099999999999 -1.1904000000000001 198
-13.9453 7.7188 1.6709 176
-12.7578 7.0625 -0.8462000000000001 180
-13.914100000000001 7.703099999999999 2.041 169
-12.7422 7.050800000000001 -0.5068 2
-12.7031 7.0273 -0.16879999999999998 241
-7.3711 4.1094 -1.4805000000000001 54
-8.1016 4.5156 -1.4072 102
-52.375 29.2031 2.0918 39
-9.2109 5.136699999999999 -1.3506 114
-13.9453 7.7773 0.9262999999999999 13
-10.9531 6.109400000000001 -1.3135 58
-13.9531 7.7812 1.3008000000000002 104
-12.781199999999998 7.1289 -1.1914 219
-13.9375 7.7734000000000005 1.6728999999999998 127
-12.7344 7.1015999999999995 -0.8456999999999999 20
-54.625 30.4531 8.0391 49
-12.726600000000001 7.0977 -0.5073 154
-12.710899999999999 7.0898 -0.1693 60
-7.359400000000001 4.1367 -1.4813999999999998 4
-8.125 4.5703 -1.415 233
-9.2344 5.1914 -1.3574000000000002 102
-13.9453 7.8359000000000005 0.9277 233
-10.9219 6.140599999999999 -1.3125 122
-13.9531 7.8438 1.3037 85
-12.781199999999998 7.1836 -1.1934 221
-13.9531 7.8438 1.6777000000000002 37
-12.710899999999999 7.144500000000001 -0.8456999999999999 94
-13.9453 7.8359000000000005 2.0527 78
-12.7422 7.1640999999999995 -0.5088 26
-12.648399999999999 7.109400000000001 -0.16879999999999998 77
-7.355499999999999 4.1719 -1.4834 103
-8.1328 4.6094 -1.4188999999999998 174
-51.375 29.125 2.0605 143
-9.2266 5.234400000000001 -1.3594 249
-13.9453 7.9062 0.9301999999999999 229
-10.906199999999998 6.1836 -1.3135 57
-13.9453 7.9062 1.3056999999999999 195
-12.75 7.230499999999999 -1.1934 53
-13.9531 7.9102 1.6806999999999999 136
-12.7344 7.2227 -0.8491 193
-12.718800000000002 7.2109000000000005 -0.5088 235
-12.718800000000002 7.2109000000000005 -0.17 75
-7.355499999999999 4.2031 -1.4863 101
-8.125 4.6445 -1.4209 198
-9.2422 5.2812 -1.3643 155
-10.898399999999999 6.2265999999999995 -1.3144999999999998 254
-13.9297 7.9648 1.3075999999999999 174
-12.7578 7.292999999999999 -1.1973 203
-13.9531 7.9765999999999995 1.6846 11
-12.6953 7.2578 -0.8481000000000001 57
-12.7422 7.2812 -0.5107 201
-12.718800000000002 7.269500000000001 -0.1704 126
-7.3477 4.2344 -1.4872999999999998 3
-8.1641 4.7031 -1.4297 83
-50.4688 29.0781 2.0332 165
-9.2344 5.3203 -1.3662 200
-10.875 6.265599999999999 -1.3144999999999998 240
-12.75 7.3477 -1.1982 119
-12.75 7.3438 -0.8534999999999999 73
-12.25 7.0586 1.8135 241
-12.75 7.3438 -0.5122 194
-12.6875 7.3086 -0.1703 40
-7.332000000000001 4.2578 -1.4872999999999998 175
-8.1641 4.7422 -1.4336000000000002 139
-50.2188 29.1562 2.0254 122
-9.2344 5.363300000000001 -1.3681999999999999 162
-10.8594 6.3086 -1.3154 175
-12.726600000000001 7.390599999999999 -1.1982 236
-12.789100000000001 7.4297 -0.8579000000000001 200
-12.210899999999999 7.0938 1.8115 11
-12.75 7.4062 -0.5132 106
-12.6953 7.3711 -0.17079999999999998 51
-11.7656 6.8359000000000005 2.3926 239
-7.3086 4.2812 -1.4863 114
-8.1797 4.7891 -1.4385 5
-12.2422 7.167999999999999 0.49369999999999997 204
-9.2344 5.4062 -1.3711000000000002 52
-12.2031 7.144500000000001 0.8203 181
-10.835899999999999 6.3438 -1.3144999999999998 150
-12.6797 7.425800000000001 -1.1963 52
-12.218800000000002 7.1562 -0.8212999999999999 74
-12.1953 7.140599999999999 1.8125 253
-22.2188 13.0156 -0.8975 59
-12.2344 7.1640999999999995 -0.1649 216
-11.789100000000001 6.9023 2.4004 25
-7.296900000000001 4.3086 -1.4863 117
-12.1875 7.1953 0.1646 151
-8.1875 4.832 -1.4424000000000001 151
-12.1953 7.199199999999999 0.4927 46
-9.2422 5.453099999999999 -1.375 47
-12.2031 7.199199999999999 0.8218000000000001 189
-10.7969 6.375 -1.3135 231
-12.226600000000001 7.2188 -1.1562000000000001 159
-40.5312 23.9219 4.9414 237
-12.1719 7.1836 -0.8198000000000001 98
-12.2344 7.2227 -0.49439999999999995 237
-11.8203 6.9765999999999995 2.0879 59
-12.2031 7.203099999999999 -0.1648 55
-11.781199999999998 6.953099999999999 2.4043 47
-7.296900000000001 4.3398 -1.4902000000000002 147
-12.210899999999999 7.265599999999999 0.1653 251
-8.1719 4.8633 -1.4434 85
-12.1875 7.25 0.49340000000000006 133
-9.2344 5.4922 -1.3769999999999998 106
-48.7188 28.9844 3.2949 157
-10.781199999999998 6.4140999999999995 -1.3144999999999998 3
-11.7969 7.019500000000001 1.1172 62
-12.1797 7.2461 -1.1543 8
-40.4062 24.0312 4.9336 65
-12.148399999999999 7.2265999999999995 -0.8198000000000001 32
-12.1719 7.2422 -0.4929 186
-12.1875 7.25 -0.1649 171
-7.2890999999999995 4.3711 -1.4912 181
-8.1641 4.8945 -1.4453 155
-48.2812 28.9531 1.9638999999999998 202
-9.2266 5.5312 -1.3779 145
-47.8438 28.6875 3.2441000000000004 84
-10.7656 6.453099999999999 -1.3144999999999998 48
-12.1172 7.269500000000001 -1.1504 102
-40.0 24.0 4.8984 123
-12.1406 7.2773 -0.8208 90
-12.2422 7.3398 -0.4966 53
-42.0938 25.2344 -0.5728 145
-7.269500000000001 4.3906 -1.4902000000000002 213
-8.1406 4.918 -1.4443000000000001 196
-42.5625 25.7031 1.7344 174
-9.2031 5.5586 -1.3769999999999998 80
-42.6562 25.7656 2.8983999999999996 201
-10.7578 6.4961 -1.3163999999999998 247
-11.773399999999999 7.109400000000001 1.1201 10
-12.156199999999998 7.3438 -1.1562000000000001 250
-39.8438 24.0625 4.8867 201
-12.156199999999998 7.3398 -0.8231999999999999 222
-21.8594 13.2031 -0.8901 241
-11.8203 7.136699999999999 2.4277 231
-7.2578 4.4141 -1.4902000000000002 40
-8.1328 4.9492 -1.4453 203
-47.7188 29.0312 1.9491999999999998 198
-9.1953 5.5977 -1.3788999999999998 206
-10.726600000000001 6.5273 -1.3154 9
-11.8594 7.2148 1.1299 172
-12.468800000000002 7.5859000000000005 -1.1885 135
-39.4375 24.0 4.8477 38
-16.8281 10.2422 -1.1436 74
-21.7656 13.25 -0.8881999999999999 160
-11.8047 7.1836 2.1016 49
-11.8125 7.1875 2.4316 221
-7.2539 4.4492 -1.4931999999999999 190
-8.1172 4.9805 -1.4453 202
-47.6875 29.2656 1.9521000000000002 28
-9.1953 5.640599999999999 -1.3828 191
-46.5312 28.5469 3.1738 67
-10.7031 6.5664 -1.3154 205
-12.460899999999999 7.644500000000001 -1.1904000000000001 67
-39.375 24.1562 4.8516 90
-16.75 10.273399999999999 -1.1406 80
-21.7344 13.335899999999999 -0.8887 80
-11.789100000000001 7.230499999999999 2.1016 111
-11.773399999999999 7.2227 2.4277 27
-7.2422 4.4766 -1.4931999999999999 109
-8.0859 5.0 -1.4434 69
-47.6562 29.4688 1.9550999999999998 113
-9.1875 5.6836 -1.3847999999999998 20
-46.125 28.5312 3.1523000000000003 199
-10.6797 6.605499999999999 -1.3154 142
-12.414100000000001 7.6797 -1.1885 236
-41.625 25.7344 5.140599999999999 26
-16.7031 10.3281 -1.1396 103
-21.6094 13.3672 -0.8856999999999999 95
-41.6875 25.7656 -0.5722999999999999 90
-11.6719 7.2188 2.4121 76
-7.2461 4.5195 -1.4980000000000002 81
-8.0312 5.0078 -1.4375 91
-47.625 29.7031 1.959 8
-9.1797 5.7188 -1.3857 112
-46.0312 28.7031 3.1543 94
-10.656199999999998 6.644500000000001 -1.3154 164
-12.3828 7.7227 -1.1885 140
-41.4688 25.8438 5.1289 8
-16.625 10.3672 -1.1377 127
-21.5312 13.4297 -0.8843000000000001 8
-11.601600000000001 7.234400000000001 2.4043 215
-7.230499999999999 4.543 -1.4980000000000002 104
-8.0391 5.0508 -1.4413999999999998 152
-41.3125 25.9531 1.7021000000000002 139
-9.1719 5.761699999999999 -1.3877000000000002 86
-42.5625 26.7344 2.9219 178
-10.648399999999999 6.6914 -1.3174000000000001 139
-39.625 24.9062 3.8202999999999996 80
-12.351600000000001 7.761699999999999 -1.1875 116
-41.375 25.9844 5.1289 124
-16.5469 10.398399999999999 -1.1348 42
-41.8438 26.2812 6.3515999999999995 146
-21.4531 13.476600000000001 -0.8828 253
-7.203099999999999 4.5625 -1.4961000000000002 68
-8.0234 5.0781 -1.4413999999999998 76
-41.2188 26.0938 1.7012 1
-9.1562 5.796900000000001 -1.3887 96
-42.4688 26.8906 2.9219 218
-10.6094 6.7188 -1.3154 117
-39.5 25.0156 3.8164 249
-12.3281 7.8086 -1.1885 117
-40.5938 25.7188 5.0469 170
-16.4688 10.4297 -1.1318000000000001 181
-21.375 13.539100000000001 -0.8818 29
-7.203099999999999 4.5977 -1.5 206
-7.9922 5.0977 -1.4394999999999998 3
-9.1641 5.8477 -1.3925999999999998 129
-39.125 24.9531 2.6973000000000003 16
-10.593800000000002 6.7578 -1.3163999999999998 205
-39.1875 25.0 3.793 250
-12.289100000000001 7.8438 -1.1875 229
-40.875 26.0781 5.0898 57
-16.4219 10.476600000000001 -1.1299 201
-41.75 26.6406 6.3672 78
-21.3281 13.6094 -0.8818 22
-7.1914 4.6211 -1.5 62
-7.9609000000000005 5.1172 -1.4365 241
-9.1562 5.8828 -1.3944999999999999 230
-38.9688 25.0312 2.6914 181
-10.5781 6.792999999999999 -1.3163999999999998 167
-39.0625 25.0938 3.7870999999999997 117
-12.25 7.8711 -1.1855 111
-40.4062 25.9688 5.0469 199
-16.3594 10.5156 -1.1289 137
-21.1875 13.6094 -0.8774 13
-7.171900000000001 4.6406 -1.499 15
-7.9453 5.140599999999999 -1.4365 47
-44.6562 28.8906 1.8555000000000001 139
-9.1484 5.917999999999999 -1.3955000000000002 243
-39.0625 25.2656 2.7031 209
-10.5703 6.8398 -1.3184 50
-38.9062 25.1875 3.7832 48
-12.2031 7.8984000000000005 -1.1836 55
-40.1562 25.9844 5.0234 226
-16.2969 10.5469 -1.127 150
-40.25 26.0469 6.1640999999999995 75
-21.1094 13.656199999999998 -0.8759999999999999 75
-7.1328 4.6562 -1.4941 115
-7.9414 5.1836 -1.4394999999999998 176
-44.2188 28.875 1.8428 237
-9.1406 5.9688 -1.3994 185
-41.7188 27.2344 2.8945 76
-10.5469 6.886699999999999 -1.3193000000000001 230
-38.875 25.375 3.7870999999999997 123
-12.2031 7.9648 -1.1865 85
-40.0938 26.1719 5.0273 249
-16.25 10.6094 -1.126 70
-40.3438 26.3438 6.1914 173
-21.0312 13.7344 -0.8755 162
-7.0977 4.6719 -1.4912 70
-7.921900000000001 5.2148 -1.4394999999999998 174
-43.9062 28.8906 1.8330000000000002 119
-9.125 6.0039 -1.3994 110
-43.8438 28.8594 3.0526999999999997 70
-10.5156 6.917999999999999 -1.3184 72
-39.0625 25.7188 3.8164 109
-12.1328 7.988300000000001 -1.1826 164
-39.9688 26.2969 5.0234 89
-16.2031 10.6719 -1.126 249
-40.5312 26.6719 6.234400000000001 182
-21.0156 13.8281 -0.8765000000000001 163
-7.078099999999999 4.6914 -1.4902000000000002 235
-7.8711 5.2148 -1.4325999999999999 99
-43.5938 28.8906 1.8252000000000002 135
-9.1172 6.0390999999999995 -1.4013999999999998 194
-42.0312 27.8438 2.9297000000000004 21
-10.4922 6.953099999999999 -1.3184 125
-39.875 26.4219 3.9023000000000003 68
-13.101600000000001 8.6797 -1.2803 228
-39.3438 26.0781 4.957 168
-16.1562 10.7031 -1.125 8
-40.375 26.75 6.2265999999999995 91
-20.8906 13.835899999999999 -0.873 171
-7.078099999999999 4.7227 -1.4931999999999999 89
-7.8672 5.25 -1.4355000000000002 170
-43.2188 28.8438 1.8135 23
-9.1094 6.082000000000001 -1.4033000000000002 235
-43.1875 28.8281 3.0176 75
-10.468800000000002 6.988300000000001 -1.3184 203
-40.1875 26.8125 3.9414 122
-13.0547 8.7109 -1.2783 16
-39.2812 26.2031 4.957 83
-16.0781 10.7344 -1.1220999999999999 226
-40.125 26.7812 6.199199999999999 68
-20.7812 13.8672 -0.8706 122
-7.0390999999999995 4.7344 -1.4883000000000002 32
-7.8398 5.2734000000000005 -1.4346 12
-42.8125 28.7969 1.7997999999999998 54
-9.0859 6.109400000000001 -1.4022999999999999 217
-42.8438 28.8125 3.002 7
-10.4453 7.0273 -1.3184 170
-41.3125 27.7812 4.0625 195
-12.9922 8.7422 -1.2754 27
-39.3438 26.4688 4.9805 15
-16.0 10.7578 -1.1191 83
-40.2188 27.0312 6.2265999999999995 19
-20.7344 13.9375 -0.8706 85
-33.8125 22.7344 -0.4756 81
-7.011699999999999 4.75 -1.4863 178
-7.8438 5.3125 -1.4375 116
-9.0703 6.144500000000001 -1.4043 79
-10.4297 7.0664 -1.3193000000000001 109
-42.8438 29.0312 4.2266 12
-12.968800000000002 8.7812 -1.2754 75
-39.2812 26.6094 4.9844 77
-15.9219 10.781199999999998 -1.1162 154
-40.4062 27.3594 6.269500000000001 207
-20.6406 13.9844 -0.8691 244
-33.5625 22.7344 -0.47340000000000004 181
-47.7812 32.375 10.1719 5
-6.9727 4.7578 -1.4813999999999998 100
-7.8203 5.3398 -1.4375 201
-9.0625 6.1875 -1.4062000000000001 194
-39.9688 27.2812 2.8125 131
-10.3906 7.0938 -1.3184 192
-42.875 29.2656 4.2344 129
-12.9219 8.8203 -1.2744 159
-39.3125 26.8438 5.0 80
-15.789100000000001 10.781199999999998 -1.1094 192
-40.3125 27.5156 6.2734000000000005 76
-20.5781 14.039100000000001 -0.8682 112
-47.4062 32.3438 10.1094 117
-6.9453 4.7773 -1.4794999999999998 231
-7.7852 5.355499999999999 -1.4346 233
-36.9062 25.375 1.5615 117
-9.0547 6.230499999999999 -1.4082 143
-42.8125 29.4531 3.0214999999999996 81
-10.3672 7.1289 -1.3174000000000001 138
-40.0625 27.5469 3.9688 123
-12.8906 8.8672 -1.2744 252
-39.4688 27.1562 5.0312 115
-15.7578 10.835899999999999 -1.1104 130
-39.6562 27.2812 6.1875 221
-20.5312 14.125 -0.8682 195
-44.3438 30.5 8.2031 23
-33.0938 22.75 -0.46880000000000005 56
-47.0312 32.3438 10.0547 166
-6.925800000000001 4.7969 -1.4785 233
-7.7422 5.363300000000001 -1.4297 70
-9.0312 6.2539 -1.4072 88
-42.8125 29.6562 3.0273000000000003 74
-10.351600000000001 7.167999999999999 -1.3184 26
-39.9375 27.6562 3.9629000000000003 149
-12.8281 8.8828 -1.2705 128
-39.3125 27.2344 5.0195 44
-15.664100000000001 10.851600000000001 -1.1064 75
-39.625 27.4531 6.1953 27
-20.4688 14.1797 -0.8682 24
-46.6875 32.3438 10.0078 214
-6.9023 4.8125 -1.4766 229
-7.7461 5.4023 -1.4336000000000002 182
-9.0 6.2812 -1.4062000000000001 248
-42.8125 29.875 3.0351999999999997 205
-10.3281 7.203099999999999 -1.3184 191
-39.2812 27.3906 3.9082 224
-12.781199999999998 8.9219 -1.2695 91
-39.5938 27.6094 5.0664 14
-15.664100000000001 10.9297 -1.1084 177
-39.5312 27.5625 6.1914 180
-20.3125 14.1719 -0.8633 117
-46.5625 32.5 10.0078 215
-6.863300000000001 4.8281 -1.4727000000000001 115
-7.738300000000001 5.4453 -1.4365 79
-42.75 30.0781 1.8232 216
-8.9688 6.3086 -1.4043 173
-40.9062 28.7812 2.9082 7
-10.2969 7.2461 -1.3193000000000001 99
-39.125 27.5312 3.9043 166
-12.718800000000002 8.9531 -1.2666 80
-39.4688 27.7656 5.0664 160
-15.5703 10.960899999999999 -1.1055 4
-41.1875 28.9844 6.4727 233
-20.2812 14.273399999999999 -0.8643000000000001 93
-46.5625 32.75 10.0312 40
-6.828099999999999 4.8438 -1.4687999999999999 45
-7.730499999999999 5.484400000000001 -1.4385 128
-42.75 30.3125 1.8281 153
-8.9531 6.3477 -1.4062000000000001 238
-42.7812 30.3438 3.0488 64
-10.281199999999998 7.292999999999999 -1.3203 73
-39.4688 27.9844 3.9473000000000003 97
-12.6953 9.0 -1.2676 133
-39.2812 27.8594 5.0586 159
-15.523399999999999 11.0078 -1.1045 39
-42.2812 29.9844 6.6602 118
-20.1875 14.3125 -0.8623000000000001 14
-46.5 32.9688 10.0469 164
-6.8125 4.8594 -1.4678 125
-7.7109000000000005 5.5 -1.4375 254
-42.75 30.5156 1.8330000000000002 39
-8.9297 6.3711 -1.4053 54
-42.75 30.5156 3.0547000000000004 126
-10.2578 7.3203 -1.3193000000000001 84
-38.9375 27.7812 3.9043 193
-12.664100000000001 9.0391 -1.2666 82
-39.125 27.9219 5.0469 248
-15.460899999999999 11.031199999999998 -1.1025 39
-42.25 30.1562 6.671900000000001 147
-20.0781 14.3281 -0.8593999999999999 252
-46.5312 33.2188 10.0781 199
-6.792999999999999 4.8828 -1.4678 112
-7.671900000000001 5.511699999999999 -1.4336000000000002 6
-42.75 30.7188 1.8369 250
-8.9062 6.3984000000000005 -1.4053 112
-42.7812 30.7344 3.0625 145
-10.2344 7.355499999999999 -1.3203 214
-40.0938 28.8125 4.0312 117
-12.601600000000001 9.0547 -1.2637 3
-42.8125 30.7656 5.5352 39
-15.4219 11.0781 -1.1016 71
-42.2812 30.375 6.6914 104
-20.0156 14.3906 -0.8593999999999999 169
-46.5625 33.4688 10.1016 9
-6.7734000000000005 4.9062 -1.4678 239
-7.6640999999999995 5.550800000000001 -1.4365 84
-42.7188 30.9375 1.8408000000000002 135
-8.8672 6.421900000000001 -1.4033000000000002 178
-39.4375 28.5625 2.832 94
-10.2188 7.3984000000000005 -1.3213 19
-38.6562 28.0 3.8964999999999996 110
-12.5625 9.1016 -1.2637 183
-42.75 30.9531 5.542999999999999 194
-15.3828 11.1406 -1.1025 243
-42.25 30.6094 6.707000000000001 0
-19.9062 14.4219 -0.8569 18
-46.5312 33.7188 10.125 62
-6.734400000000001 4.9141 -1.4619 186
-42.8125 31.2344 0.6187 13
-7.6562 5.582000000000001 -1.4385 187
-42.75 31.1719 1.8457 58
-8.8516 6.457000000000001 -1.4043 160
-39.4375 28.7656 2.8379000000000003 252
-10.3125 7.519500000000001 -1.3369 207
-39.5312 28.8438 3.9941000000000004 99
-12.5156 9.1328 -1.2617 250
-42.9375 31.3281 5.582000000000001 17
-15.335899999999999 11.1875 -1.1016 105
-42.25 30.8281 6.7227 127
-19.8438 14.4844 -0.8564 47
-46.5312 33.9375 10.1484 121
-6.699199999999999 4.9219 -1.4580000000000002 206
-42.8125 31.4531 0.6201 51
-7.636699999999999 5.613300000000001 -1.4385 254
-42.75 31.4062 1.8506 255
-8.8359 6.4922 -1.4043 88
-39.2812 28.875 2.8339999999999996 246
-10.398399999999999 7.640599999999999 -1.3516 182
-12.460899999999999 9.1562 -1.2588 102
-42.9375 31.5469 5.5938 172
-15.289100000000001 11.2344 -1.1016 193
-42.25 31.0469 6.738300000000001 112
-19.7812 14.539100000000001 -0.8554999999999999 157
-30.3438 22.2969 -0.4395 157
-46.5 34.1562 10.1641 182
-6.6836 4.9492 -1.459 168
-42.75 31.6406 0.6211 79
-7.613300000000001 5.6328 -1.4375 5
-42.7188 31.625 1.8544999999999998 39
-8.8125 6.5234000000000005 -1.4053 186
-39.2812 29.0781 2.8398000000000003 141
-10.375 7.6797 -1.3525 252
-38.8438 28.7656 3.9452999999999996 25
-12.4219 9.1953 -1.2588 146
-42.9375 31.7812 5.609400000000001 184
-15.2344 11.273399999999999 -1.0996 143
-42.2812 31.2969 6.761699999999999 159
-19.75 14.625 -0.8564 109
-30.1875 22.3438 -0.4382 246
-46.5 34.4062 10.1875 150
-6.6640999999999995 4.9688 -1.459 245
-42.75 31.8906 0.623 144
-7.5938 5.6602 -1.4375 194
-42.7188 31.8594 1.8594 170
-8.7812 6.550800000000001 -1.4033000000000002 29
-42.7188 31.8594 3.0995999999999997 138
-10.351600000000001 7.7148 -1.3525 162
-42.75 31.8906 4.3516 125
-12.3594 9.2188 -1.2559 108
-42.6875 31.8438 5.5938 113
-15.1953 11.3281 -1.0996 233
-42.3125 31.5625 6.7852 122
-19.6562 14.656199999999998 -0.8545 135
-30.0312 22.3906 -0.43700000000000006 58
-46.4688 34.6562 10.2188 163
-6.6523 4.9961 -1.459 142
-42.75 32.125 0.6245 95
-7.5898 5.699199999999999 -1.4404 95
-42.7188 32.0938 1.8633000000000002 163
-8.7578 6.578099999999999 -1.4033000000000002 224
-42.7188 32.0938 3.1055 36
-10.3281 7.7539 -1.3525 25
-42.75 32.0938 4.3633 77
-12.3125 9.25 -1.2539 170
-42.7188 32.0938 5.609400000000001 56
-15.1328 11.3672 -1.0986 96
-42.3438 31.7969 6.8047 76
-19.625 14.7344 -0.855 29
-46.4688 34.9062 10.2422 152
-6.6289 5.0117 -1.4580000000000002 164
-7.5859000000000005 5.738300000000001 -1.4434 212
-42.6875 32.2812 1.8672 150
-8.7188 6.5938 -1.4003999999999999 152
-42.7188 32.3125 3.1132999999999997 246
-10.3125 7.800800000000001 -1.3544999999999998 187
-42.7188 32.3125 4.3711 125
-12.273399999999999 9.2812 -1.2529000000000001 63
-42.7188 32.3125 5.625 247
-15.0781 11.398399999999999 -1.0967 55
-42.375 32.0312 6.828099999999999 181
-19.5625 14.7969 -0.855 247
-46.5312 35.1875 10.281199999999998 237
-6.5859000000000005 5.0156 -1.4521000000000002 32
-7.574199999999999 5.765599999999999 -1.4453 194
-42.7188 32.5312 1.8730000000000002 22
-8.6875 6.6172 -1.3994 97
-42.7188 32.5312 3.1211 247
-10.281199999999998 7.828099999999999 -1.3535 234
-42.7188 32.5312 4.3828 169
-12.218800000000002 9.3047 -1.251 157
-42.7188 32.5312 5.640599999999999 255
-15.023399999999999 11.4375 -1.0957 70
-42.375 32.2812 6.8477 163
-19.4688 14.8281 -0.853 123
-46.5312 35.4375 10.3047 62
-6.5664 5.0391 -1.4521000000000002 222
-7.550800000000001 5.792999999999999 -1.4453 4
-42.7188 32.7812 1.8788999999999998 110
-8.6719 6.6562 -1.4003999999999999 69
-42.6875 32.75 3.1289 34
-10.25 7.8672 -1.3535 88
-31.2969 24.0156 3.2188 83
-12.1875 9.3516 -1.251 161
-42.6875 32.75 5.6484000000000005 64
-14.976600000000001 11.4922 -1.0957 10
-42.3438 32.5 6.863300000000001 79
-19.4375 14.914100000000001 -0.8534999999999999 52
-6.546900000000001 5.0586 -1.4512 20
-7.5273 5.8164 -1.4443000000000001 89
-42.625 32.9688 1.8799000000000001 130
-8.6406 6.6797 -1.3994 32
-10.2109 7.890599999999999 -1.3516 92
-31.2188 24.1406 3.2207 250
-12.1172 9.3672 -1.2470999999999999 81
-42.6875 33.0 5.6640999999999995 231
-14.914100000000001 11.523399999999999 -1.0937999999999999 193
-42.4375 32.8125 6.894500000000001 18
-19.375 14.976600000000001 -0.8534999999999999 122
-6.5273 5.082 -1.4512 97
-7.5039 5.8438 -1.4434 186
-42.6562 33.2188 1.8857 221
-8.6094 6.703099999999999 -1.3975 197
-10.1875 7.9297 -1.3525 44
-30.3438 23.625 3.1387 147
-12.0469 9.375 -1.2431999999999999 244
-42.875 33.375 5.707000000000001 20
-14.8672 11.5703 -1.0937999999999999 103
-42.375 33.0 6.9062 93
-19.25 14.9922 -0.8506 107
-6.4961 5.0938 -1.4482 214
-7.4765999999999995 5.863300000000001 -1.4424000000000001 38
-8.5938 6.7422 -1.3994 176
-31.3438 24.5781 2.3145 167
-10.1719 7.9765999999999995 -1.3544999999999998 126
-29.7344 23.3125 3.082 107
-12.023399999999999 9.4297 -1.2441 201
-42.875 33.625 5.7188 138
-14.789100000000001 11.593800000000002 -1.0908 95
-42.4688 33.3125 6.9375 54
-19.1875 15.039100000000001 -0.8495999999999999 251
-6.5 5.1328 -1.4531 49
-7.453099999999999 5.886699999999999 -1.4413999999999998 175
-31.2656 24.7031 1.3896000000000002 92
-8.5859 6.7773 -1.4013999999999998 154
-31.3125 24.7344 2.3184 188
-10.1172 7.988300000000001 -1.3496000000000001 222
-29.7031 23.4531 3.0879000000000003 231
-11.968800000000002 9.4531 -1.2422 198
-42.6562 33.6875 5.7109000000000005 227
-14.75 11.648399999999999 -1.0908 24
-42.4688 33.5312 6.957000000000001 144
-19.1094 15.093800000000002 -0.8486 84
-7.421900000000001 5.9023 -1.4394999999999998 194
-8.5938 6.832000000000001 -1.4062000000000001 4
-31.2812 24.875 2.3223 107
-10.0781 8.0156 -1.3496000000000001 141
-30.5938 24.3281 3.1895 12
-11.9297 9.4844 -1.2412 182
-42.6875 33.9375 5.7265999999999995 118
-14.6719 11.6719 -1.0879 248
-42.5 33.8125 6.980499999999999 188
-19.0312 15.1328 -0.8472 175
-7.4023 5.9297 -1.4394999999999998 204
-42.6562 34.1562 1.9062000000000001 200
-8.5938 6.8828 -1.4111000000000002 179
-10.1094 8.0938 -1.3563999999999998 254
-30.25 24.2344 3.1620999999999997 70
-11.8828 9.5156 -1.2393 250
-42.6875 34.2188 5.7461 73
-14.6328 11.726600000000001 -1.0879 130
-42.5312 34.0938 7.0078 78
-18.9844 15.210899999999999 -0.8477 93
-27.7656 22.25 -0.415 211
-7.3789 5.953099999999999 -1.4394999999999998 182
-42.625 34.375 1.9102000000000001 129
-8.4922 6.8515999999999995 -1.3984 72
-10.0312 8.0938 -1.3506 29
-30.25 24.4062 3.1719 187
-11.8281 9.5469 -1.2383 182
-14.5703 11.7578 -1.0869 66
-18.9062 15.25 -0.8462000000000001 178
-27.625 22.2969 -0.4143 126
-7.3672 5.984400000000001 -1.4413999999999998 185
-42.625 34.625 1.916 22
-8.4531 6.863300000000001 -1.3944999999999999 80
-10.0 8.125 -1.3496000000000001 72
-29.9062 24.2812 3.1426 43
-11.8047 9.5859 -1.2383 190
-42.625 34.625 5.765599999999999 55
-14.5 11.773399999999999 -1.084 24
-18.8438 15.3047 -0.8462000000000001 130
-27.4375 22.2812 -0.41259999999999997 203
-7.425800000000001 6.0703 -1.4561000000000002 178
-42.6562 34.875 1.9228999999999998 34
-8.4141 6.8789 -1.3925999999999998 186
-42.5625 34.7812 3.1952999999999996 243
-9.9922 8.1719 -1.3516 57
-29.5156 24.1406 3.1113 224
-11.7656 9.6172 -1.2373 215
-42.6562 34.875 5.7890999999999995 137
-14.4531 11.8125 -1.083 56
-18.7969 15.375 -0.8462000000000001 23
-0.6353 0.5234000000000001 -0.1378 114
-42.5938 35.0938 1.9258000000000002 107
-8.3906 6.9102 -1.3925999999999998 52
-42.5625 35.0625 3.2051 98
-9.9531 8.1953 -1.3506 45
-29.375 24.2031 3.1055 46
-11.7344 9.6641 -1.2383 67
-42.5938 35.0625 5.792999999999999 9
-14.398399999999999 11.8594 -1.083 154
-28.2031 23.2344 4.6953 5
-18.6875 15.3906 -0.8438 251
-29.2188 24.0625 5.765599999999999 122
-0.6367 0.5283 -0.1384 209
-26.9531 22.3594 0.40840000000000004 201
-42.625 35.3438 1.9316 188
-8.3516 6.9297 -1.3906 160
-42.5 35.2812 3.2108999999999996 13
-9.9141 8.2266 -1.3496000000000001 144
-11.664100000000001 9.6797 -1.2344 216
-42.625 35.375 5.8164 213
-14.343800000000002 11.898399999999999 -1.082 6
-28.1875 23.3906 4.707 161
-18.6406 15.460899999999999 -0.8438 76
-0.6108 0.5103 -0.1329 208
-26.9219 22.5 0.4094 2
-42.625 35.5938 1.9375 191
-8.3281 6.957000000000001 -1.3906 38
-42.5625 35.5625 3.2245999999999997 78
-9.8828 8.2578 -1.3486000000000002 0
-29.7969 24.8906 3.168 4
-11.656199999999998 9.7422 -1.2373 37
-42.5938 35.5938 5.828099999999999 116
-14.281199999999998 11.9297 -1.0801 110
-28.2188 23.5781 4.7266 146
-18.5312 15.4844 -0.8418000000000001 246
-0.5879 0.4946 -0.1281 91
-0.6884999999999999 0.5791 -0.1307 178
-42.5625 35.8125 1.9413999999999998 82
-8.2891 6.9765999999999995 -1.3887 242
-42.5938 35.8438 3.2382999999999997 121
-9.8516 8.2891 -1.3486000000000002 183
-11.6797 9.8281 -1.2431999999999999 172
-14.218800000000002 11.960899999999999 -1.0781 185
-28.1719 23.7031 4.7305 35
-18.4844 15.5547 -0.8418000000000001 137
-28.9219 24.3281 5.7578 237
-0.5708 0.4839 -0.1246 171
-0.6679999999999999 0.5664 -0.12710000000000002 139
-42.5625 36.0625 1.9463 137
-8.2578 6.9961 -1.3866999999999998 55
-31.1562 26.4062 2.373 69
-9.7969 8.3047 -1.3457 142
-11.6875 9.9062 -1.248 60
-26.8281 22.7344 3.6914 212
-14.1719 12.0078 -1.0781 107
-28.0312 23.75 4.7188 236
-18.4531 15.6406 -0.8432999999999999 106
-28.75 24.3594 5.738300000000001 115
-26.6875 22.625 -0.4082 33
-0.5722999999999999 0.4885 -0.1252 6
-0.6840999999999999 0.584 -0.1307 84
-42.6562 36.4062 1.9561000000000002 35
-8.2266 7.0234000000000005 -1.3857 148
-42.5 36.25 3.248 156
-9.75 8.3281 -1.3428 233
-28.4531 24.2812 3.0507999999999997 44
-11.656199999999998 9.9453 -1.248 137
-30.4531 25.9844 4.2031 171
-14.125 12.0547 -1.0771 158
-28.1406 24.0156 4.7539 216
-18.375 15.6797 -0.8418000000000001 22
-28.7344 24.5312 5.7539 83
-0.6035 0.5186 -0.1329 110
-0.6401 0.5503 -0.1223 54
-8.2031 7.050800000000001 -1.3857 219
-42.5 36.5312 3.2577999999999996 88
-9.7266 8.3516 -1.3428 115
-28.3906 24.3906 3.0526999999999997 103
-11.601600000000001 9.9688 -1.2461 37
-26.6094 22.8594 3.6816000000000004 58
-14.0781 12.093800000000002 -1.0771 159
-26.8281 23.0469 4.543 181
-18.3281 15.7422 -0.8418000000000001 140
-28.3125 24.3281 5.6875 228
-0.6021 0.5205 -0.1329 228
-0.6445000000000001 0.5576 -0.1234 5
-42.7188 36.9375 1.9697 118
-8.1641 7.0664 -1.3838 239
-30.5312 26.4062 2.3457 15
-9.6875 8.3828 -1.3418 197
-27.5781 23.8438 2.9745999999999997 18
-11.5469 9.9844 -1.2431999999999999 10
-26.4531 22.875 3.6719 250
-14.023399999999999 12.1328 -1.0762 117
-26.7344 23.125 4.5391 44
-18.25 15.781199999999998 -0.8408 250
-27.9531 24.1875 5.6289 42
-0.5791 0.5049 -0.1281 112
-0.6781999999999999 0.5913 -0.1307 136
-42.5625 37.125 1.9697 40
-8.1328 7.0898 -1.3818000000000001 35
-28.375 24.75 2.1875 42
-9.6406 8.4062 -1.3397999999999999 206
-27.4531 23.9375 2.9707 234
-11.531199999999998 10.0547 -1.2461 40
-26.4531 23.0625 3.6836 160
-13.976600000000001 12.1875 -1.0762 241
-26.7812 23.3594 4.5664 200
-18.2031 15.875 -0.8418000000000001 23
-27.6719 24.125 5.5938 28
-0.5889 0.5176 -0.1309 232
-42.5625 37.4062 1.9775 26
-8.0938 7.109400000000001 -1.3799000000000001 10
-28.2969 24.8594 2.1895 26
-9.6172 8.4453 -1.3408000000000002 157
-27.8438 24.4688 3.0233999999999996 80
-11.4453 10.0547 -1.2402 238
-26.2969 23.0938 3.6738 67
-13.906199999999998 12.218800000000002 -1.0742 146
-26.6094 23.375 4.5508 231
-18.1406 15.9375 -0.8412999999999999 167
-29.0625 25.5312 5.890599999999999 77
-0.5815 0.5136999999999999 -0.1294 156
-0.6743000000000001 0.5957 -0.1307 20
-42.5938 37.6562 1.9834 161
-8.0781 7.136699999999999 -1.3809 146
-42.5625 37.625 3.3026999999999997 20
-9.5703 8.4531 -1.3369 89
-27.3281 24.1562 2.9766000000000004 215
-11.4219 10.0938 -1.2412 55
-26.2188 23.1719 3.6738 148
-13.835899999999999 12.226600000000001 -1.0723 182
-26.1719 23.125 4.4883 124
-18.0938 15.9844 -0.8412999999999999 86
-27.0625 23.9219 5.5039 252
-0.5825 0.5186 -0.1301 29
-42.5625 37.875 1.9883000000000002 177
-8.0469 7.1562 -1.3799000000000001 149
-29.3125 26.0781 2.2812 48
-9.5234 8.4766 -1.335 248
-27.2031 24.2031 2.9707 173
-11.3906 10.1328 -1.2412 7
-26.0469 23.1719 3.6582 94
-13.8047 12.289100000000001 -1.0723 169
-26.0625 23.1875 4.4805 129
-18.0625 16.0781 -0.8428 19
-26.8906 23.9219 5.480499999999999 223
-0.5972 0.5352 -0.13390000000000002 215
-28.0469 25.1406 1.3135 209
-8.0156 7.1797 -1.3788999999999998 33
-42.5 38.0938 3.3183999999999996 119
-9.4844 8.5 -1.334 185
-27.1094 24.2969 2.9707 13
-11.3047 10.1328 -1.2363 250
-25.9844 23.2812 3.6620999999999997 118
-13.7656 12.343800000000002 -1.0732 140
-26.9375 24.1406 4.6484 248
-17.9531 16.0938 -0.8403 51
-26.7969 24.0156 5.480499999999999 113
-28.0312 25.125 -0.43920000000000003 104
-0.5864 0.5293 -0.1318 175
-28.0 25.2656 0.44020000000000004 106
-0.6679999999999999 0.6025 -0.1307 94
-27.9531 25.2344 1.3135 123
-7.9727 7.1953 -1.376 24
-28.2344 25.4844 2.2109 88
-9.4531 8.5312 -1.334 118
-28.6094 25.8281 3.1445 96
-11.2578 10.1641 -1.2354 148
-26.2656 23.7031 3.7129000000000003 244
-13.7031 12.3672 -1.0713 3
-26.75 24.1406 4.6289 181
-17.9219 16.1719 -0.8412999999999999 51
-26.6719 24.0781 5.4727 207
-27.9219 25.2031 -0.439 37
-0.5815 0.5288 -0.13119999999999998 222
-27.9062 25.3594 0.44020000000000004 172
-7.9453 7.2227 -1.376 6
-42.5312 38.6562 3.3418 6
-9.4062 8.5469 -1.3311000000000002 138
-28.4844 25.9062 3.1406 153
-11.226600000000001 10.2031 -1.2354 192
-26.1094 23.7344 3.7051 83
-13.6406 12.398399999999999 -1.0703 194
-26.2188 23.8438 4.5547 236
-17.8438 16.2188 -0.8403 2
-26.4531 24.0469 5.4453 147
-27.875 25.3438 -0.4397 67
-0.5679 0.52 -0.1284 164
-0.6636 0.6074 -0.1307 17
-42.5625 38.9688 2.0137 181
-7.9102 7.2422 -1.374 246
-30.5 27.9219 2.4023 17
-9.3594 8.5625 -1.3281 54
-28.4844 26.0781 3.1504000000000003 60
-11.1719 10.2266 -1.2334 27
-26.0781 23.875 3.7129000000000003 113
-13.6094 12.4531 -1.0703 17
-25.9844 23.7812 4.5273 239
-17.7812 16.2812 -0.8398 128
-28.7188 26.2969 5.9297 127
-30.7188 28.125 -0.4861 80
-0.5806 0.5352 -0.1318 226
-33.0 30.4219 0.5239 178
-42.5938 39.25 2.0195 211
-7.8828 7.265599999999999 -1.374 18
-27.8281 25.6406 2.1992 107
-9.3281 8.6016 -1.3291 111
-28.875 26.6094 3.2031 40
-11.148399999999999 10.281199999999998 -1.2354 131
-26.8281 24.7344 3.832 240
-13.539100000000001 12.4844 -1.0693000000000001 133
-25.8594 23.8438 4.5195 217
-17.7188 16.3438 -0.8398 248
-26.25 24.1875 5.4375 255
-30.4219 28.0469 -0.4829 109
-0.5845 0.5425 -0.1333 64
-42.5625 39.5 2.0254 155
-7.8438 7.2812 -1.3711000000000002 205
-27.375 25.4219 2.1719 75
-9.2891 8.625 -1.3271000000000002 254
-28.3906 26.3438 3.1601999999999997 109
-11.085899999999999 10.289100000000001 -1.2314 239
-26.5156 24.6094 3.7969 73
-13.4922 12.523399999999999 -1.0684 171
-25.7344 23.8906 4.5117 249
-17.6719 16.4062 -0.8403 253
-28.4844 26.4375 5.917999999999999 42
-30.3125 28.125 -0.4827 227
-0.5825 0.5449 -0.1333 130
-7.8086 7.300800000000001 -1.3691 145
-27.0312 25.2656 2.1504 141
-9.2422 8.6406 -1.3252000000000002 71
-28.5 26.6406 3.1836 247
-11.0469 10.3281 -1.2314 170
-26.4219 24.6875 3.7949 194
-13.4531 12.5703 -1.0684 29
-25.7188 24.0312 4.5234 159
-17.6094 16.4531 -0.8398 223
-27.4844 25.7031 5.730499999999999 147
-30.1094 28.1406 -0.48100000000000004 24
-0.5752 0.5415 -0.1318 166
-7.7852 7.328099999999999 -1.3691 126
-27.0469 25.4531 2.1582 240
-9.2031 8.6641 -1.3232 222
-26.9062 25.3281 3.0137 48
-11.0156 10.3672 -1.2314 142
-26.4062 24.8594 3.8066000000000004 20
-13.398399999999999 12.6172 -1.0684 111
-25.5938 24.0938 4.5156 100
-17.5469 16.5156 -0.8398 215
-26.3438 24.7969 5.5078 16
-0.5732 0.5435 -0.1318 180
-42.5312 40.3125 2.0449 168
-7.7539 7.3477 -1.3681999999999999 190
-26.9062 25.5 2.1543 211
-9.1562 8.6719 -1.3213 130
-28.5781 27.0781 3.2129000000000003 215
-10.906199999999998 10.335899999999999 -1.2236 183
-26.4688 25.0781 3.8281 9
-13.335899999999999 12.6406 -1.0664 194
-25.6719 24.3281 4.543 23
-17.4219 16.5 -0.8359000000000001 209
-26.1719 24.7969 5.4922 252
-0.6143 0.5859000000000001 -0.1423 121
-42.5312 40.5625 2.0508 233
-7.7227 7.3672 -1.3672 76
-42.5 40.5312 3.4141000000000004 104
-9.1172 8.6953 -1.3203 230
-28.4531 27.1406 3.2089999999999996 141
-10.835899999999999 10.335899999999999 -1.2197 108
-26.3906 25.1719 3.8281 112
-13.3047 12.6953 -1.0674 67
-25.5938 24.4219 4.5469 132
-17.4219 16.625 -0.8393999999999999 183
-25.8906 24.7031 5.449199999999999 163
-23.5625 22.4688 -0.3799 224
-0.5552 0.5337 -0.1284 44
-42.4688 40.8125 2.0547 76
-7.6953 7.394500000000001 -1.3672 93
-42.5 40.8438 3.4257999999999997 19
-9.0781 8.7266 -1.3193000000000001 219
-26.6406 25.5938 3.0137 239
-10.7969 10.375 -1.2197 147
-28.1719 27.0781 4.1016 244
-13.2578 12.7422 -1.0674 13
-25.5625 24.5625 4.5547 166
-17.375 16.7031 -0.8398 199
-25.8594 24.8438 5.4609000000000005 102
-23.2188 22.3125 -0.3757 29
-0.5761999999999999 0.5576 -0.13390000000000002 221
-42.5 41.125 2.0625 58
-7.6640999999999995 7.417999999999999 -1.3662 234
-42.5312 41.1562 3.4395 209
-9.0469 8.7578 -1.3193000000000001 73
-25.9844 25.1562 2.9512 117
-10.7578 10.406199999999998 -1.2187999999999999 149
-27.9531 27.0469 4.082 215
-13.210899999999999 12.781199999999998 -1.0674 133
-26.0781 25.2344 4.6602 45
-17.2344 16.6719 -0.8354 248
-25.7656 24.9375 5.4609000000000005 198
-23.1094 22.3594 -0.37520000000000003 139
-0.5518 0.5376 -0.1284 83
-42.5938 41.5 2.0742 69
-7.6328 7.4375 -1.3652000000000002 146
-42.6875 41.5938 3.4648000000000003 41
-9.0078 8.7734 -1.3174000000000001 29
-26.8281 26.1406 3.0547000000000004 131
-10.718800000000002 10.4453 -1.2187999999999999 177
-26.3438 25.6719 3.8613 173
-13.1797 12.843800000000002 -1.0684 186
-26.1875 25.5156 4.6953 239
-17.2344 16.7812 -0.8384 193
-25.7031 25.0469 5.4648 234
-0.5552 0.5449 -0.1298 247
-0.6420999999999999 0.6299 -0.1307 236
-42.5312 41.75 2.0801 128
-7.605499999999999 7.4609000000000005 -1.3652000000000002 56
-8.9531 8.7891 -1.3135 96
-26.7031 26.2188 3.0526999999999997 115
-10.6797 10.476600000000001 -1.2178 233
-26.1406 25.6406 3.8438 50
-13.101600000000001 12.8594 -1.0654000000000001 186
-26.0 25.5 4.6797 43
-17.1406 16.8125 -0.8364 129
-0.5590999999999999 0.5522 -0.13119999999999998 215
-24.9375 24.6406 0.4089 244
-7.574199999999999 7.484400000000001 -1.3643 137
-60.5312 59.8125 4.9492 91
-8.9297 8.8281 -1.3154 14
-26.0156 25.7031 2.9844 9
-10.6328 10.5078 -1.2178 235
-26.0 25.6875 3.8379000000000003 194
-13.085899999999999 12.9297 -1.0674 197
-25.7812 25.4844 4.6562 177
-17.1094 16.9062 -0.8384 94
-0.5513 0.5488000000000001 -0.1298 118
-60.1875 59.9062 2.9629000000000003 253
-7.5273 7.488300000000001 -1.3603999999999998 48
-60.125 59.8125 4.9336 174
-8.8828 8.8438 -1.3125 244
-25.8281 25.7031 2.9726999999999997 84
-10.5781 10.523399999999999 -1.2148 119
-25.8438 25.7188 3.8281 87
-13.023399999999999 12.960899999999999 -1.0664 159
-25.7031 25.5781 4.6562 1
-17.0 16.9219 -0.8359000000000001 53
-0.5483 0.5493 -0.1294 108
-59.8125 59.9375 2.9551 21
-7.4961 7.511699999999999 -1.3594 1
-59.6875 59.8125 4.9141 240
-8.8516 8.8672 -1.3125 151
-25.8438 25.9062 2.9844 169
-10.5547 10.5781 -1.2168 197
-25.75 25.7969 3.8262 230
-12.968800000000002 13.0 -1.0654000000000001 1
-25.1562 25.2031 4.5742 37
-17.0156 17.0469 -0.8393999999999999 148
-0.4963 0.501 -0.11689999999999999 69
-6.4727 6.5312 -1.3955000000000002 170
-59.3438 59.9062 2.9433999999999996 5
-7.4648 7.5352 -1.3584 48
-59.2812 59.8125 4.8945 102
-8.8125 8.8906 -1.3105000000000002 115
-26.0156 26.25 3.0156 183
-10.5156 10.6094 -1.2168 131
-27.375 27.625 4.082 248
-12.914100000000001 13.031199999999998 -1.0645 48
-25.0469 25.2656 4.5703 248
-16.9062 17.0625 -0.8369 192
-0.5444 0.5532 -0.1294 62
-6.449199999999999 6.5547 -1.3955000000000002 16
-58.9375 59.875 2.9316000000000004 98
-7.4453 7.5625 -1.3594 145
-58.8438 59.75 4.875 199
-8.75 8.8906 -1.3066 53
-25.5 25.9062 2.9668 103
-10.476600000000001 10.6406 -1.2158 67
-26.5469 26.9688 3.9745999999999997 22
-12.8672 13.0703 -1.0645 215
-26.0156 26.4219 4.7656 252
-16.8125 17.0781 -0.8354 218
-0.584 0.5972 -0.1399 160
-6.4297 6.574199999999999 -1.3955000000000002 26
-58.5312 59.875 2.9219 93
-7.4062 7.574199999999999 -1.3574000000000002 26
-58.4375 59.75 4.8594 48
-8.7344 8.9297 -1.3086000000000002 99
-10.4453 10.6797 -1.2168 12
-26.7031 27.2969 4.0078 149
-11.0547 11.3047 -0.917 129
-26.3906 26.9844 4.8477 66
-16.7969 17.1719 -0.8369 43
-0.5815 0.5991 -0.1399 222
-6.4062 6.5977 -1.3955000000000002 75
-58.0625 59.8125 2.9101999999999997 188
-7.3672 7.5859000000000005 -1.3544999999999998 114
-58.0312 59.7812 4.8438 93
-8.7031 8.9688 -1.3096 73
-10.406199999999998 10.718800000000002 -1.2168 81
-25.7969 26.5781 3.8867000000000003 230
-10.976600000000001 11.3125 -0.9146 229
-25.75 26.5312 4.75 184
-11.1172 11.4531 -0.5557 72
-0.5468999999999999 0.5674 -0.1315 11
-6.3828 6.6211 -1.3955000000000002 192
-57.6875 59.8438 2.9004000000000003 185
-7.3203 7.5938 -1.3516 135
-57.625 59.75 4.8281 74
-8.6719 9.0 -1.3096 137
-10.3594 10.7422 -1.2148 24
-25.75 26.7188 3.8964999999999996 114
-10.843800000000002 11.25 -0.9062 62
-24.9688 25.9062 4.6211 216
-10.601600000000001 10.9922 -0.5317000000000001 236
-0.5449 0.5693 -0.1315 178
-6.3359000000000005 6.6172 -1.3906 92
-57.2812 59.8438 2.8906 124
-7.3086 7.6328 -1.3535 165
-57.1875 59.75 4.8086 102
-8.625 9.0078 -1.3066 29
-26.9688 28.1719 3.1816000000000004 231
-10.3281 10.781199999999998 -1.2158 240
-25.6094 26.7656 3.8887 191
-10.6797 11.156199999999998 -0.8959999999999999 133
-24.9531 26.0625 4.6367 32
-0.5752 0.6054999999999999 -0.1399 171
-6.292999999999999 6.6211 -1.3866999999999998 63
-56.8438 59.8125 2.8789 254
-7.2734000000000005 7.6484000000000005 -1.3525 43
-56.7812 59.7188 4.793 231
-8.5859 9.0312 -1.3047 10
-26.6719 28.0625 3.1601999999999997 167
-10.289100000000001 10.8281 -1.2168 14
-25.6562 26.9844 3.9082 249
-24.8438 26.1406 4.6328 79
-10.3125 10.851600000000001 -0.1741 249
-0.541 0.5728 -0.1315 145
-6.25 6.6211 -1.3818000000000001 13
-56.4688 59.8438 2.8711 221
-7.234400000000001 7.6640999999999995 -1.3506 169
-56.375 59.7188 4.7773 42
-8.5469 9.0547 -1.3037 193
-26.5781 28.1562 3.1601999999999997 220
-10.2344 10.843800000000002 -1.2148 57
-25.5469 27.0625 3.9082 238
-24.8438 26.3125 4.6484 138
-9.6875 10.2656 -0.491 157
-0.5605 0.5977 -0.1371 32
-6.207000000000001 6.6211 -1.3779 122
-56.0625 59.8125 2.8613 133
-7.1953 7.675800000000001 -1.3477000000000001 213
-55.9688 59.7188 4.7617 156
-8.5156 9.0859 -1.3047 180
-26.4688 28.2344 3.1562 237
-10.2109 10.8906 -1.2158 123
-25.4688 27.1719 3.9101999999999997 174
-9.6562 10.2969 -0.8184 81
-24.8125 26.4688 4.6602 53
-9.625 10.2656 -0.1637 72
-0.502 0.5390999999999999 -0.1225 250
-6.175800000000001 6.636699999999999 -1.376 148
-55.6562 59.7812 2.8516000000000004 189
-7.167999999999999 7.699199999999999 -1.3477000000000001 249
-55.5938 59.7188 4.7461 41
-8.4844 9.1172 -1.3047 156
-26.4062 28.375 3.1620999999999997 68
-10.1719 10.9297 -1.2158 25
-25.3438 27.2188 3.9043 29
-9.4141 10.1172 -0.1606 26
-0.5562 0.6015999999999999 -0.1371 57
-6.1484000000000005 6.6523 -1.375 166
-55.2812 59.8125 2.8418 81
-7.1289 7.7148 -1.3457 49
-55.1875 59.7188 4.7305 61
-8.4297 9.125 -1.3008000000000002 234
-10.1328 10.960899999999999 -1.2158 230
-25.1094 27.1719 3.8827999999999996 126
-9.1953 9.9453 -0.1575 71
-0.5303 0.5776 -0.1309 153
-6.0977 6.644500000000001 -1.3681999999999999 103
-54.875 59.7812 2.832 246
-7.1015999999999995 7.734400000000001 -1.3447 251
-54.7812 59.6562 4.7109 243
-8.3828 9.1328 -1.2988 123
-10.0859 10.9844 -1.2148 153
-25.8438 28.1562 4.0117 207
-9.0234 9.8281 -0.1552 215
-5.3672 5.890599999999999 -1.3975 89
-6.0703 6.6602 -1.3672 217
-54.4688 59.75 2.8223000000000003 130
-7.0547 7.738300000000001 -1.3408000000000002 72
-54.4062 59.6875 4.6953 146
-8.3516 9.1641 -1.2978999999999998 236
-10.0469 11.0156 -1.2139 136
-24.9531 27.375 3.8867000000000003 153
-8.7422 9.5938 -0.7524 56
-8.8203 9.6797 -0.1522 112
-5.300800000000001 5.855499999999999 -1.3857 188
-6.0390999999999995 6.671900000000001 -1.3652000000000002 25
-54.0938 59.75 2.8125 195
-7.015599999999999 7.75 -1.3388999999999998 114
-54.0312 59.6875 4.6797 171
-8.3203 9.1875 -1.2978999999999998 124
-53.9062 59.5625 6.5586 23
-8.6094 9.5156 -1.0449 43
-25.7656 28.4688 4.0312 242
-8.6016 9.5 -0.7432 238
-8.6875 9.6016 -0.1505 189
-5.25 5.8438 -1.3779 153
-6.015599999999999 6.6953 -1.3662 85
-53.6875 59.7188 2.8026999999999997 134
-6.9727 7.7578 -1.3369 212
-53.625 59.6562 4.6641 7
-8.2734 9.2109 -1.2969 7
-53.5312 59.5312 6.5352 186
-8.4453 9.3984 -1.0283 175
-25.6406 28.5312 4.0273 188
-8.3672 9.3125 -0.7256 104
-8.5469 9.5156 -0.1487 191
-5.2265999999999995 5.8515999999999995 -1.376 225
-5.988300000000001 6.703099999999999 -1.3643 161
-53.3438 59.7188 2.7949 210
-6.9453 7.7773 -1.3359 188
-53.25 59.625 4.6484 17
-8.2266 9.2109 -1.2938999999999998 10
-53.1875 59.5625 6.519500000000001 84
-8.25 9.2344 -1.0078 215
-8.1562 9.1328 -0.7095 37
-8.3984 9.3984 -0.1465 237
-5.203099999999999 5.863300000000001 -1.374 226
-5.957000000000001 6.7148 -1.3622999999999998 156
-53.0 59.7188 2.7870999999999997 172
-6.9062 7.7812 -1.3330000000000002 74
-52.9062 59.625 4.6367 173
-8.1875 9.2344 -1.2919999999999998 232
-52.8125 59.5312 6.4961 154
-8.1875 9.2266 -1.0039 218
-8.0859 9.1172 -0.7065 107
-8.2812 9.3359 -0.145 106
-5.175800000000001 5.8789 -1.3730000000000002 117
-5.921900000000001 6.7227 -1.3594 189
-6.859400000000001 7.7890999999999995 -1.3291 230
-52.5 59.5938 4.6172 139
-8.1484 9.25 -1.291 107
-52.4375 59.5312 6.4765999999999995 212
-8.0547 9.1484 -0.9922 186
-8.0078 9.0938 -0.7021 36
-7.980499999999999 9.0625 -0.4199 204
-8.1797 9.2891 -0.1439 129
-5.1602 5.9023 -1.375 22
-5.894500000000001 6.7422 -1.3594 188
-6.832000000000001 7.8125 -1.3291 72
-52.1562 59.625 4.6055 114
-8.1094 9.2734 -1.291 41
-52.0 59.4688 6.449199999999999 75
-7.8828 9.0156 -0.9741 51
-7.8359000000000005 8.9609 -0.4138 20
-7.9140999999999995 9.0469 -0.1396 165
-5.1328 5.9102 -1.3730000000000002 152
-5.859400000000001 6.7461 -1.3555000000000001 242
-6.792999999999999 7.824199999999999 -1.3271000000000002 75
-51.75 59.5938 4.5898 239
-8.0859 9.3047 -1.291 174
-51.6875 59.5 6.4336 166
-7.8047 8.9922 -0.9688 36
-7.707000000000001 8.875 -0.6812 60
-7.800800000000001 8.9844 -0.1383 41
-5.0938 5.9062 -1.3672 246
-5.8477 6.7812 -1.3584 114
-6.75 7.828099999999999 -1.3241999999999998 202
-51.375 59.5938 4.5742 250
-8.0469 9.3281 -1.29 235
-51.2812 59.5 6.4140999999999995 67
-7.6836 8.9141 -0.9575 125
-7.636699999999999 8.8594 -0.6777 254
-7.7265999999999995 8.9609 -0.1375 128
-5.0781 5.9297 -1.3691 0
-5.8047 6.7773 -1.3544999999999998 12
-6.7265999999999995 7.855499999999999 -1.3252000000000002 192
-51.0 59.5625 4.5586 13
-8.0078 9.3516 -1.2891 115
-50.9375 59.4688 6.390599999999999 248
-7.6289 8.9141 -0.9545999999999999 142
-7.5938 8.8672 -0.6768000000000001 37
-7.6914 8.9844 -0.1375 74
-5.0547 5.9453 -1.3681999999999999 248
-7.8477 9.2266 0.1407 10
-5.761699999999999 6.7773 -1.3506 81
-6.6875 7.8672 -1.3222999999999998 25
-50.6562 59.5625 4.5469 79
-7.9688 9.375 -1.2881 231
-50.5625 59.4688 6.375 117
-7.5664 8.8984 -0.9501999999999999 194
-7.5625 8.8984 -0.6768000000000001 161
-7.6602 9.0078 -0.1373 25
-5.0352 5.9648 -1.3691 159
-7.8125 9.2578 0.1407 42
-5.7461 6.8047 -1.3516 156
-50.3438 59.6562 2.7245999999999997 104
-6.6523 7.8828 -1.3213 6
-50.2812 59.5938 4.5352 17
-7.9453 9.4141 -1.29 83
-50.1875 59.4688 6.3515999999999995 51
-7.5352 8.9219 -0.9501999999999999 122
-7.5547 8.9531 -0.6787000000000001 110
-7.5703 8.9688 -0.408 172
-5.0 5.9688 -1.3652000000000002 103
-5.7227 6.828099999999999 -1.3525 12
-50.0 59.6562 2.7168 145
-6.609400000000001 7.8828 -1.3174000000000001 251
-49.9062 59.5312 4.5195 204
-7.9062 9.4297 -1.2891 70
-49.8438 59.4688 6.3359000000000005 157
-7.5 8.9453 -0.9497 65
-7.5273 8.9844 -0.6792 207
-7.542999999999999 9.0 -0.40840000000000004 141
-4.9805 5.980499999999999 -1.3652000000000002 13
-5.6875 6.828099999999999 -1.3486000000000002 34
-49.6562 59.6562 2.7089999999999996 110
-6.582000000000001 7.9062 -1.3174000000000001 168
-49.5625 59.5 4.5039 4
-7.863300000000001 9.4453 -1.2871000000000001 100
-49.5 59.4688 6.3164 249
-7.4727 8.9766 -0.9501999999999999 87
-7.488300000000001 9.0 -0.6781999999999999 251
-7.515599999999999 9.0234 -0.40840000000000004 200
-4.957 5.9922 -1.3643 21
-5.6602 6.8438 -1.3477000000000001 48
-49.3438 59.6562 2.7012 253
-6.550800000000001 7.921900000000001 -1.3163999999999998 190
-49.2188 59.5 4.4883 7
-7.8164 9.4531 -1.2841999999999998 159
-49.125 59.4062 6.292999999999999 232
-7.4414 9.0 -0.9501999999999999 25
-7.4609000000000005 9.0234 -0.6787000000000001 22
-7.484400000000001 9.0547 -0.40840000000000004 209
-4.9297 6.0078 -1.3633000000000002 227
-5.6211 6.8515999999999995 -1.3447 54
-48.9062 59.625 2.6914 45
-6.5234000000000005 7.953099999999999 -1.3174000000000001 187
-48.8125 59.5312 4.4766 126
-7.7734000000000005 9.4766 -1.2832 212
-48.75 59.4375 6.2734000000000005 146
-7.3984000000000005 9.0156 -0.9492 70
-7.4297 9.0547 -0.6787000000000001 27
-7.4375 9.0703 -0.4077 191
-4.9023 6.019500000000001 -1.3613 15
-5.6015999999999995 6.8828 -1.3466999999999998 138
-48.5312 59.625 2.6836 232
-6.484400000000001 7.9648 -1.3154 154
-48.4688 59.5312 4.4648 108
-7.734400000000001 9.5 -1.2832 73
-48.375 59.4062 6.2539 92
-7.363300000000001 9.0469 -0.9487000000000001 34
-7.3984000000000005 9.0859 -0.6792 110
-7.4102 9.1016 -0.408 0
-4.8789 6.0312 -1.3603999999999998 14
-5.5703 6.886699999999999 -1.3437999999999999 203
-48.1875 59.5938 2.6738 212
-6.4453 7.9688 -1.3125 42
-48.125 59.4688 4.4492 102
-7.699199999999999 9.5234 -1.2822 56
-48.0625 59.4062 6.238300000000001 52
-7.332000000000001 9.0625 -0.9487000000000001 248
-20.2656 25.0469 3.3808999999999996 222
-7.363300000000001 9.1016 -0.6787000000000001 60
-7.390599999999999 9.1406 -0.40869999999999995 208
-4.8516 6.0390999999999995 -1.3584 68
-5.5547 6.9140999999999995 -1.3466999999999998 217
-6.417999999999999 7.988300000000001 -1.3125 176
-47.7812 59.5 4.4375 172
-7.6562 9.5312 -1.2803 62
-47.7188 59.4062 6.2188 172
-7.3164 9.1094 -0.9506999999999999 101
-20.2188 25.1562 3.3887 85
-7.3398 9.1328 -0.6792 38
-7.359400000000001 9.1562 -0.40840000000000004 214
-4.832 6.0586 -1.3594 219
-5.5234000000000005 6.921900000000001 -1.3437999999999999 40
-6.3984000000000005 8.0234 -1.3144999999999998 224
-47.4062 59.4375 4.4219 19
-7.6211 9.5547 -1.2803 178
-18.6875 23.4375 2.4453 219
-7.292999999999999 9.1406 -0.9517 156
-20.2344 25.3594 3.4062 106
-7.3047 9.1562 -0.6787000000000001 167
-7.324199999999999 9.1797 -0.4082 29
-18.9531 23.75 4.625 254
-4.8164 6.078099999999999 -1.3603999999999998 236
-5.488300000000001 6.9297 -1.3418 131
-6.363300000000001 8.0312 -1.3125 156
-47.0938 59.4375 4.4102 186
-7.578099999999999 9.5625 -1.2773 115
-47.0625 59.375 6.1836 43
-7.2461 9.1484 -0.9497 224
-19.7656 24.9531 3.3418 7
-7.2852 9.1953 -0.6797 28
-18.8281 23.7656 4.6172 23
-4.7891 6.0898 -1.3584 159
-5.457000000000001 6.9453 -1.3397999999999999 17
-46.8438 59.5938 2.6445 189
-6.3164 8.0391 -1.3096 186
-46.75 59.4688 4.3984 194
-7.550800000000001 9.6016 -1.2793 29
-18.4844 23.5156 2.4395 223
-7.2188 9.1797 -0.9506999999999999 223
-19.8125 25.1875 3.3632999999999997 83
-7.2539 9.2266 -0.6801999999999999 128
-7.2890999999999995 9.2734 -0.40990000000000004 226
-18.9062 24.0469 4.6602 92
