# .PCD v0.7 - Point Cloud Data file format
VERSION 0.7
FIELDS x y z intensity
SIZE 4 4 4 4
TYPE F F F F
COUNT 1 1 1 1
WIDTH 1242
HEIGHT 1
VIEWPOINT 0 0 0 1 0 0 0
POINTS 1242
DATA ascii
2.418 -5.230499999999999 0.0665 35
2.0996 -4.5391 -0.7563 136
2.4746 -5.3515999999999995 0.2041 197
2.6445 -5.7227 -0.8057 122
2.4863 -5.3789 0.342 196
3.9882999999999997 -8.625 -0.9941 170
2.4902 -5.386699999999999 0.48100000000000004 148
2.4648 -5.332000000000001 -0.47609999999999997 175
2.4902 -5.386699999999999 0.6191 60
2.4727 -5.3477 -0.34009999999999996 5
2.4902 -5.386699999999999 0.7578 124
2.4766 -5.355499999999999 -0.20420000000000002 119
2.4883 -5.3828 0.8979 105
2.4512 -5.3047 -0.0674 87
2.4902 -5.386699999999999 1.0391 153
2.0469 -4.4688 -0.8589 61
2.3984 -5.234400000000001 0.0664 221
2.0684 -4.5156 -0.7509999999999999 50
2.4609 -5.3711 0.2045 202
2.6504000000000003 -5.7890999999999995 -0.8134999999999999 162
2.457 -5.363300000000001 0.3406 189
2.8535000000000004 -6.230499999999999 -0.7158 2
2.4707 -5.394500000000001 0.48100000000000004 247
2.4512 -5.3515999999999995 -0.4771 148
2.4648 -5.3828 0.6177 116
2.4453 -5.3359000000000005 -0.3389 158
2.4609 -5.3711 0.7544 214
2.457 -5.363300000000001 -0.20420000000000002 251
2.4688 -5.390599999999999 0.8975 183
2.4453 -5.3398 -0.0677 112
2.4668 -5.386699999999999 1.0371 185
2.041 -4.5 -0.8637999999999999 178
2.4043 -5.300800000000001 0.06709999999999999 43
2.0391 -4.4922 -0.7461 197
2.4336 -5.363300000000001 0.2039 108
2.6601999999999997 -5.859400000000001 -0.8223 150
2.4355 -5.3672 0.34009999999999996 180
3.9824 -8.7734 -1.0078 230
2.4414 -5.3789 0.4788 24
2.4277 -5.3477 -0.47609999999999997 151
2.4512 -5.4023 0.6187 20
2.4258 -5.3477 -0.3389 94
2.4355 -5.3672 0.7529 171
2.4277 -5.3515999999999995 -0.2034 99
2.4473 -5.394500000000001 0.897 220
2.4219 -5.3359000000000005 -0.0676 243
2.4434 -5.3828 1.0352 18
2.041 -4.5391 -0.8701000000000001 169
2.4062 -5.3515999999999995 0.0677 213
2.0273 -4.5117 -0.7476 210
2.4082 -5.359400000000001 0.2034 225
2.6620999999999997 -5.921900000000001 -0.8295999999999999 155
2.4219 -5.3828 0.3408 201
2.7598000000000003 -6.140599999999999 -0.7026 6
2.4141 -5.3711 0.47729999999999995 206
2.4023 -5.3398 -0.4746 117
2.4297 -5.4023 0.6182 69
2.4004 -5.3398 -0.3379 212
2.418 -5.3789 0.7529 203
2.4023 -5.3398 -0.2028 165
2.4219 -5.386699999999999 0.894 44
2.4004 -5.3398 -0.0676 161
2.4238 -5.390599999999999 1.0342 160
2.0391 -4.5781 -0.8765000000000001 193
2.3906 -5.3672 0.0678 150
2.002 -4.4922 -0.7437 162
2.3867 -5.359400000000001 0.203 91
2.3418 -5.2578 -0.7349 199
2.3984 -5.386699999999999 0.3403 11
2.7441000000000004 -6.1602 -0.7041 127
2.3926 -5.3711 0.47659999999999997 135
2.375 -5.332000000000001 -0.4731 131
2.4023 -5.394500000000001 0.6162 201
2.3867 -5.359400000000001 -0.3386 188
2.3984 -5.3828 0.7524 106
2.3848 -5.3515999999999995 -0.2029 92
2.3926 -5.375 0.8906000000000001 185
2.373 -5.328099999999999 -0.0673 253
2.4004 -5.386699999999999 1.0322 221
2.0312 -4.6055 -0.8798999999999999 108
2.3672 -5.363300000000001 0.0677 118
2.002 -4.5352 -0.7495 69
2.3652 -5.363300000000001 0.2029 129
2.3184 -5.2539 -0.7329000000000001 225
2.3711 -5.3711 0.3389 15
2.707 -6.1328 -0.6997 121
2.375 -5.3828 0.4768 143
2.3594 -5.3438 -0.4736 20
2.373 -5.3789 0.6133 55
2.3574 -5.3398 -0.3369 164
2.377 -5.3828 0.7515000000000001 133
2.3613 -5.3515999999999995 -0.2024 61
2.375 -5.3828 0.8906000000000001 243
2.3477 -5.3203 -0.06709999999999999 160
2.375 -5.3789 1.0293 3
2.0273 -4.6367 -0.8853 48
2.3398 -5.355499999999999 0.0674 55
1.9893 -4.5508 -0.7509999999999999 47
2.3418 -5.359400000000001 0.2024 170
2.2969 -5.2539 -0.7323999999999999 16
2.3457 -5.3672 0.3381 34
2.6992000000000003 -6.175800000000001 -0.7036 170
2.3516 -5.3828 0.47609999999999997 253
2.332 -5.3359000000000005 -0.4719 139
2.3574 -5.394500000000001 0.6143 219
2.3359 -5.3438 -0.3367 27
2.3496 -5.375 0.7490000000000001 123
2.3418 -5.355499999999999 -0.2024 248
2.3574 -5.394500000000001 0.8911 170
2.3301 -5.328099999999999 -0.06709999999999999 90
2.3555 -5.390599999999999 1.0293 76
2.0234 -4.6719 -0.8901 102
2.3203 -5.359400000000001 0.0674 225
1.9678 -4.5469 -0.7484999999999999 173
2.3223 -5.363300000000001 0.2023 93
2.2832 -5.2734000000000005 -0.7339 97
2.3242 -5.3711 0.3379 212
2.7012 -6.238300000000001 -0.71 243
2.3301 -5.3828 0.4753 217
2.3145 -5.3477 -0.4722 185
2.3359 -5.3984000000000005 0.6138 62
2.3125 -5.3438 -0.3362 227
2.3223 -5.363300000000001 0.7465999999999999 178
2.3184 -5.355499999999999 -0.20190000000000002 141
2.332 -5.386699999999999 0.8887 253
2.3125 -5.3398 -0.06709999999999999 117
2.334 -5.390599999999999 1.0283 242
2.0195 -4.707 -0.8959999999999999 122
2.2969 -5.355499999999999 0.0673 12
1.96 -4.5703 -0.752 97
2.2988 -5.363300000000001 0.20190000000000002 32
2.2676 -5.2890999999999995 -0.7349 110
2.3066 -5.3789 0.3379 142
2.7012 -6.300800000000001 -0.7158 65
2.3047 -5.375 0.47409999999999997 176
2.2871 -5.332000000000001 -0.4702 91
2.3164 -5.3984000000000005 0.6128 41
2.2969 -5.355499999999999 -0.33640000000000003 226
2.3047 -5.375 0.7471 251
2.2891 -5.3398 -0.201 209
2.3086 -5.3828 0.8867 237
2.2949 -5.3515999999999995 -0.0672 227
2.3164 -5.4023 1.0293 237
2.0215 -4.7578 -0.9043000000000001 122
2.2812 -5.375 0.0674 34
1.9561000000000002 -4.6055 -0.7563 134
2.2695 -5.3477 0.201 91
2.2559 -5.3125 -0.7368000000000001 208
2.2871 -5.386699999999999 0.3379 81
2.6973000000000003 -6.3477 -0.7202 196
2.2852 -5.3789 0.4736 239
2.2617 -5.328099999999999 -0.469 159
2.291 -5.394500000000001 0.6113000000000001 136
2.2773 -5.363300000000001 -0.33640000000000003 195
2.2832 -5.3789 0.7461 112
2.2695 -5.3438 -0.2009 88
2.2852 -5.3828 0.8853 184
2.2578 -5.3164 -0.0667 119
2.2891 -5.386699999999999 1.0244 29
2.0117 -4.7852 -0.9077 191
2.25 -5.3477 0.067 133
1.9687999999999999 -4.6836 -0.7681 162
2.252 -5.355499999999999 0.201 133
2.6523000000000003 -6.3047 -0.8745 224
2.2598 -5.3711 0.33640000000000003 213
2.6952999999999996 -6.4102 -0.7261 116
2.2617 -5.375 0.4727 156
2.2422 -5.332000000000001 -0.46880000000000005 92
2.2676 -5.390599999999999 0.6099 2
2.248 -5.3477 -0.3347 150
2.2656 -5.386699999999999 0.7461 189
2.252 -5.3515999999999995 -0.2009 213
2.2656 -5.386699999999999 0.8843000000000001 29
2.2344 -5.3125 -0.0665 118
2.2656 -5.386699999999999 1.0234 218
2.002 -4.8086 -0.9106000000000001 155
2.2148 -5.3203 0.0665 205
1.959 -4.7031 -0.7705 209
2.2344 -5.363300000000001 0.201 85
2.6523000000000003 -6.3711 -0.8823000000000001 115
2.2363 -5.3711 0.3357 134
3.6952999999999996 -8.875 -1.0059 237
2.2422 -5.3828 0.4727 105
2.2207 -5.332000000000001 -0.4683 41
2.2461 -5.390599999999999 0.6093999999999999 213
2.2246 -5.3398 -0.33399999999999996 127
2.2383 -5.375 0.7437 139
2.2305 -5.355499999999999 -0.20079999999999998 72
2.2422 -5.386699999999999 0.8833 147
2.2109 -5.3086 -0.0663 205
2.2402 -5.3789 1.0205 172
2.0078 -4.8633 -0.9204000000000001 79
2.1953 -5.3203 0.0664 4
1.9628999999999999 -4.7578 -0.7783 227
2.2148 -5.3672 0.2009 220
2.6483999999999996 -6.417999999999999 -0.8876999999999999 73
2.2188 -5.375 0.3357 191
6.1289 -14.8594 -1.6846 214
2.2246 -5.390599999999999 0.4727 74
2.2012 -5.3359000000000005 -0.4678 220
2.2305 -5.4062 0.6099 120
2.2031 -5.3359000000000005 -0.3333 253
2.2168 -5.3711 0.7417 5
2.2051 -5.3438 -0.20010000000000003 24
2.2266 -5.394500000000001 0.8833 6
2.1953 -5.3203 -0.0664 186
2.2266 -5.394500000000001 1.0215 206
2.002 -4.8984 -0.9253 40
2.1758 -5.3203 0.0663 80
2.0059 -4.9102 -0.8022 86
2.1914 -5.363300000000001 0.2006 149
2.6445 -6.4688 -0.8936 124
2.1992 -5.3789 0.3354 202
6.046900000000001 -14.789100000000001 -1.6747999999999998 181
2.1953 -5.375 0.4705 126
2.1855 -5.3477 -0.4683 241
2.209 -5.4062 0.6093999999999999 101
2.1895 -5.359400000000001 -0.33399999999999996 252
2.1953 -5.3672 0.7406999999999999 17
2.1797 -5.3359000000000005 -0.19949999999999998 22
2.2012 -5.386699999999999 0.8809 63
2.1738 -5.3203 -0.0663 236
2.207 -5.3984000000000005 1.0205 236
1.9950999999999999 -4.9336 -0.9312 48
2.1543 -5.328099999999999 0.0663 79
2.0547 -5.082 -0.8291 190
2.1641 -5.3515999999999995 0.1998 248
2.6387 -6.5234000000000005 -0.8998999999999999 149
2.1777 -5.3828 0.33520000000000005 179
5.9727 -14.773399999999999 -1.6699000000000002 201
2.1758 -5.3828 0.4705 10
2.1562 -5.328099999999999 -0.4658 231
2.1797 -5.390599999999999 0.6064 25
2.166 -5.355499999999999 -0.3335 95
2.1777 -5.3828 0.7412000000000001 215
2.1582 -5.3398 -0.1993 92
2.1777 -5.386699999999999 0.8794 64
2.1504 -5.3164 -0.0662 79
2.1836 -5.4023 1.0195 197
1.9785 -4.9414 -0.9312 211
2.1348 -5.332000000000001 0.0663 214
2.0645 -5.1523 -0.8398 79
2.1426 -5.3515999999999995 0.1996 159
2.6464999999999996 -6.609400000000001 -0.9106000000000001 212
2.1523 -5.375 0.33399999999999996 86
5.9062 -14.75 -1.666 175
2.1562 -5.386699999999999 0.4702 103
2.1348 -5.328099999999999 -0.4653 183
2.1582 -5.386699999999999 0.6054999999999999 75
2.1406 -5.3477 -0.3323 204
2.1562 -5.3828 0.7406999999999999 187
2.1387 -5.3438 -0.1991 204
2.1582 -5.390599999999999 0.8789 71
2.1211 -5.296900000000001 -0.0659 143
2.1543 -5.3828 1.0146 162
1.9805000000000001 -4.9961 -0.9399 127
2.1133 -5.328099999999999 0.0662 36
2.0547 -5.1836 -0.8438 17
2.1289 -5.3672 0.1998 177
2.4707 -6.234400000000001 -0.8569 48
2.127 -5.3672 0.3333 248
5.8515999999999995 -14.75 -1.6631 143
2.1348 -5.386699999999999 0.46950000000000003 33
2.1191 -5.3438 -0.4658 249
2.1387 -5.390599999999999 0.605 139
2.1172 -5.3398 -0.33130000000000004 127
2.1309 -5.3711 0.7378 112
2.1211 -5.3477 -0.1991 101
2.1367 -5.390599999999999 0.8774 236
2.1035 -5.3047 -0.0659 91
2.1348 -5.3828 1.0137 66
1.9853999999999998 -5.0547 -0.9501999999999999 43
2.0879 -5.3164 0.0659 109
1.9863 -5.0586 -0.8223 214
2.1094 -5.3711 0.1997 55
2.4414 -6.2148 -0.8534999999999999 240
2.1094 -5.3672 0.33299999999999996 226
5.796900000000001 -14.7578 -1.6621000000000001 231
2.1152 -5.3828 0.46880000000000005 230
2.1035 -5.355499999999999 -0.46630000000000005 109
2.123 -5.4023 0.6054999999999999 196
2.0996 -5.3438 -0.33130000000000004 159
2.1094 -5.3711 0.7363 159
2.0977 -5.3398 -0.1986 90
2.1191 -5.394500000000001 0.877 9
2.0879 -5.3164 -0.0659 162
2.1152 -5.386699999999999 1.0127 136
1.9813999999999998 -5.1055 -0.958 111
2.0664 -5.324199999999999 0.0659 14
2.0098 -5.175800000000001 -0.8403 133
2.082 -5.359400000000001 0.19899999999999998 45
2.3945 -6.1640999999999995 -0.8452 238
2.0879 -5.3789 0.33299999999999996 35
5.7422 -14.789100000000001 -1.6631 3
2.0859 -5.3711 0.4668 169
2.0742 -5.3398 -0.4644 31
2.1016 -5.4102 0.6054999999999999 110
2.0762 -5.3477 -0.33130000000000004 56
2.084 -5.3672 0.7354 215
2.0703 -5.3359000000000005 -0.198 88
2.0938 -5.394500000000001 0.8755 218
2.0703 -5.332000000000001 -0.066 147
2.0918 -5.386699999999999 1.0107 65
1.9785 -5.1484000000000005 -0.9648 101
2.0547 -5.3477 0.0661 170
2.0352 -5.296900000000001 -0.8589 65
2.0566 -5.3515999999999995 0.1985 65
2.3652 -6.1562 -0.8428 196
2.0684 -5.3789 0.3328 167
5.6914 -14.8125 -1.6631 61
2.0684 -5.386699999999999 0.4675 238
2.0449 -5.3203 -0.4619 95
2.0723 -5.390599999999999 0.6025 91
2.0586 -5.355499999999999 -0.33130000000000004 55
2.0684 -5.3828 0.7358 6
2.0488 -5.3359000000000005 -0.1978 8
2.0684 -5.3828 0.8726 28
2.0547 -5.3477 -0.0661 199
2.0723 -5.394500000000001 1.0117 68
1.9766 -5.199199999999999 -0.9731000000000001 230
2.0391 -5.359400000000001 0.0662 189
2.3027 -6.0547 -0.9814 165
2.0352 -5.3515999999999995 0.1981 11
2.3438 -6.1640999999999995 -0.8428 115
2.041 -5.3672 0.33130000000000004 177
5.640599999999999 -14.835899999999999 -1.6641 208
2.0488 -5.386699999999999 0.467 82
2.0254 -5.328099999999999 -0.4619 109
2.0469 -5.3828 0.6006 194
2.0332 -5.3477 -0.33030000000000004 80
2.0469 -5.3789 0.7349 10
2.0312 -5.3438 -0.1979 27
2.0508 -5.390599999999999 0.873 25
2.0312 -5.3398 -0.0659 151
2.0488 -5.390599999999999 1.0098 42
1.9668 -5.2265999999999995 -0.9775 15
2.0176 -5.359400000000001 0.0661 231
2.2891 -6.082000000000001 -0.9843999999999999 60
2.0195 -5.3672 0.1984 128
2.3086 -6.136699999999999 -0.8379000000000001 60
2.0195 -5.3672 0.3311 237
5.5898 -14.8594 -1.6641 166
2.0293 -5.394500000000001 0.467 203
2.0059 -5.332000000000001 -0.4617 171
2.0312 -5.3984000000000005 0.6015999999999999 137
2.002 -5.3203 -0.3281 206
2.0215 -5.375 0.7334 158
2.0137 -5.3515999999999995 -0.1979 122
2.0273 -5.386699999999999 0.8715999999999999 30
2.0039 -5.328099999999999 -0.06570000000000001 58
2.0234 -5.375 1.0049 213
1.9668 -5.2812 -0.9863 230
1.9883000000000002 -5.3398 0.06570000000000001 244
2.2559 -6.0586 -0.9790000000000001 65
1.9980000000000002 -5.3672 0.1981 99
2.3008 -6.1797 -0.8428 254
1.9931999999999999 -5.3515999999999995 0.3296 4
5.542999999999999 -14.8906 -1.665 201
2.002 -5.3789 0.46509999999999996 215
1.9902000000000002 -5.3477 -0.46240000000000003 53
2.0078 -5.394500000000001 0.6006 55
1.9912 -5.3477 -0.3293 60
1.9961000000000002 -5.363300000000001 0.7304999999999999 139
1.9844 -5.328099999999999 -0.1968 82
2.0078 -5.390599999999999 0.8706 114
1.9902000000000002 -5.3438 -0.0658 54
2.0039 -5.3789 1.0049 164
2.1973 -5.9648 -1.1133 216
1.9716999999999998 -5.3515999999999995 0.0658 159
2.2344 -6.0664 -0.9790000000000001 164
1.9736000000000002 -5.359400000000001 0.19760000000000003 0
2.2734 -6.171900000000001 -0.8408 65
1.9756 -5.363300000000001 0.3298 220
5.4922 -14.906199999999998 -1.665 22
1.9766 -5.3672 0.46340000000000003 203
1.9647999999999999 -5.3359000000000005 -0.4607 119
1.9863 -5.390599999999999 0.5996 219
1.9668 -5.3398 -0.3284 47
1.9794999999999998 -5.375 0.731 100
1.9678 -5.3398 -0.19699999999999998 110
1.9834 -5.386699999999999 0.8687 114
1.9687999999999999 -5.3438 -0.06570000000000001 232
1.9853999999999998 -5.390599999999999 1.0059 166
2.1875 -6.0 -1.1181999999999999 164
1.9561000000000002 -5.363300000000001 0.0659 75
2.2129 -6.074199999999999 -0.9790000000000001 237
1.9512 -5.3515999999999995 0.1971 155
2.2441 -6.1523 -0.8369 121
1.9580000000000002 -5.3711 0.3298 147
5.453099999999999 -14.960899999999999 -1.6688999999999998 31
1.959 -5.3711 0.46340000000000003 44
1.9434 -5.328099999999999 -0.4597 21
1.9658000000000002 -5.394500000000001 0.5986 3
1.9453 -5.3359000000000005 -0.3276 128
1.9638999999999998 -5.386699999999999 0.7323999999999999 214
1.9491999999999998 -5.3477 -0.19690000000000002 225
1.9628999999999999 -5.3828 0.8672 68
1.9482 -5.3438 -0.06559999999999999 150
1.9678 -5.3984000000000005 1.0059 192
2.1758 -6.0273 -1.123 206
1.9355000000000002 -5.363300000000001 0.0658 173
2.2051 -6.113300000000001 -0.9843999999999999 22
1.9316 -5.355499999999999 0.19699999999999998 9
2.2207 -6.1523 -0.8359000000000001 35
1.9355000000000002 -5.3672 0.32909999999999995 50
5.4102 -14.9922 -1.6699000000000002 141
1.9434 -5.386699999999999 0.46409999999999996 9
1.9258000000000002 -5.3398 -0.46 245
1.9463 -5.394500000000001 0.5981000000000001 175
1.9258000000000002 -5.3359000000000005 -0.3274 150
1.9453 -5.390599999999999 0.7319 143
1.9258000000000002 -5.3359000000000005 -0.19640000000000002 4
1.9512 -5.4062 0.8701000000000001 10
1.9238 -5.332000000000001 -0.0654 157
1.9512 -5.4062 1.0068000000000001 148
2.166 -6.074199999999999 -1.1299 203
1.915 -5.3672 0.06570000000000001 165
2.1895 -6.140599999999999 -0.9873000000000001 120
1.916 -5.3711 0.1974 19
2.207 -6.1914 -0.8398 130
1.916 -5.3711 0.32909999999999995 138
5.3711 -15.0625 -1.6758000000000002 74
1.9277000000000002 -5.4062 0.46509999999999996 234
1.9247999999999998 -5.3984000000000005 0.5977 146
1.9141 -5.3672 -0.1971 104
1.9258000000000002 -5.4023 0.8676999999999999 251
1.9033000000000002 -5.3359000000000005 -0.0654 73
2.1953 -6.2227 -1.1562000000000001 141
1.8896000000000002 -5.355499999999999 0.0655 0
2.1777 -6.171900000000001 -0.9917 213
1.8944999999999999 -5.3711 0.1971 192
2.1973 -6.2265999999999995 -0.8438 161
1.9003999999999999 -5.386699999999999 0.3296 255
1.9022999999999999 -5.394500000000001 0.46340000000000003 31
1.8887 -5.355499999999999 -0.46 30
1.9131 -5.421900000000001 0.5996 203
1.9043 -5.3984000000000005 0.731 112
1.8955000000000002 -5.375 -0.1971 87
1.9141 -5.425800000000001 0.8706 158
1.8857 -5.3477 -0.0654 167
1.9102000000000001 -5.417999999999999 1.0049 148
2.084 -5.9727 -1.1074 226
1.8711000000000002 -5.363300000000001 0.06559999999999999 144
2.1973 -6.296900000000001 -1.0107 10
1.8788999999999998 -5.386699999999999 0.1974 114
2.1875 -6.269500000000001 -0.8486 95
1.8857 -5.4062 0.33030000000000004 150
1.8847999999999998 -5.4023 0.4639 243
1.8730000000000002 -5.3711 -0.46090000000000003 48
1.8955000000000002 -5.4336 0.6006 87
1.8818000000000001 -5.394500000000001 0.7295 126
1.8700999999999999 -5.359400000000001 -0.19640000000000002 60
1.8906 -5.421900000000001 0.8691 163
1.8730000000000002 -5.3711 -0.06559999999999999 42
2.0547 -5.957000000000001 -1.1035 254
1.8613 -5.3984000000000005 0.0659 200
2.0977 -6.082000000000001 -0.9741 4
1.8603999999999998 -5.394500000000001 0.1975 56
2.1797 -6.3164 -0.8540000000000001 146
1.8721 -5.4297 0.33130000000000004 75
1.875 -5.4375 0.4661 205
1.8594 -5.390599999999999 -0.4619 174
1.8799000000000001 -5.449199999999999 0.6011 232
1.8563999999999998 -5.3828 -0.3286 36
1.8563999999999998 -5.3828 -0.19699999999999998 234
1.8535 -5.3711 -0.06559999999999999 36
2.0312 -5.957000000000001 -1.1025 124
1.8525 -5.4336 0.0662 228
2.0762 -6.0859000000000005 -0.9741 173
1.8486000000000002 -5.421900000000001 0.1981 76
2.1523 -6.3125 -0.8525 183
1.8574000000000002 -5.449199999999999 0.3323 192
5.2890999999999995 -15.5156 -1.7178 41
1.8603999999999998 -5.453099999999999 0.467 155
1.8466999999999998 -5.4140999999999995 -0.4636 162
1.8633000000000002 -5.4648 0.6021 59
1.8397999999999999 -5.394500000000001 -0.3289 18
1.8447 -5.4102 -0.1979 160
1.8652000000000002 -5.4688 0.8745 25
1.8437999999999999 -5.4062 -0.0659 130
1.8788999999999998 -5.5078 1.0186 143
2.0 -5.9336 -1.0967 177
1.8418 -5.4648 0.0665 49
2.0469 -6.0703 -0.9706999999999999 166
1.8378999999999999 -5.453099999999999 0.1991 181
2.0762 -6.1562 -0.8306 12
1.8428 -5.4648 0.33299999999999996 175
5.292999999999999 -15.6953 -1.7363 153
1.8486000000000002 -5.484400000000001 0.469 158
1.8369 -5.449199999999999 -0.4658 40
1.8574000000000002 -5.5078 0.6064 67
1.8300999999999998 -5.4297 -0.3306 251
1.8584 -5.511699999999999 0.7426999999999999 159
1.834 -5.4414 -0.1986 202
1.8711000000000002 -5.550800000000001 0.8867 49
1.8300999999999998 -5.4297 -0.0661 206
1.8818000000000001 -5.582000000000001 1.0312000000000001 95
1.9893 -5.9648 -1.1016 137
1.8311000000000002 -5.4922 0.0668 36
2.0352 -6.1015999999999995 -0.9741 156
1.8408000000000002 -5.519500000000001 0.2014 142
2.0586 -6.171900000000001 -0.8315 100
1.8437999999999999 -5.5273 0.33640000000000003 16
5.2890999999999995 -15.8594 -1.7519999999999998 243
1.8496000000000001 -5.546900000000001 0.4739 55
1.835 -5.5039 -0.4702 207
1.8603999999999998 -5.578099999999999 0.6138 242
1.8241999999999998 -5.4727 -0.33299999999999996 160
1.8594 -5.574199999999999 0.7505 173
1.8311000000000002 -5.4922 -0.2003 31
1.875 -5.625 0.8975 39
1.8397999999999999 -5.519500000000001 -0.06709999999999999 150
1.876 -5.625 1.0381 238
1.9668 -5.9648 -1.1006 117
1.8359 -5.5664 0.0676 184
1.9883000000000002 -6.0273 -0.9614 41
1.8397999999999999 -5.578099999999999 0.2034 65
2.0371 -6.1797 -0.8315 204
1.8447 -5.5938 0.34009999999999996 42
5.292999999999999 -16.0469 -1.7715 238
1.8477000000000001 -5.605499999999999 0.4783 231
1.8300999999999998 -5.550800000000001 -0.4736 103
1.8594 -5.636699999999999 0.6196 72
1.8203 -5.519500000000001 -0.3354 157
1.8584 -5.636699999999999 0.7578 80
1.835 -5.5625 -0.2028 198
1.8672 -5.6640999999999995 0.9028 101
1.8437999999999999 -5.5898 -0.0679 12
1.8788999999999998 -5.699199999999999 1.0508 23
1.9413999999999998 -5.9609000000000005 -1.0977 54
1.8311000000000002 -5.6211 0.0682 64
1.9658000000000002 -6.0352 -0.9614 123
1.8300999999999998 -5.6172 0.2045 47
2.0078 -6.167999999999999 -0.8291 154
1.8388999999999998 -5.644500000000001 0.3428 253
1.8447 -5.6640999999999995 0.4829 31
1.8262 -5.605499999999999 -0.478 74
1.8574000000000002 -5.703099999999999 0.626 197
1.8311000000000002 -5.6211 -0.34130000000000005 92
1.8574000000000002 -5.703099999999999 0.7661 89
1.834 -5.6328 -0.205 117
1.8652000000000002 -5.7265999999999995 0.9120999999999999 168
1.8330000000000002 -5.625 -0.0683 244
1.8788999999999998 -5.769500000000001 1.0625 138
1.915 -5.949199999999999 -1.0947 36
1.834 -5.699199999999999 0.0691 66
1.9609 -6.0938 -0.9692000000000001 187
1.8330000000000002 -5.6953 0.2072 135
1.9736000000000002 -6.1328 -0.8231999999999999 204
1.8369 -5.707000000000001 0.34619999999999995 86
1.8506 -5.75 0.48969999999999997 199
1.8222999999999998 -5.6640999999999995 -0.48219999999999996 114
1.8555000000000001 -5.765599999999999 0.6318 40
1.8213 -5.6602 -0.3433 5
1.8574000000000002 -5.7734000000000005 0.7744 43
1.8330000000000002 -5.6953 -0.2072 25
1.8700999999999999 -5.8086 0.9243000000000001 255
1.8241999999999998 -5.667999999999999 -0.0687 172
1.8809 -5.8438 1.0752 6
1.8906 -5.9453 -1.0928 187
1.8311000000000002 -5.7578 0.0698 62
1.9394999999999998 -6.0977 -0.9692000000000001 35
1.834 -5.769500000000001 0.2096 28
1.9550999999999998 -6.1484000000000005 -0.8242 158
1.835 -5.769500000000001 0.3496 114
1.8457 -5.8047 0.4939 157
1.8291 -5.7539 -0.4893 205
1.8574000000000002 -5.8398 0.6396000000000001 5
1.8163999999999998 -5.7109000000000005 -0.34590000000000004 78
1.8563999999999998 -5.8398 0.7827 54
1.8319999999999999 -5.761699999999999 -0.20920000000000002 42
1.8691 -5.875 0.9336 190
1.8311000000000002 -5.7578 -0.0698 124
1.8730000000000002 -5.890599999999999 1.082 198
1.8730000000000002 -5.9609000000000005 -1.0947 141
1.8241999999999998 -5.8086 0.0703 37
1.9022999999999999 -6.0586 -0.9614 21
1.8330000000000002 -5.8359000000000005 0.2118 235
1.9355000000000002 -6.1602 -0.8251999999999999 122
1.8369 -5.8477 0.3538 167
1.8457 -5.875 0.49950000000000006 40
1.8319999999999999 -5.832000000000001 -0.49560000000000004 188
1.8574000000000002 -5.9102 0.6465000000000001 115
1.8193000000000001 -5.792999999999999 -0.3506 232
1.8555000000000001 -5.9062 0.7909999999999999 11
1.8262 -5.8125 -0.21109999999999998 183
1.8711000000000002 -5.953099999999999 0.9453 161
1.8359 -5.8438 -0.0707 136
1.875 -5.9688 1.0957 43
1.8603999999999998 -5.9961 -1.0996 8
1.8271000000000002 -5.886699999999999 0.0712 7
1.8809 -6.0586 -0.9609000000000001 210
1.8281 -5.890599999999999 0.21359999999999998 254
1.9062000000000001 -6.140599999999999 -0.8218000000000001 55
1.8359 -5.9140999999999995 0.3577 62
1.8408000000000002 -5.9336 0.5039 104
1.8300999999999998 -5.8984000000000005 -0.501 152
1.8584 -5.988300000000001 0.6548 217
1.8174000000000001 -5.859400000000001 -0.3542 192
1.8544999999999998 -5.9765999999999995 0.7993000000000001 62
1.8203 -5.8672 -0.2126 11
1.8691 -6.0234000000000005 0.9551000000000001 244
1.8300999999999998 -5.8984000000000005 -0.0713 145
1.8730000000000002 -6.0352 1.1064 173
1.8408000000000002 -6.0039 -1.1006 133
1.8241999999999998 -5.949199999999999 0.0719 23
1.875 -6.1172 -0.9692000000000001 160
1.8262 -5.957000000000001 0.2158 189
1.8838 -6.144500000000001 -0.8212999999999999 25
1.8388999999999998 -6.0 0.3625 210
1.8447 -6.019500000000001 0.5107 69
1.8174000000000001 -5.9297 -0.5029 209
1.8486000000000002 -6.0312 0.6587000000000001 176
1.8163999999999998 -5.925800000000001 -0.3579 43
1.8555000000000001 -6.0547 0.8090999999999999 84
1.8213 -5.9414 -0.21530000000000002 245
1.8613 -6.074199999999999 0.9623999999999999 71
1.8252000000000002 -5.953099999999999 -0.0719 33
1.874 -6.113300000000001 1.1201 240
1.8428 -6.0859000000000005 -1.1143 117
1.8213 -6.019500000000001 0.0726 232
1.8563999999999998 -6.1328 -0.9706999999999999 128
1.8262 -6.0352 0.2184 245
1.875 -6.1914 -0.8267 5
1.8311000000000002 -6.050800000000001 0.365 226
1.8447 -6.0938 0.5166 173
1.8506 -6.113300000000001 0.6665000000000001 94
1.8115 -5.984400000000001 -0.3611 8
1.8535 -6.125 0.8179000000000001 137
1.8203 -6.015599999999999 -0.2177 242
1.8652000000000002 -6.1640999999999995 0.9756 133
1.8252000000000002 -6.0312 -0.0728 40
1.875 -6.1953 1.1338 104
1.8222999999999998 -6.0977 0.0735 141
1.8563999999999998 -6.2109000000000005 -0.9819 237
1.8232 -6.1015999999999995 0.2206 245
1.8691 -6.2539 -0.8340000000000001 107
1.8300999999999998 -6.1211 0.3691 141
1.8388999999999998 -6.1523 0.521 135
1.8477000000000001 -6.1836 0.6733 97
1.8056999999999999 -6.042999999999999 -0.3643 186
1.8555000000000001 -6.2109000000000005 0.8281000000000001 156
1.8174000000000001 -6.082000000000001 -0.2198 176
1.8613 -6.2265999999999995 0.9843999999999999 108
1.8203 -6.0898 -0.07339999999999999 31
1.8711000000000002 -6.261699999999999 1.1445 215
1.9736000000000002 -6.6875 -1.2227 68
1.8144999999999998 -6.1484000000000005 0.07400000000000001 127
1.9443000000000001 -6.5859000000000005 -1.041 92
1.8262 -6.1875 0.2235 212
1.8563999999999998 -6.2890999999999995 -0.8379000000000001 174
1.8300999999999998 -6.199199999999999 0.3735 72
1.8359 -6.2227 0.5264 226
1.8457 -6.2539 0.6807 117
1.8047 -6.1172 -0.36840000000000006 254
1.8388999999999998 -6.230499999999999 0.8301000000000001 178
1.8154 -6.1523 -0.2223 71
1.8652000000000002 -6.3203 0.9984999999999999 252
1.8203 -6.167999999999999 -0.07429999999999999 134
1.8711000000000002 -6.3398 1.1582 181
1.9521000000000002 -6.703099999999999 -1.2236 54
1.8154 -6.234400000000001 0.075 109
1.9258000000000002 -6.609400000000001 -1.043 210
1.8213 -6.2539 0.2256 7
1.8496000000000001 -6.3515999999999995 -0.8452 75
1.8291 -6.2812 0.3779 122
5.3086 -18.2188 -1.9902000000000002 13
1.8359 -6.3047 0.5327000000000001 74
1.8466999999999998 -6.3398 0.6895 74
1.8086000000000002 -6.2109000000000005 -0.3735 105
1.8330000000000002 -6.292999999999999 0.8373999999999999 12
1.8115 -6.2188 -0.22440000000000002 146
1.8574000000000002 -6.3789 1.0068000000000001 96
1.8203 -6.2461 -0.07519999999999999 210
1.8711000000000002 -6.421900000000001 1.1729 212
1.9228999999999998 -6.6914 -1.2197 213
1.8144999999999998 -6.3086 0.0759 178
1.9091999999999998 -6.640599999999999 -1.0469 17
1.8154 -6.3164 0.22769999999999999 89
1.8408000000000002 -6.4023 -0.8515999999999999 199
1.8281 -6.359400000000001 0.3823 70
5.292999999999999 -18.4219 -2.0098 5
1.834 -6.3789 0.5386 27
1.8437999999999999 -6.4102 0.6968000000000001 17
1.8027000000000002 -6.269500000000001 -0.377 91
1.8496000000000001 -6.4336 0.8554999999999999 102
1.8096 -6.296900000000001 -0.22690000000000002 8
1.8555000000000001 -6.453099999999999 1.0176 209
1.8135 -6.3086 -0.0759 220
1.8711000000000002 -6.511699999999999 1.1865 21
1.8975 -6.6875 -1.2187999999999999 221
1.8115 -6.386699999999999 0.0767 197
1.8936000000000002 -6.671900000000001 -1.0508 127
1.8144999999999998 -6.394500000000001 0.2303 251
1.8428 -6.4961 -0.8633 67
1.8241999999999998 -6.4297 0.3862 21
1.8319999999999999 -6.457000000000001 0.5449 132
1.8378999999999999 -6.480499999999999 0.7031000000000001 66
1.7997999999999998 -6.3438 -0.3809 16
1.8466999999999998 -6.5078 0.8647 164
1.8125 -6.386699999999999 -0.23010000000000003 202
1.8563999999999998 -6.542999999999999 1.0303 94
1.8096 -6.3789 -0.0766 13
1.8681999999999999 -6.5859000000000005 1.1992 242
1.874 -6.6953 -1.2187999999999999 201
1.8037 -6.4414 0.07730000000000001 49
1.8662 -6.667999999999999 -1.0488 64
1.8144999999999998 -6.484400000000001 0.23329999999999998 76
1.8378999999999999 -6.5625 -0.8711 197
1.8193000000000001 -6.5 0.3899 235
3.8125 -13.6172 -1.4813999999999998 60
1.8311000000000002 -6.542999999999999 0.5513 255
1.8369 -6.5586 0.7114 163
1.7938999999999998 -6.4102 -0.3845 181
1.8428 -6.582000000000001 0.8740000000000001 140
1.8066 -6.453099999999999 -0.2322 123
1.8574000000000002 -6.6328 1.0439 216
1.8105000000000002 -6.4688 -0.0776 78
1.8622999999999998 -6.6523 1.2109 124
1.8516 -6.703099999999999 -1.2187999999999999 86
1.8047 -6.5312 0.0784 213
1.8457 -6.6836 -1.0508 30
1.8135 -6.5664 0.2361 1
1.8311000000000002 -6.6328 -0.8794 101
1.8193000000000001 -6.5859000000000005 0.3948 204
3.7539 -13.593800000000002 -1.4775 39
1.8311000000000002 -6.6289 0.5581 48
1.8378999999999999 -6.6562 0.7212000000000001 17
1.7969 -6.5039 -0.3899 115
1.8397999999999999 -6.6602 0.8833 29
1.8027000000000002 -6.5273 -0.2346 254
1.8563999999999998 -6.7188 1.0566 139
1.8105000000000002 -6.5547 -0.0786 198
1.8613 -6.738300000000001 1.2256 254
1.8369 -6.738300000000001 -1.2236 46
1.8056999999999999 -6.625 0.0794 193
1.8359 -6.734400000000001 -1.0576 103
1.8086000000000002 -6.6328 0.23829999999999998 185
1.8418 -6.7539 -0.895 101
1.8203 -6.675800000000001 0.39990000000000003 138
3.6992000000000003 -13.5703 -1.4736000000000002 147
1.8271000000000002 -6.699199999999999 0.5635 66
3.7012 -13.5781 -1.1455 171
1.8388999999999998 -6.7422 0.73 131
1.7959 -6.5898 -0.3945 102
1.8408000000000002 -6.75 0.8945000000000001 230
1.8008000000000002 -6.605499999999999 -0.2373 203
1.8555000000000001 -6.8047 1.0693000000000001 41
1.8105000000000002 -6.640599999999999 -0.0796 60
1.8652000000000002 -6.8398 1.2431999999999999 207
1.8213 -6.765599999999999 -1.2285 242
1.8066 -6.7148 0.08039999999999999 203
1.8319999999999999 -6.8086 -1.0693000000000001 108
1.8086000000000002 -6.7227 0.2412 129
3.9629000000000003 -14.726600000000001 -1.9569999999999999 60
1.8213 -6.765599999999999 0.405 20
3.6816000000000004 -13.6797 -1.4844 2
1.8241999999999998 -6.7812 0.5698 223
3.6504000000000003 -13.5703 -1.1436 91
1.8378999999999999 -6.832000000000001 0.7387999999999999 125
1.7949000000000002 -6.671900000000001 -0.3992 101
1.8408000000000002 -6.8438 0.9057999999999999 69
1.8008000000000002 -6.6914 -0.2402 94
1.8516 -6.8828 1.0801 8
1.8075999999999999 -6.7148 -0.08039999999999999 117
1.8633000000000002 -6.921900000000001 1.2568000000000001 21
1.8115 -6.832000000000001 -1.2383 221
1.7988 -6.7812 0.0812 99
1.9238 -7.2578 -1.1387 8
1.8047 -6.8047 0.244 231
3.8983999999999996 -14.7031 -1.9512 207
1.8163999999999998 -6.8477 0.4097 148
2.3379 -8.8203 -0.9541 88
1.8232 -6.875 0.5771000000000001 76
1.8291 -6.8984000000000005 0.7456 54
1.7861000000000002 -6.734400000000001 -0.4028 229
1.8359 -6.925800000000001 0.9159999999999999 177
1.7978999999999998 -6.7812 -0.2432 214
1.8428 -6.949199999999999 1.0898 212
1.7978999999999998 -6.7773 -0.08109999999999999 186
1.8555000000000001 -7.0 1.2695 17
1.8896000000000002 -7.2265999999999995 -1.3096 206
1.791 -6.8515999999999995 0.0819 235
1.9003999999999999 -7.269500000000001 -1.1396 21
1.8018 -6.890599999999999 0.2469 253
3.8632999999999997 -14.781199999999998 -1.96 154
1.8037 -6.8984000000000005 0.41240000000000004 97
2.3027 -8.8047 -0.9521 85
1.8144999999999998 -6.9414 0.5825 251
3.7168 -14.218800000000002 -1.1963 144
1.8319999999999999 -7.0078 0.7568 249
1.7822 -6.8203 -0.4075 44
1.8330000000000002 -7.011699999999999 0.9268000000000001 210
1.7949000000000002 -6.863300000000001 -0.24600000000000002 103
1.8506 -7.078099999999999 1.1094 15
1.7949000000000002 -6.863300000000001 -0.0821 178
1.8574000000000002 -7.105499999999999 1.2881 226
1.8662 -7.2422 -1.3115 100
1.7852000000000001 -6.9297 0.0828 6
3.2812 -12.726600000000001 -1.9980000000000002 29
1.8018 -6.9922 0.2505 202
3.8438 -14.914100000000001 -1.9756 240
1.8086000000000002 -7.019500000000001 0.4189 228
2.2676 -8.8047 -0.9506999999999999 195
1.8203 -7.0664 0.5922999999999999 16
3.6660000000000004 -14.226600000000001 -1.1963 147
1.8311000000000002 -7.105499999999999 0.7666 104
1.7803 -6.9102 -0.41259999999999997 109
1.8311000000000002 -7.105499999999999 0.9384999999999999 76
1.791 -6.949199999999999 -0.2489 61
1.8525 -7.1875 1.125 113
1.7969 -6.9727 -0.0833 184
1.8584 -7.2109000000000005 1.3056999999999999 31
1.8486000000000002 -7.2773 -1.3163999999999998 227
1.7930000000000001 -7.0586 0.0843 186
2.1992 -8.6562 -1.3555000000000001 189
1.7969 -7.078099999999999 0.2532 110
2.1953 -8.6406 -1.1416 176
1.8096 -7.125 0.425 232
2.1367 -8.4141 -0.9081999999999999 230
1.8125 -7.136699999999999 0.5977 76
2.1074 -8.2969 -0.6953 147
1.834 -7.2188 0.7783 158
1.7772999999999999 -6.9961 -0.4175 52
1.8319999999999999 -7.2109000000000005 0.9517 77
1.7881 -7.042999999999999 -0.252 22
1.8447 -7.265599999999999 1.1367 148
1.7978999999999998 -7.082000000000001 -0.08449999999999999 203
1.8574000000000002 -7.3125 1.3232 110
2.6055 -10.406199999999998 -1.8847999999999998 78
1.7938999999999998 -7.167999999999999 0.0855 20
2.1621 -8.6406 -1.3516 134
1.7959 -7.175800000000001 0.2566 186
2.1406 -8.5547 -1.1289 42
1.8075999999999999 -7.2227 0.4304 246
2.1035 -8.4062 -0.9062 163
1.8154 -7.2539 0.6069 238
2.0781 -8.3047 -0.6953 205
1.8262 -7.296900000000001 0.7861 80
1.7793 -7.109400000000001 -0.4236 82
1.8330000000000002 -7.324199999999999 0.9658 12
1.7861000000000002 -7.136699999999999 -0.2551 198
1.8388999999999998 -7.3477 1.1484 225
1.7930000000000001 -7.167999999999999 -0.0855 103
1.8563999999999998 -7.417999999999999 1.3408000000000002 178
2.5586 -10.375 -1.8769999999999998 206
1.7959 -7.2852 0.08689999999999999 107
2.1289 -8.6328 -1.3496000000000001 229
1.7959 -7.2852 0.26030000000000003 80
2.0879 -8.4688 -1.1172 251
1.8037 -7.3164 0.43579999999999997 119
2.127 -8.625 -0.9297 160
1.8135 -7.355499999999999 0.6152000000000001 173
2.0684 -8.3906 -0.7021 163
1.8232 -7.3984000000000005 0.7959 205
1.7744 -7.1953 -0.4285 35
1.8311000000000002 -7.4297 0.9784999999999999 154
1.7861000000000002 -7.2461 -0.2588 227
1.8388999999999998 -7.457000000000001 1.165 11
1.7871000000000001 -7.25 -0.0864 46
1.8506 -7.5039 1.3555000000000001 107
2.5195 -10.375 -1.876 214
1.7841999999999998 -7.3477 0.0875 109
2.0996 -8.6484 -1.3506 74
1.7919999999999998 -7.3789 0.2634 78
2.0742 -8.5391 -1.125 91
1.7988 -7.4062 0.4409 135
1.7002000000000002 -7.0 -0.7524 170
1.8115 -7.4609000000000005 0.6235 251
1.6728999999999998 -6.890599999999999 -0.5757 191
1.8203 -7.4922 0.8062 104
1.7666 -7.2773 -0.4329 101
1.8271000000000002 -7.5234000000000005 0.9902 34
1.7861000000000002 -7.355499999999999 -0.2625 30
1.8408000000000002 -7.578099999999999 1.1826 102
1.7881 -7.363300000000001 -0.0877 173
1.8466999999999998 -7.605499999999999 1.3721 5
2.4805 -10.3672 -1.8730000000000002 34
1.7753999999999999 -7.425800000000001 0.08839999999999999 28
2.0703 -8.6562 -1.3506 155
1.79 -7.484400000000001 0.2671 13
1.7012 -7.109400000000001 -0.9351 98
1.7969 -7.515599999999999 0.4468 144
1.6709 -6.984400000000001 -0.7505 219
1.8105000000000002 -7.5703 0.6323 219
1.6513999999999998 -6.9023 -0.5761999999999999 87
1.8213 -7.613300000000001 0.8184 241
1.6631 -6.953099999999999 -0.4133 255
1.8241999999999998 -7.625 1.0029000000000001 240
1.7753999999999999 -7.425800000000001 -0.2646 99
1.8397999999999999 -7.6953 1.2002 144
1.7841999999999998 -7.4609000000000005 -0.0888 209
1.8447 -7.7148 1.3916 49
2.4492 -10.398399999999999 -1.876 168
1.7812000000000001 -7.5625 0.09 243
2.0762 -8.8203 -1.375 214
1.7861000000000002 -7.582000000000001 0.2703 141
1.6777000000000002 -7.125 -0.9359999999999999 212
1.7988 -7.636699999999999 0.4539 250
1.6513999999999998 -7.015599999999999 -0.7529 187
1.8075999999999999 -7.6797 0.6406000000000001 81
1.6230000000000002 -6.890599999999999 -0.5747 157
1.8184 -7.7227 0.8291 125
1.6221 -6.886699999999999 -0.4089 122
1.8213 -7.734400000000001 1.0166 210
1.7734 -7.5312 -0.2683 164
1.8397999999999999 -7.8125 1.2168 172
1.7852000000000001 -7.582000000000001 -0.0901 65
1.8457 -7.8359000000000005 1.4121000000000001 177
2.4141 -10.414100000000001 -1.8769999999999998 199
1.7763999999999998 -7.6640999999999995 0.0911 67
2.9257999999999997 -12.625 -1.9697 169
1.7803 -7.6797 0.2734 206
1.6522999999999999 -7.1289 -0.9359999999999999 153
1.7930000000000001 -7.738300000000001 0.4595 217
1.6522999999999999 -7.125 -0.7642 27
1.7997999999999998 -7.761699999999999 0.6475 164
1.6025 -6.9140999999999995 -0.5761999999999999 231
1.8075999999999999 -7.800800000000001 0.8369 171
1.5957 -6.886699999999999 -0.40840000000000004 184
1.8184 -7.8438 1.0303 207
1.7744 -7.6523 -0.2725 217
1.8330000000000002 -7.9062 1.2314 177
1.7783000000000002 -7.671900000000001 -0.09119999999999999 149
1.8457 -7.9648 1.4346 7
1.5272999999999999 -6.6953 -1.2031 42
1.7772999999999999 -7.792999999999999 0.0926 172
1.5381 -6.7422 -1.0479 0
1.7783000000000002 -7.792999999999999 0.2773 133
1.791 -7.8515999999999995 0.4661 208
1.5791 -6.921900000000001 -0.7417 121
1.8018 -7.8984000000000005 0.6581999999999999 134
1.5674000000000001 -6.8711 -0.5722999999999999 90
1.8086000000000002 -7.9297 0.8501000000000001 56
1.5693000000000001 -6.8789 -0.408 205
1.8163999999999998 -7.9648 1.0449 237
1.7705000000000002 -7.761699999999999 -0.2761 188
1.8311000000000002 -8.0312 1.249 170
1.7744 -7.7773 -0.0924 53
1.8408000000000002 -8.0703 1.4521000000000002 69
1.4971 -6.667999999999999 -1.1973 89
1.7705000000000002 -7.890599999999999 0.09359999999999999 56
1.5107 -6.734400000000001 -1.0459 244
1.7783000000000002 -7.925800000000001 0.2817 181
1.5194999999999999 -6.769500000000001 -0.8867 132
1.7852000000000001 -7.953099999999999 0.4714 164
1.5303 -6.8164 -0.7295 51
1.8037 -8.0312 0.6689 201
1.5322 -6.828099999999999 -0.5679 218
1.8105000000000002 -8.0703 0.8643000000000001 52
1.5312000000000001 -6.824199999999999 -0.40409999999999996 81
1.8125 -8.0781 1.0595999999999999 51
1.5566 -6.9336 -0.2465 187
1.8281 -8.1484 1.2666 71
1.7744 -7.9062 -0.09390000000000001 21
1.8388999999999998 -8.1953 1.4727000000000001 65
1.4756 -6.671900000000001 -1.1973 16
1.7705000000000002 -8.0078 0.095 254
1.4872999999999998 -6.7227 -1.0439 55
1.7772999999999999 -8.0391 0.28559999999999997 112
1.4931999999999999 -6.7539 -0.8843000000000001 185
1.7861000000000002 -8.0781 0.47850000000000004 125
1.4980000000000002 -6.7773 -0.7245999999999999 213
1.7949000000000002 -8.1172 0.6753 20
1.5019999999999998 -6.792999999999999 -0.5645 74
1.8018 -8.1484 0.8726 64
1.5019999999999998 -6.792999999999999 -0.4021 101
1.8075999999999999 -8.1719 1.0713 240
1.5253999999999999 -6.8984000000000005 -0.245 96
1.8232 -8.2422 1.2812000000000001 237
1.7715 -8.0156 -0.095 96
1.8311000000000002 -8.2812 1.4872999999999998 54
1.4521000000000002 -6.671900000000001 -1.1963 77
1.7705000000000002 -8.1328 0.0964 29
1.4628999999999999 -6.7227 -1.042 6
1.7734 -8.1484 0.2893 76
1.4647999999999999 -6.730499999999999 -0.8804000000000001 196
1.7822 -8.1875 0.4849 120
1.4716999999999998 -6.7578 -0.7227 229
1.7852000000000001 -8.2031 0.6816 37
1.4727000000000001 -6.765599999999999 -0.562 43
1.8047 -8.2969 0.8872 16
1.4775 -6.7890999999999995 -0.40159999999999996 59
1.8075999999999999 -8.3047 1.0879 183
1.4961000000000002 -6.8711 -0.2438 15
1.8271000000000002 -8.3906 1.3027000000000002 232
1.7725 -8.1406 -0.0966 87
1.8359 -8.4297 1.5146000000000002 61
1.4316 -6.6953 -1.2002 185
1.7549000000000001 -8.2109 0.09720000000000001 107
1.4375 -6.7227 -1.042 73
1.7646000000000002 -8.25 0.2927 17
1.4355000000000002 -6.7148 -0.8774 4
1.7783000000000002 -8.3125 0.49219999999999997 46
1.4443000000000001 -6.7539 -0.7212000000000001 40
1.7822 -8.3359 0.6923999999999999 179
1.4443000000000001 -6.7539 -0.5605 189
1.8037 -8.4375 0.9018999999999999 159
1.4502000000000002 -6.7812 -0.40090000000000003 149
1.8066 -8.4453 1.1055 39
1.4687999999999999 -6.8672 -0.2434 10
1.8193000000000001 -8.5078 1.3203 45
1.7607 -8.2344 -0.09759999999999999 251
1.8311000000000002 -8.5625 1.5371000000000001 13
1.4102000000000001 -6.7109000000000005 -1.2012 65
1.7646000000000002 -8.3906 0.09939999999999999 86
1.4209 -6.7578 -1.0469 195
1.7656 -8.3984 0.2981 27
1.4111000000000002 -6.7148 -0.877 141
1.7753999999999999 -8.4453 0.49950000000000006 91
1.4219 -6.765599999999999 -0.7222 185
1.7919999999999998 -8.5234 0.708 223
1.4219 -6.765599999999999 -0.561 42
1.7938999999999998 -8.5391 0.9120999999999999 203
1.4258000000000002 -6.7852 -0.4006 32
1.8066 -8.6016 1.125 105
1.4463 -6.8828 -0.2438 209
1.8232 -8.6797 1.3457 104
1.7578 -8.3594 -0.09910000000000001 192
1.8300999999999998 -8.7109 1.5615 57
1.3936000000000002 -6.75 -1.208 135
1.75 -8.4766 0.1003 47
1.3994 -6.7734000000000005 -1.0479 24
1.7607 -8.5234 0.30219999999999997 114
1.3877000000000002 -6.7188 -0.877 147
1.7694999999999999 -8.5703 0.5063 69
1.3944999999999999 -6.75 -0.7202 246
1.7891 -8.6562 0.7188 181
1.3965 -6.761699999999999 -0.5605 123
1.7919999999999998 -8.6719 0.9262999999999999 78
1.3994 -6.7773 -0.39990000000000003 16
1.8027000000000002 -8.7266 1.1406 193
1.4188999999999998 -6.8672 -0.2432 34
1.8213 -8.8203 1.3662 234
1.4443000000000001 -6.9922 -0.08259999999999999 26
1.8262 -8.8438 1.585 2
1.376 -6.7812 -1.2129 88
1.7519999999999998 -8.6328 0.10210000000000001 5
1.3866999999999998 -6.8359000000000005 -1.0576 22
1.7568000000000001 -8.6562 0.3069 42
1.3672 -6.738300000000001 -0.8794 223
1.7686000000000002 -8.7188 0.5146000000000001 79
1.3643 -6.7265999999999995 -0.7168000000000001 239
1.7803 -8.7734 0.7275 169
1.3711000000000002 -6.7578 -0.5596 186
1.7988 -8.8672 0.9458 144
1.375 -6.7773 -0.3997 187
1.7978999999999998 -8.8594 1.1572 102
1.3916 -6.859400000000001 -0.2427 243
1.8154 -8.9453 1.3857 113
1.4169999999999998 -6.984400000000001 -0.0824 138
1.8232 -8.9844 1.6094 142
1.3603999999999998 -6.828099999999999 -1.2207 154
1.75 -8.7812 0.1038 193
1.3779 -6.9140999999999995 -1.0684 194
1.7559 -8.8125 0.3118 204
1.3437999999999999 -6.7422 -0.8784000000000001 139
1.7646000000000002 -8.8516 0.5225 241
1.3418 -6.734400000000001 -0.7173 190
1.7578 -8.8203 0.731 0
1.3447 -6.75 -0.5586 7
1.7881 -8.9688 0.9570000000000001 28
1.3544999999999998 -6.792999999999999 -0.4004 132
1.7978999999999998 -9.0234 1.1777 38
1.3633000000000002 -6.8438 -0.2418 202
1.8135 -9.1016 1.4082 47
1.3916 -6.984400000000001 -0.0824 220
1.8222999999999998 -9.1484 1.6366999999999998 229
1.3477000000000001 -6.890599999999999 -1.2305 215
1.7450999999999999 -8.9219 0.1054 91
1.334 -6.8164 -1.0527 104
1.7471 -8.9297 0.3159 62
1.3193000000000001 -6.7461 -0.8784000000000001 231
1.7646000000000002 -9.0156 0.5317000000000001 139
1.3213 -6.7539 -0.7188 192
1.7734 -9.0625 0.7509999999999999 114
1.3241999999999998 -6.769500000000001 -0.5596 19
1.7881 -9.1406 0.9741 54
1.3271000000000002 -6.7812 -0.3994 109
1.7959 -9.1797 1.1973 243
1.3418 -6.855499999999999 -0.2422 8
1.8105000000000002 -9.2578 1.4316 59
1.3622999999999998 -6.9648 -0.0821 47
1.8213 -9.3047 1.665 51
1.3174000000000001 -6.863300000000001 -1.2256 193
1.7353999999999998 -9.0469 0.10679999999999999 34
1.3075999999999999 -6.8164 -1.0518 47
1.7402000000000002 -9.0703 0.3206 212
1.2919999999999998 -6.734400000000001 -0.8765000000000001 248
1.7559 -9.1562 0.5396 102
1.2997999999999998 -6.7773 -0.7206999999999999 150
1.7686000000000002 -9.2188 0.7626999999999999 154
1.3018 -6.7890999999999995 -0.561 126
1.7832 -9.2969 0.9902 13
1.3018 -6.7852 -0.3994 219
1.7891 -9.3281 1.2158 159
1.3163999999999998 -6.859400000000001 -0.2422 254
1.8105000000000002 -9.4375 1.459 170
1.3369 -6.9688 -0.0821 135
1.8184 -9.4766 1.6943000000000001 238
1.2938999999999998 -6.875 -1.2266 159
1.7372999999999998 -9.2344 0.10890000000000001 22
1.2841999999999998 -6.8203 -1.0518 158
1.7402000000000002 -9.25 0.32689999999999997 174
1.2695 -6.7422 -0.877 166
1.7480000000000002 -9.2891 0.5474 136
1.2764 -6.7812 -0.7206999999999999 17
1.7666 -9.3828 0.7764 164
1.2803 -6.800800000000001 -0.5615 3
1.7772999999999999 -9.4453 1.0049 253
1.2783 -6.792999999999999 -0.3994 14
1.7822 -9.4688 1.2334 242
1.2938999999999998 -6.8711 -0.24239999999999998 83
1.7959 -9.5391 1.4736000000000002 96
1.3115 -6.9688 -0.08199999999999999 172
1.8096 -9.6094 1.7168 92
1.2734 -6.890599999999999 -1.2285 198
1.7256 -9.3359 0.11019999999999999 27
1.2617 -6.828099999999999 -1.0518 247
1.7402000000000002 -9.4141 0.3325 82
1.25 -6.761699999999999 -0.8794 79
1.7471 -9.4531 0.5566 23
1.2549 -6.7890999999999995 -0.7212000000000001 41
1.7578 -9.5078 0.7861 76
1.2568000000000001 -6.8047 -0.5615 174
1.7803 -9.6328 1.0254 246
1.2559 -6.792999999999999 -0.3992 31
1.7852000000000001 -9.6562 1.2578 157
1.2676 -6.863300000000001 -0.2418 153
1.8018 -9.75 1.5059 186
1.2959 -7.011699999999999 -0.0825 96
1.8125 -9.8047 1.751 10
1.2559 -6.925800000000001 -1.2334 44
1.7207 -9.4844 0.1119 164
1.2461 -6.8711 -1.0576 52
1.7305000000000001 -9.5391 0.3369 240
1.2305 -6.7852 -0.8813 18
1.7471 -9.6328 0.5669 56
1.2334 -6.800800000000001 -0.7217 195
1.7646000000000002 -9.7266 0.8037000000000001 12
1.2334 -6.800800000000001 -0.561 73
1.7832 -9.8281 1.0459 92
1.2344 -6.8047 -0.3997 82
1.7812000000000001 -9.8203 1.2783 120
1.2451 -6.8672 -0.2418 21
1.7997999999999998 -9.9219 1.5312000000000001 55
1.7313999999999998 -9.5469 -0.1125 205
1.8135 -10.0 1.7841999999999998 146
1.2334 -6.953099999999999 -1.2373 187
1.7216999999999998 -9.7031 0.1144 243
1.2275 -6.921900000000001 -1.0654000000000001 120
1.7216999999999998 -9.7031 0.3425 195
1.2061 -6.800800000000001 -0.8828 131
1.7402000000000002 -9.8125 0.5771000000000001 253
1.2119 -6.832000000000001 -0.7245999999999999 67
1.7588 -9.9141 0.8188 144
1.207 -6.8047 -0.5605 223
1.7656 -9.9531 1.0576 8
1.2109 -6.824199999999999 -0.4006 253
1.7772999999999999 -10.0156 1.3027000000000002 43
1.2207 -6.8789 -0.2422 203
1.7919999999999998 -10.1016 1.5586000000000002 12
1.7216999999999998 -9.7031 -0.1144 174
1.8066 -10.1797 1.8154 239
1.2129 -6.9765999999999995 -1.2412 94
1.7227000000000001 -9.9062 0.1167 185
1.2109 -6.9688 -1.0723 100
1.7207 -9.8984 0.34909999999999997 5
1.1875 -6.8359000000000005 -0.8867 115
1.7372999999999998 -9.9922 0.5874 22
1.1904000000000001 -6.8477 -0.7261 37
1.7549000000000001 -10.1016 0.8334999999999999 10
1.1806999999999999 -6.796900000000001 -0.5596 231
1.7646000000000002 -10.1562 1.0781 159
1.1826 -6.8047 -0.3992 236
1.7734 -10.2031 1.3262 44
1.2002 -6.9023 -0.2429 238
1.7919999999999998 -10.3047 1.5888999999999998 108
1.7168 -9.875 -0.11630000000000001 51
1.8047 -10.3828 1.8506 46
1.7178 -10.0703 0.1186 52
1.7187999999999999 -10.0781 0.355 207
1.1748 -6.890599999999999 -0.8936 209
1.7344 -10.1719 0.5977 26
1.1689 -6.855499999999999 -0.7261 147
1.7480000000000002 -10.25 0.8456999999999999 6
1.1514 -6.75 -0.5557 115
1.7694999999999999 -10.375 1.1016 59
1.1592 -6.792999999999999 -0.39840000000000003 230
1.7744 -10.406199999999998 1.3516 238
1.1836 -6.9375 -0.244 152
1.7930000000000001 -10.5078 1.6191 16
1.7168 -10.0625 -0.1185 174
1.8027000000000002 -10.5703 1.8828 7
1.75 -10.468800000000002 -1.8643 216
1.71 -10.2344 0.1204 103
2.1074 -12.6094 -1.9424000000000001 35
1.7178 -10.273399999999999 0.3618 237
1.1064 -6.6172 -0.8573999999999999 176
1.7313999999999998 -10.3594 0.6084 5
1.124 -6.7227 -0.7114 154
1.7538999999999998 -10.4922 0.8656999999999999 161
1.1279000000000001 -6.7461 -0.5552 211
1.7812000000000001 -10.656199999999998 1.1309 145
1.1377 -6.8047 -0.3987 236
1.7715 -10.593800000000002 1.3769999999999998 231
1.7069999999999999 -10.2109 -0.3599 46
1.7919999999999998 -10.718800000000002 1.6513999999999998 128
1.7119 -10.2422 -0.12050000000000001 162
1.7997999999999998 -10.7656 1.9169999999999998 156
1.7080000000000002 -10.460899999999999 -1.8622999999999998 135
1.7021000000000002 -10.4297 0.12269999999999999 223
2.0605 -12.625 -1.9434 181
1.7119 -10.4922 0.36939999999999995 227
1.083 -6.636699999999999 -0.8593999999999999 200
1.7266 -10.5781 0.6211 21
1.0928 -6.699199999999999 -0.7084999999999999 77
1.7402000000000002 -10.664100000000001 0.8789 130
1.1016 -6.7461 -0.5547 116
1.7559 -10.7578 1.1416 91
1.1172 -6.8438 -0.40090000000000003 112
1.7588 -10.773399999999999 1.3984 5
1.6982 -10.398399999999999 -0.36619999999999997 133
1.7832 -10.9219 1.6816 187
1.7050999999999998 -10.4453 -0.1229 235
1.7930000000000001 -10.9844 1.9550999999999998 23
1.6680000000000001 -10.4453 -1.8584 157
1.7012 -10.656199999999998 0.12539999999999998 29
2.0156 -12.625 -1.9424000000000001 41
1.7012 -10.656199999999998 0.375 66
1.0488 -6.5664 -0.8501000000000001 210
1.7147999999999999 -10.7422 0.6299 127
1.0703 -6.707000000000001 -0.7090000000000001 236
1.7266 -10.8125 0.8911 222
1.082 -6.7734000000000005 -0.5566 185
1.7656 -11.0625 1.1729 141
1.1035 -6.9140999999999995 -0.4048 48
1.7627000000000002 -11.0469 1.4336000000000002 218
1.6943000000000001 -10.6094 -0.3735 181
1.7753999999999999 -11.1172 1.7109 96
1.7002000000000002 -10.656199999999998 -0.1252 22
1.8213 -11.406199999999998 2.0293 84
