# .PCD v0.7 - Point Cloud Data file format
VERSION 0.7
FIELDS x y z intensity
SIZE 4 4 4 4
TYPE F F F F
COUNT 1 1 1 1
WIDTH 1344
HEIGHT 1
VIEWPOINT 0 0 0 1 0 0 0
POINTS 1344
DATA ascii
-12.343800000000002 3.5 1.9502000000000002 119
-12.351600000000001 3.502 -0.1492 162
-12.2656 3.4766000000000004 2.2402 167
-8.1016 2.3242 -1.4785 167
-12.3594 3.5469 0.1495 197
-8.7344 2.5059 -1.3788999999999998 245
-12.3281 3.5370999999999997 0.44630000000000003 196
-10.1797 2.9219 -1.3574000000000002 41
-12.351600000000001 3.5449 0.7451000000000001 87
-12.2344 3.5098000000000003 -1.3330000000000002 166
-12.335899999999999 3.5410000000000004 1.0449 223
-12.335899999999999 3.5391000000000004 -1.0449 13
-12.351600000000001 3.5449 1.3466999999999998 186
-12.351600000000001 3.5449 -0.7451000000000001 227
-12.343800000000002 3.543 1.6465 24
-12.351600000000001 3.5449 -0.447 45
-12.5547 3.6035000000000004 1.9853999999999998 252
-12.335899999999999 3.5391000000000004 -0.1492 183
-12.2656 3.5195 2.2422 17
-8.0859 2.3496 -1.4775 208
-12.3594 3.5898000000000003 0.1495 150
-8.7266 2.5371 -1.3799000000000001 8
-12.343800000000002 3.5858999999999996 0.447 103
-10.1641 2.9531 -1.3563999999999998 133
-12.343800000000002 3.5858999999999996 0.7451000000000001 236
-12.218800000000002 3.5507999999999997 -1.3330000000000002 120
-12.3594 3.5898000000000003 1.0479 27
-12.335899999999999 3.5839999999999996 -1.0459 195
-19.0 5.519500000000001 2.0742 146
-12.351600000000001 3.5879000000000003 -0.7456 226
-12.3594 3.5898000000000003 -0.4475 1
-12.789100000000001 3.7148000000000003 2.0234 169
-12.335899999999999 3.5839999999999996 -0.1493 56
-12.25 3.5605 2.2422 250
-8.0781 2.3789 -1.4766 158
-12.343800000000002 3.6387 0.1497 10
-8.7109 2.5683999999999996 -1.3788999999999998 204
-12.343800000000002 3.6387 0.44780000000000003 132
-10.1484 2.9901999999999997 -1.3555000000000001 111
-12.2031 3.5976999999999997 -1.3330000000000002 180
-12.351600000000001 3.6387 -1.0479 212
-19.1562 5.644500000000001 2.0938 171
-12.3281 3.6348000000000003 -0.7451000000000001 80
-12.3594 3.6426 -0.4482 158
-18.0 5.3047 2.8555 250
-12.375 3.6464999999999996 -0.1499 175
-19.3281 5.699199999999999 3.5469 111
-8.0859 2.4141 -1.4805000000000001 224
-8.6719 2.5898000000000003 -1.374 154
-10.1484 3.0293 -1.3574000000000002 38
-12.156199999999998 3.6289 -1.3291 167
-12.351600000000001 3.6875 -1.0488 93
-19.3281 5.7734000000000005 2.1172 115
-12.4531 3.7168 -0.7534000000000001 135
-17.9688 5.363300000000001 2.8516000000000004 207
-19.2969 5.7578 3.543 195
-8.0781 2.4414 -1.4805000000000001 254
-8.6562 2.6132999999999997 -1.3721 81
-10.1328 3.0605 -1.3563999999999998 64
-12.164100000000001 3.6738 -1.3311000000000002 118
-12.7031 3.8379000000000003 -1.0811 101
-19.0469 5.7578 2.0879 142
-19.7812 5.9765999999999995 -1.2002 251
-17.9375 5.421900000000001 2.8516000000000004 118
-28.9219 8.7422 -0.3525 216
-19.3906 5.859400000000001 3.5645 227
-8.1016 2.4766 -1.4863 191
-8.6406 2.6426 -1.3721 236
-10.125 3.0938 -1.3563999999999998 126
-12.148399999999999 3.7148000000000003 -1.3311000000000002 207
-14.8828 4.5508 -1.2676 215
-19.0781 5.8359000000000005 2.0918 71
-19.7812 6.046900000000001 -1.2012 211
-28.8594 8.8281 -0.3521 107
-19.4062 5.9336 3.5702999999999996 139
-8.0703 2.5 -1.4824000000000002 231
-8.6406 2.6757999999999997 -1.3721 46
-10.1016 3.1289 -1.3555000000000001 222
-12.1094 3.75 -1.3281 137
-14.8281 4.5938 -1.2646 2
-19.0625 5.9062 2.0938 79
-19.5938 6.0703 -1.1914 86
-17.9531 5.5625 2.8594 66
-19.3438 5.9922 3.5625 102
-8.0703 2.5293 -1.4834 112
-8.6172 2.7012 -1.3700999999999999 161
-10.0859 3.1620999999999997 -1.3544999999999998 188
-23.3125 7.3086 1.4188999999999998 12
-12.085899999999999 3.7910000000000004 -1.3271000000000002 213
-14.835899999999999 4.6523 -1.2656 78
-19.1094 5.9922 2.0996 174
-19.5156 6.1211 -1.1875 159
-18.1719 5.6953 2.4434 18
-26.875 8.4297 -0.9819 156
-18.0 5.640599999999999 2.8691000000000004 116
-28.8281 9.0391 -0.3525 33
-19.2969 6.0547 3.5605 129
-8.0703 2.5625 -1.4853999999999998 137
-8.6172 2.7344 -1.3721 124
-10.0781 3.1992000000000003 -1.3555000000000001 116
-23.3281 7.4062 1.4219 34
-12.085899999999999 3.8358999999999996 -1.3281 42
-14.7969 4.6953 -1.2637 14
-19.0781 6.0586 2.0996 122
-19.4375 6.167999999999999 -1.1836 128
-18.125 5.7539 2.4414 122
-18.0312 5.7227 2.877 28
-19.2812 6.1211 3.5605 51
-8.0781 2.5938 -1.4883000000000002 82
-8.5859 2.7577999999999996 -1.3681999999999999 128
-23.375 7.511699999999999 0.8554999999999999 106
-10.0703 3.2344 -1.3555000000000001 72
-23.3438 7.5 1.4238 136
-12.0781 3.8808999999999996 -1.3291 154
-14.7656 4.7461 -1.2637 221
-19.3906 6.230499999999999 -1.1826 210
-18.1094 5.8164 2.4414 206
-23.4219 7.5234000000000005 -0.8573999999999999 77
-17.9531 5.769500000000001 2.8691000000000004 42
-19.5469 6.2773 3.6113 14
-8.0859 2.627 -1.4922 109
-8.5859 2.7891000000000004 -1.3691 23
-23.4062 7.605499999999999 0.8573999999999999 252
-10.0469 3.2656 -1.3535 209
-23.3594 7.5898 1.4268 179
-12.0781 3.9238 -1.3300999999999998 137
-14.7344 4.7891 -1.2617 135
-19.3594 6.2890999999999995 -1.1816 88
-18.0469 5.863300000000001 2.4336 35
-23.3906 7.6015999999999995 -0.8573999999999999 14
-16.9375 5.5039 2.7089999999999996 181
-16.8125 5.4609000000000005 3.1094 58
-8.0781 2.6543 -1.4912 178
-8.5781 2.8183999999999996 -1.3700999999999999 198
-10.0312 3.2969 -1.3525 240
-12.0703 3.9648000000000003 -1.3300999999999998 146
-14.7031 4.832 -1.2607 188
-19.5625 6.4297 2.1602 252
-19.3125 6.3477 -1.1806999999999999 149
-18.0 5.9140999999999995 2.4316 216
-16.8281 5.5273 2.6933999999999996 255
-19.3281 6.3477 3.5801 126
-8.0703 2.6836 -1.4922 244
-8.5625 2.8495999999999997 -1.3700999999999999 198
-10.0234 3.3339999999999996 -1.3535 110
-12.0469 4.0078 -1.3300999999999998 240
-14.656199999999998 4.875 -1.2578 120
-19.5312 6.5 2.1582 192
-19.2188 6.394500000000001 -1.1758 228
-18.1094 6.0273 2.4512 97
-16.7969 5.5859000000000005 2.6933999999999996 97
-17.0156 5.6602 3.1543 110
-8.0625 2.7148000000000003 -1.4931999999999999 114
-93.25 31.3906 1.1494 121
-8.5469 2.875 -1.3681999999999999 246
-10.0078 3.3691000000000004 -1.3525 70
-12.0625 4.0586 -1.3330000000000002 253
-14.625 4.9219 -1.2568000000000001 117
-19.5312 6.5703 2.1602 13
-19.2031 6.4609000000000005 -1.1758 2
-18.0 6.0586 2.4375 95
-16.7812 5.6484000000000005 2.6933999999999996 89
-16.7969 5.6562 3.1191000000000004 46
-8.0859 2.752 -1.4980000000000002 150
-8.5312 2.9043 -1.3672 226
-9.9922 3.4023000000000003 -1.3525 235
-90.375 30.7656 5.5547 97
-12.0625 4.1094 -1.335 30
-14.5781 4.9609 -1.2539 228
-19.6875 6.703099999999999 2.1816 189
-19.1094 6.5039 -1.1719 9
-18.2188 6.203099999999999 2.4707 55
-16.7969 5.7188 2.6992000000000003 100
-16.7812 5.7109000000000005 3.1191000000000004 70
-8.0703 2.7793 -1.4980000000000002 157
-8.5234 2.9355 -1.3681999999999999 206
-9.9922 3.4395 -1.3535 83
-12.0469 4.1484 -1.335 10
-14.539100000000001 5.0078 -1.2529000000000001 151
-19.6094 6.7539 2.1758 113
-19.0938 6.574199999999999 -1.1719 68
-17.25 5.9414 2.3418 115
-16.7344 5.761699999999999 3.1132999999999997 82
-8.0703 2.8105 -1.499 110
-8.5156 2.9688 -1.3691 90
-9.9609 3.4688 -1.3506 88
-12.031199999999998 4.1914 -1.334 201
-14.531199999999998 5.0625 -1.2529000000000001 73
-19.5156 6.796900000000001 2.166 208
-18.9531 6.6015999999999995 -1.165 183
-17.3438 6.042999999999999 2.3574 76
-21.875 7.6211 -0.8070999999999999 86
-8.0547 2.8379000000000003 -1.499 44
-8.5078 2.9961 -1.3681999999999999 111
-9.9375 3.502 -1.3496000000000001 137
-12.039100000000001 4.2422 -1.3369 254
-14.5 5.1094 -1.252 223
-19.5 6.8711 2.168 198
-18.9844 6.6875 -1.168 14
-17.3438 6.109400000000001 2.3594 47
-17.75 6.25 2.8613 204
-16.7969 5.917999999999999 3.1327999999999996 190
-8.0625 2.873 -1.5019999999999998 174
-8.4688 3.0156 -1.3643 117
-9.9219 3.5332 -1.3496000000000001 10
-12.0156 4.2773 -1.3359 11
-14.460899999999999 5.1484000000000005 -1.25 124
-19.4844 6.9414 2.1699 133
-19.5 6.9453 -1.2021 183
-17.5781 6.261699999999999 2.3945 72
-17.7188 6.3125 2.8632999999999997 113
-16.7812 5.9765999999999995 3.1348000000000003 61
-8.0703 2.9023000000000003 -1.5038999999999998 188
-8.4453 3.0391000000000004 -1.3622999999999998 198
-9.9141 3.5683999999999996 -1.3496000000000001 128
-12.023399999999999 4.3242 -1.3378999999999999 63
-14.4297 5.1914 -1.249 204
-17.6875 6.363300000000001 1.9707 162
-19.4531 7.0039 -1.2002 101
-18.0781 6.5039 2.4648 149
-17.3594 6.2461 2.8066000000000004 222
-16.9531 6.1015999999999995 3.1699 248
-8.0625 2.9355 -1.5059 46
-8.4453 3.0723000000000003 -1.3633000000000002 146
-9.9062 3.6055 -1.3506 165
-12.039100000000001 4.3828 -1.3428 151
-14.3828 5.234400000000001 -1.2461 80
-17.6406 6.417999999999999 1.9678 246
-19.3125 7.0273 -1.1924 113
-17.4844 6.363300000000001 2.3867 59
-17.1562 6.2461 2.7793 28
-17.0469 6.203099999999999 3.1914 185
-8.0547 2.9648000000000003 -1.5059 162
-8.4297 3.1035000000000004 -1.3633000000000002 92
-9.8906 3.6406 -1.3506 145
-12.031199999999998 4.4297 -1.3428 229
-14.3203 5.269500000000001 -1.2431999999999999 79
-19.2969 7.0977 -1.1934 234
-19.6875 7.2461 2.6933999999999996 235
-18.8594 6.9375 3.0566000000000004 249
-23.125 8.5078 -0.2874 88
-17.0156 6.2578 3.1895 173
-8.0391 2.9901999999999997 -1.5049000000000001 99
-8.3984 3.123 -1.3594 17
-9.8672 3.6699 -1.3486000000000002 240
-12.0156 4.4688 -1.3428 12
-14.3125 5.324199999999999 -1.2431999999999999 78
-19.2969 7.175800000000001 -1.1953 155
-20.0156 7.4414 2.7401999999999997 216
-18.6875 6.949199999999999 3.0332 214
-23.0938 8.5859 -0.2871 161
-17.7031 6.582000000000001 3.3223000000000003 249
-8.0391 3.0214999999999996 -1.5068000000000001 215
-8.3828 3.1504000000000003 -1.3584 125
-9.8672 3.7089999999999996 -1.3506 239
-12.0078 4.5156 -1.3437999999999999 99
-8.7266 3.2793 0.7578 39
-14.289100000000001 5.3711 -1.2431999999999999 107
-8.7266 3.2793 0.9751000000000001 254
-19.2812 7.2461 -1.1953 25
-8.7031 3.2714999999999996 1.1904000000000001 148
-23.0938 8.6797 -0.2876 107
-8.5938 3.2305 1.6113 7
-8.0391 3.0526999999999997 -1.5088 18
-8.3594 3.1757999999999997 -1.3574000000000002 158
-8.7344 3.3183999999999996 -1.1973 101
-8.6797 3.2969 0.5376 143
-8.6875 3.3007999999999997 -0.9722 86
-8.6797 3.2949 0.7544 99
-14.210899999999999 5.3984000000000005 -1.2383 202
-8.6641 3.2910000000000004 0.9692000000000001 43
-19.2812 7.328099999999999 -1.1973 27
-8.5938 3.2656 1.1777 228
-8.6797 3.2969 1.4091999999999998 88
-8.5938 3.2637 1.6133000000000002 196
-8.0312 3.0839999999999996 -1.5097999999999998 101
-8.3438 3.2031 -1.3563999999999998 96
-8.6094 3.3066000000000004 -1.1816 81
-8.6406 3.3183999999999996 0.5361 83
-8.625 3.3125 -0.9668000000000001 177
-8.6328 3.3125 0.7515000000000001 82
-14.1953 5.449199999999999 -1.2383 246
-8.6172 3.3086 0.9658 26
-19.25 7.390599999999999 -1.1973 181
-8.6016 3.3007999999999997 1.1797 9
-8.7344 3.3516000000000004 -0.3247 39
-8.6172 3.3086 1.4013999999999998 206
-8.6328 3.3145 -0.1072 147
-8.5781 3.293 1.6122999999999998 98
-8.0078 3.1055 -1.5068000000000001 156
-8.6484 3.3516000000000004 0.1075 216
-8.3359 3.2324 -1.3574000000000002 78
-8.5312 3.3066000000000004 -1.1709 44
-8.6016 3.3358999999999996 0.5342 144
-8.5703 3.3223000000000003 -0.9614 232
-8.5781 3.3242000000000003 0.7476 233
-8.6406 3.3495999999999997 -0.7534000000000001 192
-8.5859 3.3281 0.9634 5
-8.6406 3.3516000000000004 -0.5366 47
-8.5703 3.3242000000000003 1.1768 59
-8.6562 3.3535000000000004 -0.3223 184
-8.6094 3.3398000000000003 1.4022999999999999 220
-8.5781 3.3242000000000003 -0.1066 1
-8.5859 3.3281 1.6162 127
-8.0 3.1327999999999996 -1.5078 85
-8.5938 3.3632999999999997 0.107 53
-8.3438 3.2656 -1.3594 75
-8.5859 3.3613 0.32030000000000003 243
-8.5078 3.332 -1.1699 189
-8.5703 3.3555 0.5332 43
-8.5156 3.3339999999999996 -0.9570000000000001 227
-8.5938 3.3651999999999997 0.75 62
-8.6016 3.3672000000000004 -0.7509999999999999 55
-8.5938 3.3651999999999997 0.9658 25
-8.5859 3.3613 -0.5337 93
-8.5938 3.3651999999999997 1.1816 57
-8.6016 3.3672000000000004 -0.3208 115
-8.5703 3.3535000000000004 -0.1067 112
-8.5547 3.3495999999999997 1.6122999999999998 182
-7.988300000000001 3.1601999999999997 -1.5068000000000001 206
-8.5781 3.3926 0.1069 229
-8.3047 3.2851999999999997 -1.3555000000000001 225
-8.5703 3.3887 0.31980000000000003 47
-8.5 3.3613 -1.1699 152
-8.5703 3.3906 0.5337 37
-8.5 3.3613 -0.9561 51
-8.5859 3.3964999999999996 0.7505 165
-8.5859 3.3964999999999996 -0.7509999999999999 96
-8.6562 3.4238 0.9741 206
-8.5859 3.3964999999999996 -0.5347 135
-8.6094 3.4043 1.1855 137
-8.5859 3.3945 -0.3206 194
-18.5312 7.328099999999999 3.0312 117
-8.5625 3.3867000000000003 -0.10679999999999999 57
-17.6094 6.9688 3.332 155
-7.9688 3.1816000000000004 -1.5059 98
-8.6016 3.4355 0.1074 141
-8.2812 3.3086 -1.3535 255
-8.5703 3.4219 0.3206 65
-8.5 3.3945 -1.1719 167
-8.6016 3.4336 0.5361 190
-8.5156 3.4004000000000003 -0.9590000000000001 34
-8.6797 3.4668 0.7598 145
-8.5703 3.4238 -0.7505 209
-8.5781 3.4257999999999997 -0.5347 101
-19.6562 7.8477 2.7168 73
-8.5625 3.418 -0.3201 251
-18.9688 7.578099999999999 3.1094 90
-8.5703 3.4238 -0.10710000000000001 222
-17.6406 7.046900000000001 3.3418 29
-7.9453 3.2089999999999996 -1.5038999999999998 148
-17.875 7.2188 0.22460000000000002 198
-8.2578 3.3358999999999996 -1.3516 202
-17.8438 7.203099999999999 0.6698999999999999 203
-8.4844 3.4257999999999997 -1.1719 80
-17.4062 7.0273 1.0898 30
-8.5156 3.4395 -0.9609000000000001 165
-8.5547 3.4551 -0.75 42
-8.5859 3.4688 -0.5361 114
-8.9531 3.6151999999999997 1.2363 253
-8.5938 3.4688 -0.3218 176
-17.8906 7.2265999999999995 -0.2249 72
-7.9140999999999995 3.2285000000000004 -1.5 5
-17.875 7.292999999999999 0.2249 144
-8.2656 3.373 -1.3555000000000001 12
-17.8281 7.2734000000000005 0.6704000000000001 128
-8.4766 3.457 -1.1719 139
-17.375 7.0898 1.0889 35
-8.5234 3.4766000000000004 -0.9629000000000001 71
-8.5859 3.5 -0.7534000000000001 106
-17.875 7.292999999999999 -1.1211 14
-8.8828 3.623 1.2285 172
-17.9375 7.3164 -0.6743000000000001 135
-17.8906 7.300800000000001 -0.22510000000000002 45
-16.6094 6.7734000000000005 3.1543 117
-7.8672 3.2422000000000004 -1.4931999999999999 163
-18.0312 7.4297 0.2273 88
-8.2422 3.3964999999999996 -1.3535 159
-17.8438 7.3515999999999995 0.6724 65
-8.4766 3.4922000000000004 -1.1738 64
-17.7344 7.3047 1.1133 97
-8.5078 3.5039 -0.9619 181
-13.9453 5.7461 -1.2285 215
-8.7266 3.5957 0.9873000000000001 92
-17.8906 7.3672 -1.123 84
-8.7656 3.6113 1.2139 125
-17.9375 7.390599999999999 -0.6758 34
-16.6094 6.8438 3.1601999999999997 243
-7.8438 3.2637 -1.4902000000000002 34
-8.2344 3.4276999999999997 -1.3535 9
-18.0625 7.511699999999999 0.6812 80
-8.5 3.5351999999999997 -1.1787 99
-17.6719 7.355499999999999 1.1113 244
-8.4922 3.5351999999999997 -0.9623999999999999 204
-13.914100000000001 5.7890999999999995 -1.2275 199
-8.7188 3.627 0.9878 56
-19.0312 7.917999999999999 -1.1963 55
-8.7422 3.6387 1.2129 9
-20.0 8.3203 -0.7544 225
-17.3438 7.2188 2.8594 118
-16.5938 6.9023 3.1601999999999997 28
-7.824199999999999 3.2870999999999997 -1.4893 56
-8.2031 3.4473000000000003 -1.3506 130
-18.0 7.5625 0.6797 153
-8.5 3.5723000000000003 -1.1806999999999999 82
-17.3281 7.2773 1.0908 96
-11.8047 4.9609 -1.3418 102
-17.9375 7.5390999999999995 1.5859 56
-13.8594 5.8203 -1.2236 166
-8.7344 3.668 0.9906999999999999 232
-18.9219 7.949199999999999 -1.1914 6
-8.7656 3.6816000000000004 1.2168 105
-19.6875 8.2734 -0.7441 152
-17.3281 7.2852 2.8613 170
-19.6562 8.2578 -0.2484 188
-16.4531 6.9102 3.1387 184
-7.796900000000001 3.3086 -1.4863 167
-8.1875 3.4745999999999997 -1.3506 142
-8.5391 3.625 -1.1885 237
-17.4219 7.394500000000001 1.0986 43
-11.7656 4.9922 -1.3388999999999998 89
-18.0938 7.675800000000001 1.6016 248
-13.8203 5.863300000000001 -1.2227 39
-8.7109 3.6952999999999996 0.9897 50
-18.8594 8.0 -1.1895 252
-8.7422 3.7089999999999996 1.2158 60
-19.9062 8.4453 3.2910000000000004 224
-19.5312 8.2891 -0.24719999999999998 67
-16.3906 6.957000000000001 3.1327999999999996 127
-7.7578 3.3242000000000003 -1.4813999999999998 162
-8.1875 3.5077999999999996 -1.3516 68
-9.6484 4.1328 -1.3447 176
-17.9062 7.671900000000001 1.1309 156
-11.7578 5.0352 -1.3397999999999999 248
-68.4375 29.3281 6.082000000000001 24
-13.773399999999999 5.9023 -1.2207 244
-8.7031 3.7285000000000004 0.9906999999999999 93
-18.6406 7.984400000000001 -1.1768 249
-8.7109 3.7305 1.2129 200
-19.4062 8.3125 -0.7354 59
-19.9062 8.5312 3.2969 233
-17.9062 7.671900000000001 3.4276999999999997 18
-7.7265999999999995 3.3418 -1.4775 77
-8.1719 3.5351999999999997 -1.3516 76
-68.6875 29.7031 2.6113 159
-9.6172 4.1602 -1.3428 23
-68.5 29.625 4.3398 7
-11.710899999999999 5.0625 -1.3359 191
-13.7578 5.949199999999999 -1.2207 39
-8.7031 3.7637 0.9922 81
-18.5156 8.0078 -1.1709 42
-8.75 3.7832 1.2207 187
-19.2344 8.3203 -0.73 70
-19.8906 8.6094 3.2988 123
-19.4219 8.3984 3.7245999999999997 20
-7.707000000000001 3.3651999999999997 -1.4756 52
-8.1641 3.5645 -1.3516 37
-9.6016 4.1953 -1.3428 65
-66.125 28.8906 4.1992 118
-11.6797 5.1016 -1.335 80
-13.726600000000001 5.9922 -1.2197 234
-18.4219 8.0469 -1.167 29
-16.875 7.3672 2.3633 106
-19.0 8.2969 -0.7227 242
-19.8438 8.6641 3.2949 81
-18.8438 8.2344 -0.2396 195
-19.4688 8.5 3.7382999999999997 24
-7.675800000000001 3.3848000000000003 -1.4716999999999998 14
-8.1406 3.5879000000000003 -1.3496000000000001 57
-9.5781 4.2227 -1.3408000000000002 1
-65.5625 28.9062 4.168 119
-11.656199999999998 5.140599999999999 -1.334 83
-13.6719 6.0273 -1.2168 253
-18.3594 8.0938 -1.165 90
-16.7969 7.4023 2.3555 12
-18.7812 8.2812 -0.7153 74
-19.75 8.7109 3.2851999999999997 213
-18.7656 8.2734 -0.2389 154
-19.4375 8.5703 3.7382999999999997 247
-7.6602 3.4082 -1.4707 228
-8.1016 3.6055 -1.3457 25
-56.4688 25.125 2.1562 255
-9.5625 4.2539 -1.3408000000000002 59
-64.9375 28.8906 4.1328 49
-11.6328 5.175800000000001 -1.334 158
-13.648399999999999 6.074199999999999 -1.2168 207
-18.25 8.1172 -1.1592 109
-16.75 7.453099999999999 2.3516 48
-18.5938 8.2734 -0.7084999999999999 242
-19.6875 8.7578 3.2793 19
-18.7344 8.3359 -0.239 157
-19.6875 8.7578 3.7910000000000004 139
-7.636699999999999 3.4316000000000004 -1.4687999999999999 97
-8.1016 3.6406 -1.3486000000000002 96
-56.4688 25.3594 2.1602 116
-9.5312 4.2812 -1.3388999999999998 42
-64.25 28.8594 4.0938 21
-11.601600000000001 5.2109000000000005 -1.3319999999999999 248
-13.625 6.1211 -1.2168 228
-19.4219 8.7266 -1.2363 211
-16.7969 7.546900000000001 2.3633 25
-18.5938 8.3516 -0.71 44
-18.7031 8.3984 -0.2389 200
-17.0469 7.6602 3.2891000000000004 185
-7.625 3.4531 -1.4687999999999999 131
-18.8125 8.5156 0.24050000000000002 10
-8.1016 3.6719 -1.3506 45
-56.5 25.5938 2.1641 180
-9.5234 4.3125 -1.3397999999999999 196
-63.625 28.8281 4.0625 198
-11.5781 5.2461 -1.3311000000000002 197
-13.5703 6.1484000000000005 -1.2129 157
-18.3281 8.3047 -1.168 165
-16.7344 7.578099999999999 2.3574 73
-18.7188 8.4766 -0.2394 21
-19.4531 8.8125 3.7577999999999996 111
-7.6211 3.4844 -1.4707 170
-18.8281 8.6016 0.24109999999999998 182
-8.0938 3.6992000000000003 -1.3506 241
-56.4688 25.7969 2.166 96
-9.4922 4.3398 -1.3378999999999999 75
-63.7188 29.1094 4.0742 138
-11.531199999999998 5.269500000000001 -1.3271000000000002 115
-13.5547 6.1953 -1.2139 26
-16.8438 7.699199999999999 1.9424000000000001 37
-18.3438 8.3828 -1.1699 68
-16.6562 7.609400000000001 2.3496 17
-17.6094 8.0469 2.9452999999999996 32
-18.7344 8.5625 -0.23989999999999997 252
-19.4844 8.9062 3.7695 198
-7.6328 3.5214999999999996 -1.4746000000000001 38
-18.7656 8.6562 0.2407 207
-8.0703 3.7245999999999997 -1.3486000000000002 89
-9.4531 4.3633 -1.334 4
-63.6875 29.3906 4.0781 238
-11.5 5.3047 -1.3262 237
-13.5156 6.234400000000001 -1.2119 228
-16.7344 7.7227 1.9325999999999999 166
-16.5312 7.6328 2.3379 201
-17.5312 8.0859 2.9375 5
-18.7188 8.6406 -0.2402 30
-19.4844 8.9922 3.7754000000000003 221
-7.625 3.5507999999999997 -1.4756 93
-18.7656 8.7422 0.2412 122
-8.0938 3.7695 -1.3555000000000001 165
-9.4453 4.3984 -1.334 107
-63.0625 29.3594 4.043 236
-10.5469 4.9102 -1.2178 90
-13.4453 6.261699999999999 -1.208 111
-16.7344 7.792999999999999 1.9355000000000002 242
-16.5938 7.7227 2.3477 7
-17.75 8.2656 -0.6820999999999999 66
-17.4844 8.1406 2.9355 90
-18.7188 8.7188 -0.24059999999999998 110
-19.4531 9.0625 3.7773000000000003 15
-7.605499999999999 3.5723000000000003 -1.4746000000000001 175
-18.7812 8.8281 0.2418 223
-8.0781 3.7969 -1.3555000000000001 235
-62.5312 29.375 2.4102 219
-9.4219 4.4258 -1.3330000000000002 180
-13.4375 6.3086 -1.209 159
-17.1875 8.0703 1.9902000000000002 116
-17.625 8.2734 -0.6777 200
-17.5625 8.25 2.9512 182
-18.7031 8.7891 -0.2408 196
-17.9062 8.4141 3.4824 80
-7.5898 3.5957 -1.4736000000000002 12
-18.7969 8.9062 0.24239999999999998 58
-8.0703 3.8223000000000003 -1.3555000000000001 40
-69.5625 32.9688 2.6875 233
-9.4062 4.457 -1.334 147
-61.9688 29.3594 3.9863 112
-10.5625 5.0039 -1.2236 115
-61.625 29.2031 5.5664 74
-13.4375 6.363300000000001 -1.2109 174
-17.2656 8.1797 2.0039 18
-17.4531 8.2656 -0.6724 44
-17.5469 8.3125 2.9551 106
-18.7656 8.8906 -0.2419 22
-17.5156 8.2969 3.4101999999999997 117
-7.5898 3.6308999999999996 -1.4756 178
-18.7812 8.9844 0.2427 221
-8.0859 3.8691000000000004 -1.3603999999999998 208
-9.3906 4.4922 -1.3330000000000002 240
-10.539100000000001 5.043 -1.2227 174
-10.7031 5.1211 -0.9653 224
-17.2656 8.2656 2.0078 61
-18.8281 9.0078 -1.2119 150
-17.375 8.3125 -0.6709 124
-18.4375 8.8203 3.1094 123
-17.4531 8.3516 3.4043 221
-7.6015999999999995 3.6699 -1.4813999999999998 203
-18.7656 9.0547 0.2427 196
-8.0781 3.9004000000000003 -1.3613 154
-9.375 4.5273 -1.334 68
-10.593800000000002 5.1172 -1.2324 18
-10.625 5.1289 -0.9604 58
-18.7812 9.0625 -1.2109 216
-17.1094 8.2578 -0.6616 215
-18.4688 8.9141 3.1211 104
-17.4688 8.4297 3.4120999999999997 252
-7.609400000000001 3.707 -1.4853999999999998 18
-8.0625 3.9297000000000004 -1.3613 39
-9.3594 4.5586 -1.3330000000000002 128
-10.3906 5.0625 -1.21 35
-10.5469 5.140599999999999 -0.9551000000000001 203
-18.4531 8.9922 3.125 2
-17.4062 8.4766 3.4062 225
-7.5664 3.7188 -1.4794999999999998 216
-8.0703 3.9668 -1.3652000000000002 49
-9.3125 4.5781 -1.3300999999999998 35
-10.460899999999999 5.140599999999999 -1.2207 55
-10.5469 5.1836 -0.9565 147
-59.0938 29.0469 6.917999999999999 128
-17.3906 8.5469 3.4082 15
-7.550800000000001 3.7441000000000004 -1.4785 133
-8.0703 4.0039 -1.3672 255
-59.0938 29.2969 2.3008 16
-9.3047 4.6133 -1.3300999999999998 87
-10.648399999999999 5.2812 -0.9673 253
-58.625 29.0625 6.875 198
-10.414100000000001 5.1640999999999995 -0.6733 37
-17.0938 8.4766 -0.6646 142
-17.3906 8.625 3.4160000000000004 219
-7.5312 3.7656 -1.4775 124
-8.0625 4.0312 -1.3672 36
-9.2734 4.6406 -1.3291 161
-10.4453 5.2227 -1.2227 4
-10.593800000000002 5.296900000000001 -0.9639 145
-58.0938 29.0469 6.8203 157
-10.335899999999999 5.171900000000001 -0.6698999999999999 113
-10.7422 5.3711 -0.4175 21
-10.5078 5.2578 -0.1365 38
-18.8438 9.4297 3.7089999999999996 183
-7.519500000000001 3.793 -1.4775 48
-8.0703 4.0703 -1.3711000000000002 36
-9.2656 4.6719 -1.3291 240
-58.0 29.2656 3.7773000000000003 19
-10.351600000000001 5.2227 -1.2139 227
-13.976600000000001 7.050800000000001 1.2744 235
-10.4531 5.2734000000000005 -0.9526 86
-57.5625 29.0312 6.769500000000001 181
-10.335899999999999 5.2148 -0.6709 235
-10.6406 5.3711 -0.4146 242
-10.4844 5.2890999999999995 -0.1365 126
-18.8125 9.4844 3.707 40
-7.515599999999999 3.8242000000000003 -1.4794999999999998 122
-8.0703 4.1055 -1.374 85
-9.2344 4.6992 -1.3271000000000002 32
-10.335899999999999 5.2578 -1.2139 24
-57.2812 29.1562 6.7539 15
-10.4297 5.3047 -0.6777 119
-10.5625 5.375 -0.4121 198
-10.460899999999999 5.3203 -0.1364 20
-18.7344 9.5312 3.6992000000000003 178
-7.488300000000001 3.8418 -1.4766 72
-18.7812 9.6328 0.2458 197
-8.0703 4.1406 -1.376 82
-57.25 29.375 2.2461 79
-9.2031 4.7227 -1.3252000000000002 42
-57.25 29.375 3.7422000000000004 230
-10.343800000000002 5.3047 -1.2168 3
-57.2812 29.3906 6.761699999999999 65
-10.3906 5.332000000000001 -0.6772 193
-10.5078 5.390599999999999 -0.4106 130
-10.4375 5.355499999999999 -0.1362 140
-18.6875 9.5859 3.6952999999999996 214
-7.4648 3.8613 -1.4746000000000001 150
-8.0781 4.1758 -1.3799000000000001 150
-57.25 29.6094 2.248 204
-9.1797 4.7461 -1.3232 84
-45.2188 23.375 2.9589999999999996 175
-10.343800000000002 5.3515999999999995 -1.2197 245
-55.5 28.7188 6.5625 137
-55.375 28.6406 8.0156 28
-10.4531 5.4062 -0.4089 2
-10.4375 5.3984000000000005 -0.1366 143
-7.4609000000000005 3.8926 -1.4766 29
-8.0703 4.207 -1.3809 62
-57.1875 29.8438 2.25 61
-9.1875 4.793 -1.3271000000000002 1
-57.25 29.875 3.7558999999999996 84
-10.3203 5.386699999999999 -1.2187999999999999 171
-13.9375 7.269500000000001 1.2803 233
-13.960899999999999 7.2852 1.6503999999999999 252
-10.3047 5.375 -0.6733 254
-55.0625 28.7344 7.984400000000001 48
-10.3672 5.4102 -0.4067 226
-55.5312 28.9688 9.5469 115
-17.0625 8.8984 -0.2241 2
-7.457000000000001 3.9219 -1.4785 45
-8.0703 4.2422 -1.3838 63
-57.125 30.0469 2.252 115
-9.2031 4.8398 -1.3319999999999999 58
-44.4062 23.3438 2.9160000000000004 238
-13.9375 7.328099999999999 1.2822 36
-10.625 5.5859000000000005 -0.9771 138
-10.406199999999998 5.4727 -0.6816 193
-54.875 28.8594 7.9727 154
-10.3203 5.4297 -0.40549999999999997 205
-55.2188 29.0312 9.5078 164
-17.0625 8.9688 -0.2245 141
-7.449199999999999 3.9531 -1.4794999999999998 47
-8.0781 4.2852 -1.3877000000000002 222
-9.1953 4.8789 -1.334 24
-44.375 23.5469 2.9219 194
-10.398399999999999 5.515599999999999 -1.2324 4
-13.9375 7.394500000000001 1.2852000000000001 213
-10.3203 5.4765999999999995 -0.6772 125
-54.8125 29.0781 7.9765999999999995 92
-10.3125 5.4727 -0.406 183
-55.125 29.25 9.5078 174
-12.968800000000002 6.8789 -0.17079999999999998 53
-55.2188 29.3125 11.0156 239
-7.4375 3.9805 -1.4805000000000001 186
-8.0703 4.3164 -1.3887 72
-9.1953 4.9219 -1.3369 254
-10.4219 5.574199999999999 -1.2373 203
-13.9531 7.4648 1.2891 115
-13.1328 7.0273 -1.2129 252
-54.6562 29.2344 7.9688 199
-10.351600000000001 5.5390999999999995 -0.4082 201
-54.9062 29.375 9.4922 196
-12.906199999999998 6.9062 -0.1703 129
-55.0312 29.4375 11.0 87
-7.4140999999999995 4.0 -1.4775 106
-30.3594 16.3906 0.4023 182
-8.1094 4.375 -1.3984 240
-54.0312 29.1719 2.1426 235
-9.1953 4.9648 -1.3388999999999998 99
-10.406199999999998 5.6172 -1.2383 203
-13.9453 7.5273 1.29 134
-12.9844 7.0078 -1.2012 243
-13.9375 7.5234000000000005 1.6602000000000001 71
-10.398399999999999 5.613300000000001 -0.6851 9
-54.5312 29.4375 7.9648 20
-54.7812 29.5781 9.4922 143
-12.8281 6.925800000000001 -0.1696 241
-55.0 29.6875 11.0156 87
-7.4062 4.0312 -1.4794999999999998 12
-30.2969 16.4844 0.4023 64
-8.0938 4.4062 -1.3984 205
-53.625 29.1875 2.1309 153
-9.1953 5.0078 -1.3418 119
-10.7656 5.859400000000001 -1.2832 185
-13.9375 7.5859000000000005 1.2919999999999998 37
-12.914100000000001 7.0273 -1.1973 232
-13.9453 7.5898 1.6641 19
-54.4688 29.6562 7.9727 236
-54.7812 29.8281 9.5078 235
-12.8047 6.9688 -0.1696 163
-7.4023 4.0586 -1.4813999999999998 190
-8.0859 4.4336 -1.3994 75
-13.9922 7.675800000000001 0.5552 50
-9.2031 5.0508 -1.3447 41
-13.9531 7.6523 0.9233 183
-10.781199999999998 5.917999999999999 -1.2881 113
-13.9375 7.644500000000001 1.2949000000000002 89
-12.835899999999999 7.042999999999999 -1.1924 101
-13.9453 7.6523 1.6680000000000001 30
-54.4062 29.8594 7.9765999999999995 69
-54.9062 30.125 9.5391 132
-12.781199999999998 7.011699999999999 -0.1696 195
-7.394500000000001 4.0898 -1.4824000000000002 95
-14.0078 7.7461 0.1863 6
-8.1094 4.4844 -1.4062000000000001 38
-13.9453 7.7109000000000005 0.5547 79
-9.2109 5.0938 -1.3486000000000002 91
-13.9531 7.7148 0.9248000000000001 121
-10.4375 5.769500000000001 -1.249 124
-13.9453 7.707000000000001 1.2978999999999998 156
-12.7969 7.074199999999999 -1.1904000000000001 117
-13.9453 7.7109000000000005 1.6699000000000002 153
-12.7344 7.0390999999999995 -0.8438 44
-13.898399999999999 7.6875 2.0371 136
-12.7344 7.0390999999999995 -0.5063 220
-12.7578 7.0547 -0.1696 134
-7.375 4.1133 -1.4813999999999998 146
-8.1016 4.5195 -1.4082 226
-52.4375 29.25 2.0957 83
-9.2109 5.136699999999999 -1.3506 78
-13.9453 7.7773 0.9262999999999999 122
-10.4219 5.8125 -1.25 13
-13.9453 7.7812 1.3008000000000002 132
-12.789100000000001 7.1328 -1.1924 26
-13.9453 7.7773 1.6728999999999998 231
-12.7422 7.105499999999999 -0.8462000000000001 205
-54.5938 30.4531 8.0391 45
-12.726600000000001 7.0977 -0.5073 96
-12.656199999999998 7.0586 -0.1686 108
-7.359400000000001 4.1367 -1.4813999999999998 64
-8.1328 4.5703 -1.416 5
-9.2266 5.1914 -1.3563999999999998 164
-13.9375 7.8398 0.9277 175
-10.4297 5.863300000000001 -1.2529000000000001 24
-13.9531 7.8438 1.3037 135
-12.7656 7.175800000000001 -1.1924 191
-13.9531 7.8438 1.6777000000000002 97
-12.718800000000002 7.1523 -0.8462000000000001 165
-13.8906 7.8125 2.0449 152
-12.7656 7.175800000000001 -0.5093 120
-12.6875 7.1328 -0.1693 10
-7.359400000000001 4.1719 -1.4844 219
-8.1328 4.6094 -1.4188999999999998 24
-51.375 29.125 2.0605 209
-9.2344 5.234400000000001 -1.3603999999999998 91
-13.9453 7.9062 0.9301999999999999 9
-10.843800000000002 6.1484000000000005 -1.3056999999999999 82
-13.9453 7.9062 1.3056999999999999 91
-12.7422 7.2265999999999995 -1.1934 205
-13.9531 7.9102 1.6806999999999999 251
-12.7422 7.2227 -0.8495999999999999 181
-12.7344 7.2227 -0.5093 48
-12.7344 7.2188 -0.1703 114
-7.355499999999999 4.2031 -1.4863 126
-8.125 4.6445 -1.4209 136
-9.25 5.2890999999999995 -1.3652000000000002 20
-10.8906 6.2227 -1.3135 236
-13.9297 7.9609000000000005 1.3066 215
-12.773399999999999 7.300800000000001 -1.1982 104
-13.9531 7.9727 1.6846 30
-12.6875 7.25 -0.8477 34
-12.7422 7.2812 -0.5107 77
-12.718800000000002 7.269500000000001 -0.1704 213
-7.3438 4.2305 -1.4872999999999998 51
-8.1641 4.6992 -1.4297 51
-50.5 29.0625 2.0332 178
-9.2422 5.3203 -1.3662 130
-10.875 6.261699999999999 -1.3144999999999998 249
-12.7578 7.3438 -1.1982 160
-12.7656 7.3515999999999995 -0.8545 240
-12.2422 7.046900000000001 1.8115 201
-12.718800000000002 7.3203 -0.5107 206
-12.664100000000001 7.2890999999999995 -0.1699 150
-12.1953 7.0234000000000005 2.4746 223
-7.328099999999999 4.2539 -1.4863 165
-8.1641 4.7383 -1.4325999999999999 23
-50.2188 29.1406 2.0254 82
-9.2344 5.359400000000001 -1.3681999999999999 76
-10.8672 6.3047 -1.3154 154
-12.726600000000001 7.3828 -1.1982 56
-12.789100000000001 7.417999999999999 -0.8573999999999999 29
-12.1953 7.074199999999999 1.8075999999999999 108
-12.773399999999999 7.4102 -0.5136999999999999 196
-12.7031 7.3711 -0.1709 213
-7.3086 4.2734 -1.4853999999999998 178
-8.1797 4.7852 -1.4375 78
-12.2344 7.1602 0.4932 36
-9.2344 5.4023 -1.3711000000000002 228
-12.2031 7.140599999999999 0.8198000000000001 9
-10.835899999999999 6.3398 -1.3144999999999998 151
-12.6953 7.4297 -1.1982 105
-12.2422 7.1640999999999995 -0.8228 211
-12.1953 7.136699999999999 1.8125 136
-22.3125 13.0547 -0.9009 117
-12.2578 7.171900000000001 -0.16519999999999999 15
-11.773399999999999 6.886699999999999 2.3984 87
-7.3047 4.3086 -1.4872999999999998 123
-12.218800000000002 7.203099999999999 0.1649 178
-8.1797 4.8242 -1.4413999999999998 226
-12.2031 7.1953 0.4927 191
-9.2422 5.449199999999999 -1.375 229
-12.2031 7.1953 0.8212999999999999 196
-10.8203 6.3789 -1.3154 135
-12.218800000000002 7.207000000000001 -1.1553 40
-40.5312 23.9062 4.9414 138
-12.1719 7.175800000000001 -0.8193 233
-12.226600000000001 7.2109000000000005 -0.4939 126
-11.8281 6.9727 2.0879 38
-12.2031 7.1953 -0.1648 36
-11.7422 6.925800000000001 2.3965 133
-7.3047 4.3438 -1.4912 252
-12.1875 7.2461 0.1649 160
-8.1719 4.8594 -1.4434 39
-12.1797 7.2422 0.4932 235
-9.2422 5.4922 -1.3769999999999998 236
-48.7188 28.9531 3.2949 154
-10.781199999999998 6.4102 -1.3135 121
-11.7969 7.015599999999999 1.1172 229
-12.1797 7.238300000000001 -1.1533 221
-40.4375 24.0469 4.9414 16
-12.156199999999998 7.2265999999999995 -0.8203 25
-12.1953 7.25 -0.49369999999999997 166
-12.1953 7.25 -0.165 173
-7.296900000000001 4.3711 -1.4922 37
-8.1641 4.8906 -1.4453 207
-48.2812 28.9375 1.9638999999999998 160
-9.2188 5.5234000000000005 -1.3769999999999998 98
-47.9062 28.7188 3.248 128
-10.773399999999999 6.457000000000001 -1.3154 239
-12.1406 7.2734000000000005 -1.1523 93
-40.0625 24.0 4.9023 254
-12.1328 7.269500000000001 -0.8203 52
-12.2422 7.3359000000000005 -0.4966 240
-42.0938 25.2344 -0.5732 114
-7.269500000000001 4.3906 -1.4902000000000002 24
-8.1406 4.918 -1.4443000000000001 196
-42.5312 25.6875 1.7334 117
-9.2031 5.5586 -1.3779 27
-42.6562 25.7656 2.8964999999999996 185
-10.75 6.4961 -1.3154 91
-11.835899999999999 7.1484000000000005 1.126 223
-12.156199999999998 7.3438 -1.1562000000000001 241
-39.8438 24.0625 4.8867 244
-12.148399999999999 7.3359000000000005 -0.8228 113
-21.8438 13.1953 -0.8896 22
-11.710899999999999 7.0703 2.4043 62
-7.2578 4.418 -1.4912 149
-8.1172 4.9414 -1.4434 124
-47.7188 29.0469 1.9491999999999998 193
-9.1953 5.5977 -1.3799000000000001 197
-46.9688 28.5938 3.1973000000000003 252
-10.7344 6.5312 -1.3154 11
-11.8125 7.1875 1.126 251
-12.4531 7.578099999999999 -1.1865 144
-39.4375 24.0 4.8477 39
-16.8125 10.2344 -1.1426 149
-21.8281 13.289100000000001 -0.8906000000000001 168
-11.7969 7.1836 2.0996 77
-11.8125 7.1875 2.4297 123
-7.25 4.4492 -1.4922 6
-8.0938 4.9648 -1.4413999999999998 230
-47.6875 29.2656 1.9521000000000002 153
-9.1875 5.640599999999999 -1.3818000000000001 81
-46.5312 28.5625 3.1738 251
-10.7031 6.5664 -1.3154 66
-11.843800000000002 7.269500000000001 1.1318000000000001 236
-12.4453 7.640599999999999 -1.1895 112
-39.4062 24.1875 4.8555 46
-16.75 10.281199999999998 -1.1406 215
-21.6875 13.3125 -0.8872 126
-11.7969 7.2422 2.1055 13
-11.7578 7.2148 2.4238 116
-7.234400000000001 4.4766 -1.4931999999999999 217
-8.0625 4.9844 -1.4385 36
-47.6875 29.5 1.9561000000000002 119
-9.1875 5.6836 -1.3838 63
-46.0938 28.5156 3.1504000000000003 143
-10.6875 6.609400000000001 -1.3154 211
-11.8672 7.3398 1.1357 120
-12.414100000000001 7.6797 -1.1885 223
-41.5938 25.7344 5.136699999999999 130
-16.6719 10.3203 -1.1387 52
-21.625 13.375 -0.8862000000000001 205
-41.6562 25.7656 -0.5722999999999999 45
-11.6719 7.2227 2.4121 153
-7.2461 4.5156 -1.4980000000000002 67
-8.0547 5.0234 -1.4413999999999998 75
-47.6562 29.7031 1.959 162
-9.1797 5.7227 -1.3857 189
-46.0312 28.7031 3.1543 94
-10.664100000000001 6.644500000000001 -1.3154 127
-12.375 7.7148 -1.1875 107
-41.4688 25.8438 5.1328 50
-16.6406 10.375 -1.1387 119
-21.5469 13.4297 -0.8848 156
-11.6172 7.2422 2.4062 41
-7.230499999999999 4.543 -1.4980000000000002 115
-8.0234 5.0391 -1.4375 217
-41.3125 25.9531 1.7012 189
-9.1641 5.7539 -1.3857 74
-42.5625 26.7344 2.9219 7
-10.6406 6.6875 -1.3163999999999998 71
-39.6562 24.9219 3.8223000000000003 24
-12.351600000000001 7.761699999999999 -1.1885 169
-41.3438 25.9844 5.1289 136
-16.5469 10.398399999999999 -1.1348 153
-41.8438 26.2812 6.3477 151
-21.4531 13.4844 -0.8833 188
-7.199199999999999 4.5547 -1.4950999999999999 74
-8.0078 5.0703 -1.4394999999999998 220
-41.2188 26.0625 1.7012 160
-9.1641 5.796900000000001 -1.3896000000000002 246
-42.4688 26.875 2.9219 98
-10.625 6.7227 -1.3163999999999998 86
-39.5312 25.0156 3.8183999999999996 152
-12.3281 7.800800000000001 -1.1885 154
-40.5938 25.6719 5.043 75
-16.5 10.4453 -1.1338 98
-41.375 26.1719 6.292999999999999 98
-21.375 13.531199999999998 -0.8818 146
-7.207000000000001 4.5938 -1.5 230
-7.9765999999999995 5.0859 -1.4365 133
-9.1641 5.8398 -1.3925999999999998 152
-39.125 24.9219 2.6952999999999996 39
-10.593800000000002 6.75 -1.3154 201
-39.25 25.0156 3.7988 145
-12.3125 7.8477 -1.1885 221
-40.7812 25.9844 5.0781 229
-16.4062 10.460899999999999 -1.1299 114
-41.75 26.6094 6.363300000000001 40
-21.2969 13.5703 -0.8798999999999999 200
-7.1875 4.6172 -1.499 145
-7.9727 5.125 -1.4385 181
-9.1562 5.886699999999999 -1.3944999999999999 130
-38.9375 25.0312 2.6914 166
-10.5781 6.800800000000001 -1.3174000000000001 6
-39.0312 25.0781 3.7851999999999997 134
-12.2578 7.8789 -1.1865 47
-40.4062 25.9688 5.043 42
-16.3438 10.5 -1.1279000000000001 71
-21.1406 13.593800000000002 -0.8759999999999999 102
-7.167999999999999 4.6445 -1.4980000000000002 236
-7.953099999999999 5.1523 -1.4385 51
-44.625 28.9062 1.8544999999999998 8
-9.1406 5.921900000000001 -1.3955000000000002 116
-39.0312 25.2812 2.7031 8
-10.5625 6.8398 -1.3184 15
-38.9062 25.2031 3.7832 78
-12.1797 7.890599999999999 -1.1816 121
-40.125 25.9844 5.0195 210
-16.2812 10.5469 -1.126 155
-40.2812 26.0938 6.167999999999999 115
-21.1406 13.6953 -0.8779 15
-7.140599999999999 4.6602 -1.4961000000000002 67
-7.917999999999999 5.1640999999999995 -1.4346 218
-44.3125 28.9062 1.8457 106
-9.1328 5.957000000000001 -1.3975 100
-38.9375 25.4062 2.7031 196
-10.5547 6.8828 -1.3193000000000001 51
-38.8438 25.3438 3.7851999999999997 64
-12.1875 7.949199999999999 -1.1845999999999999 102
-40.0938 26.1562 5.0273 150
-16.25 10.593800000000002 -1.126 221
-40.4062 26.3594 6.203099999999999 46
-21.0312 13.726600000000001 -0.8755 27
-7.0938 4.6602 -1.4893 154
-7.917999999999999 5.203099999999999 -1.4385 46
-43.9688 28.9062 1.8359 54
-9.1328 6.0 -1.4003999999999999 36
-43.875 28.8438 3.0526999999999997 230
-10.5156 6.9140999999999995 -1.3184 136
-39.0938 25.6875 3.8164 191
-12.1406 7.9765999999999995 -1.1826 106
-39.9688 26.2812 5.0234 252
-16.2031 10.648399999999999 -1.126 83
-40.5625 26.6406 6.234400000000001 34
-20.9844 13.789100000000001 -0.875 196
-7.082000000000001 4.6914 -1.4902000000000002 59
-7.9023 5.234400000000001 -1.4385 200
-43.5625 28.8594 1.8232 91
-9.1172 6.0390999999999995 -1.4013999999999998 215
-41.9375 27.7812 2.9238 86
-10.4922 6.949199999999999 -1.3184 174
-39.875 26.4062 3.9043 86
-13.093800000000002 8.6719 -1.2793 33
-39.5 26.1562 4.9727 181
-16.1406 10.6953 -1.124 202
-40.375 26.75 6.2265999999999995 0
-20.8438 13.8047 -0.8711 89
-7.078099999999999 4.7227 -1.4931999999999999 199
-7.8672 5.25 -1.4365 133
-43.2188 28.8438 1.8125 236
-9.1016 6.074199999999999 -1.4022999999999999 41
-43.1562 28.8125 3.0176 190
-10.468800000000002 6.988300000000001 -1.3184 228
-40.1875 26.8281 3.9433999999999996 145
-13.0547 8.7109 -1.2783 213
-39.25 26.2031 4.957 180
-16.0938 10.7422 -1.123 185
-40.125 26.7656 6.199199999999999 187
-20.75 13.851600000000001 -0.8695999999999999 218
-7.0547 4.7461 -1.4922 52
-7.8438 5.2773 -1.4346 7
-42.8125 28.8125 1.8008000000000002 159
-9.0781 6.109400000000001 -1.4022999999999999 142
-42.8438 28.8281 3.002 35
-10.4531 7.0312 -1.3193000000000001 206
-41.2812 27.7656 4.0625 22
-12.9922 8.7422 -1.2754 42
-39.3438 26.4688 4.9805 22
-16.0 10.7656 -1.1201 235
-40.1562 27.0156 6.2188 221
-20.7031 13.9297 -0.8695999999999999 198
-7.0234000000000005 4.7617 -1.4883000000000002 215
-7.8438 5.3164 -1.4385 252
-9.0703 6.1484000000000005 -1.4033000000000002 106
-10.4375 7.074199999999999 -1.3213 166
-42.8438 29.0469 4.2266 241
-12.9531 8.7812 -1.2744 32
-39.2812 26.625 4.9805 6
-15.914100000000001 10.789100000000001 -1.1162 0
-40.375 27.3594 6.265599999999999 241
-20.6406 13.9844 -0.8687 98
-44.4062 30.0938 8.1719 39
-47.7812 32.375 10.1719 76
-6.9765999999999995 4.7617 -1.4813999999999998 95
-7.8047 5.324199999999999 -1.4346 6
-9.0703 6.1914 -1.4072 217
-39.9688 27.2656 2.8125 86
-10.398399999999999 7.0938 -1.3184 29
-42.875 29.25 4.2344 230
-12.9219 8.8203 -1.2744 130
-39.3125 26.8281 4.9961 227
-15.843800000000002 10.8125 -1.1133 57
-40.3438 27.5312 6.2773 168
-20.5781 14.039100000000001 -0.8682 152
-47.4062 32.3438 10.1094 200
-6.949199999999999 4.7773 -1.4794999999999998 140
-7.792999999999999 5.355499999999999 -1.4355000000000002 208
-36.9062 25.3594 1.5615 90
-9.0625 6.2265999999999995 -1.4082 220
-42.8125 29.4219 3.0195 248
-10.3672 7.125 -1.3184 194
-40.0938 27.5469 3.9707 76
-12.8594 8.8438 -1.2715 174
-39.5 27.1406 5.0312 145
-15.773399999999999 10.843800000000002 -1.1113 45
-39.6875 27.2812 6.1875 246
-20.5312 14.1094 -0.8682 144
-44.3438 30.4844 8.2031 210
-33.0938 22.7344 -0.46880000000000005 247
-47.0625 32.3438 10.0625 223
-6.9336 4.8008 -1.4794999999999998 48
-7.7461 5.3672 -1.4306999999999999 54
-9.0156 6.2422 -1.4053 103
-42.8125 29.6562 3.0273000000000003 5
-10.343800000000002 7.1640999999999995 -1.3174000000000001 236
-39.9062 27.6406 3.9629000000000003 215
-12.8203 8.875 -1.2695 18
-39.3125 27.2188 5.0195 131
-15.6719 10.8594 -1.1064 210
-39.6875 27.4844 6.203099999999999 78
-20.3906 14.125 -0.8643000000000001 200
-44.4062 30.7656 8.2344 65
-46.6875 32.3438 10.0078 231
-6.9062 4.8203 -1.4775 47
-7.75 5.4102 -1.4346 226
-8.9922 6.2773 -1.4053 3
-42.8125 29.875 3.0351999999999997 82
-10.3281 7.207000000000001 -1.3193000000000001 128
-39.25 27.4062 3.9082 45
-12.789100000000001 8.9297 -1.2705 22
-39.625 27.6562 5.0742 11
-15.625 10.906199999999998 -1.1055 139
-39.5625 27.6094 6.199199999999999 176
-20.375 14.218800000000002 -0.8656999999999999 139
-46.5625 32.5 10.0078 247
-6.859400000000001 4.8242 -1.4716999999999998 94
-7.7539 5.453099999999999 -1.4385 1
-42.8125 30.1094 1.8262 197
-8.9766 6.3125 -1.4062000000000001 150
-40.875 28.7344 2.9043 214
-10.2969 7.2461 -1.3193000000000001 107
-39.125 27.5156 3.9043 5
-12.726600000000001 8.9531 -1.2676 101
-39.5312 27.8125 5.0742 180
-15.585899999999999 10.960899999999999 -1.1055 137
-41.1562 28.9531 6.4688 109
-20.3125 14.281199999999998 -0.8652 46
-46.5625 32.75 10.0312 132
-6.8398 4.8438 -1.4707 150
-7.730499999999999 5.4765999999999995 -1.4385 229
-42.75 30.2969 1.8281 175
-8.9453 6.3359000000000005 -1.4043 216
-40.7812 28.9062 2.9062 153
-10.281199999999998 7.2852 -1.3193000000000001 134
-39.4375 27.9531 3.9452999999999996 124
-12.6953 8.9922 -1.2666 128
-39.3125 27.8594 5.0625 106
-15.523399999999999 11.0 -1.1045 10
-42.2812 29.9531 6.6602 11
-20.1875 14.3047 -0.8623000000000001 181
-46.5312 32.9688 10.0469 178
-6.8125 4.8594 -1.4687999999999999 26
-7.699199999999999 5.4922 -1.4355000000000002 208
-42.7812 30.5312 1.8330000000000002 40
-8.9297 6.3711 -1.4062000000000001 37
-42.7812 30.5312 3.0547000000000004 250
-10.2656 7.324199999999999 -1.3213 186
-38.9688 27.7969 3.9062 239
-12.656199999999998 9.0312 -1.2666 60
-39.0938 27.8906 5.043 17
-15.460899999999999 11.031199999999998 -1.1025 146
-42.25 30.1562 6.671900000000001 244
-20.0781 14.3281 -0.8593999999999999 42
-46.5312 33.2188 10.0703 120
-6.7852 4.875 -1.4658000000000002 155
-7.671900000000001 5.511699999999999 -1.4336000000000002 132
-42.75 30.7188 1.8369 48
-8.9062 6.3984000000000005 -1.4053 185
-42.7812 30.7344 3.0625 247
-10.2344 7.355499999999999 -1.3203 218
-40.0938 28.7969 4.0273 200
-12.6094 9.0625 -1.2646 44
-42.8125 30.75 5.5352 22
-15.4219 11.085899999999999 -1.1025 149
-42.25 30.375 6.6875 167
-20.0156 14.3906 -0.8593999999999999 213
-46.5625 33.4375 10.1016 184
-6.769500000000001 4.9023 -1.4668 1
-7.667999999999999 5.550800000000001 -1.4375 81
-42.75 30.9531 1.8418 228
-8.8828 6.4336 -1.4053 27
-39.4375 28.5625 2.8301 31
-10.2266 7.4062 -1.3222999999999998 75
-38.6562 28.0 3.8945 166
-12.5547 9.0938 -1.2627 8
-42.75 30.9531 5.542999999999999 205
-15.375 11.1328 -1.1016 95
-42.25 30.6094 6.707000000000001 140
-19.9531 14.4453 -0.8584 80
-46.5312 33.6875 10.125 130
-6.734400000000001 4.9141 -1.4628999999999999 214
-42.7812 31.2188 0.6187 140
-7.6562 5.5859000000000005 -1.4385 93
-42.75 31.1875 1.8466999999999998 13
-8.8438 6.453099999999999 -1.4022999999999999 70
-39.4375 28.7812 2.8379000000000003 196
-10.3203 7.5273 -1.3378999999999999 54
-39.5625 28.8594 3.9961 1
-12.5078 9.125 -1.2607 214
-42.9062 31.3125 5.578099999999999 118
-15.351600000000001 11.1953 -1.1025 216
-42.2812 30.8281 6.7265999999999995 55
-19.8438 14.468800000000002 -0.8554999999999999 1
-44.4375 32.4062 8.3828 110
-46.5 33.9062 10.1406 72
-6.7109000000000005 4.9297 -1.4609 131
-42.7812 31.4375 0.6201 144
-7.640599999999999 5.613300000000001 -1.4394999999999998 70
-42.75 31.4062 1.8506 76
-8.8281 6.484400000000001 -1.4033000000000002 135
-39.2812 28.8594 2.8339999999999996 0
-10.398399999999999 7.640599999999999 -1.3516 244
-39.2812 28.8594 3.9785000000000004 204
-12.476600000000001 9.1641 -1.2607 53
-42.9375 31.5312 5.5938 124
-15.289100000000001 11.226600000000001 -1.1006 114
-42.25 31.0469 6.738300000000001 163
-19.8438 14.5781 -0.8579000000000001 49
-30.3438 22.2969 -0.4395 84
-46.5 34.1562 10.1641 133
-6.6875 4.9492 -1.46 134
-42.8125 31.6719 0.6221 138
-7.6172 5.6328 -1.4385 174
-42.7188 31.6094 1.8544999999999998 254
-8.8125 6.519500000000001 -1.4043 213
-39.2812 29.0625 2.8398000000000003 9
-10.375 7.671900000000001 -1.3516 101
-38.8438 28.7344 3.9433999999999996 115
-12.4297 9.1953 -1.2588 241
-42.9062 31.75 5.605499999999999 115
-15.2578 11.281199999999998 -1.1016 185
-42.2812 31.2812 6.761699999999999 16
-19.7969 14.648399999999999 -0.8584 228
-30.1875 22.3281 -0.4382 120
-46.5 34.4062 10.1875 46
-6.675800000000001 4.9766 -1.4609 167
-42.75 31.8594 0.6225999999999999 0
-7.5898 5.6562 -1.4375 0
-42.75 31.8594 1.8594 136
-8.7812 6.542999999999999 -1.4033000000000002 55
-42.7188 31.8438 3.0976999999999997 203
-10.3594 7.7227 -1.3535 61
-42.75 31.875 4.3516 127
-12.3672 9.2188 -1.2559 102
-42.7188 31.8438 5.5977 41
-15.2031 11.3281 -1.1006 96
-42.3125 31.5312 6.7812 45
-19.6562 14.648399999999999 -0.8540000000000001 196
-30.0 22.3594 -0.4368 36
-46.5 34.6562 10.2188 140
-6.6484000000000005 4.9922 -1.4580000000000002 255
-42.75 32.0938 0.6245 213
-7.5859000000000005 5.6953 -1.4404 149
-42.6875 32.0625 1.8622999999999998 104
-8.75 6.5664 -1.4013999999999998 92
-42.7188 32.0625 3.1055 223
-10.335899999999999 7.7578 -1.3535 137
-42.75 32.0938 4.3633 168
-12.3125 9.2422 -1.2539 53
-42.7188 32.0938 5.613300000000001 186
-15.125 11.3594 -1.0977 237
-42.3438 31.7969 6.8047 62
-19.5781 14.7031 -0.8534999999999999 146
-46.5 34.9062 10.2422 199
-6.6211 5.0078 -1.4561000000000002 225
-7.5898 5.738300000000001 -1.4443000000000001 157
-42.6875 32.2812 1.8681999999999999 225
-8.7266 6.6015999999999995 -1.4022999999999999 247
-42.7188 32.3125 3.1132999999999997 131
-10.3203 7.8047 -1.3555000000000001 48
-42.7188 32.3125 4.3711 239
-12.273399999999999 9.2812 -1.2529000000000001 228
-42.7188 32.3125 5.625 142
-15.085899999999999 11.406199999999998 -1.0977 127
-42.3438 32.0 6.8203 93
-19.5312 14.773399999999999 -0.8534999999999999 59
-29.625 22.4062 -0.4336 124
-46.5312 35.1875 10.273399999999999 61
-6.5859000000000005 5.0195 -1.4521000000000002 187
-7.5703 5.769500000000001 -1.4453 55
-42.7188 32.5312 1.8730000000000002 150
-8.6953 6.625 -1.4013999999999998 254
-42.6875 32.5312 3.1211 70
-10.289100000000001 7.8359000000000005 -1.3544999999999998 22
-42.6875 32.5312 4.3828 189
-12.2344 9.3203 -1.2529000000000001 202
-42.7188 32.5312 5.640599999999999 199
-15.039100000000001 11.460899999999999 -1.0977 60
-42.4062 32.3125 6.855499999999999 128
-19.5156 14.8672 -0.855 200
-46.4688 35.4062 10.2969 175
-6.5625 5.0352 -1.4512 45
-7.5664 5.8047 -1.4482 66
-42.6875 32.75 1.8779 31
-8.6797 6.6602 -1.4013999999999998 195
-42.6875 32.7812 3.1289 222
-10.2344 7.855499999999999 -1.3516 146
-31.2812 24.0 3.2168 38
-12.1875 9.3516 -1.251 196
-42.6875 32.75 5.6523 134
-14.9844 11.5 -1.0967 230
-42.375 32.5 6.863300000000001 199
-19.3906 14.875 -0.8515999999999999 28
-46.5312 35.7188 10.335899999999999 231
-6.5547 5.0664 -1.4541 110
-7.5352 5.824199999999999 -1.4453 13
-42.6562 32.9688 1.8799000000000001 224
-8.6484 6.6836 -1.4003999999999999 24
-10.2188 7.8984000000000005 -1.3525 37
-31.2188 24.125 3.2188 222
-12.1328 9.375 -1.249 215
-42.6875 33.0 5.6640999999999995 1
-14.898399999999999 11.5156 -1.0928 73
-42.4375 32.7812 6.890599999999999 92
-19.3438 14.9531 -0.8521 82
-6.5352 5.0859 -1.4521000000000002 25
-7.5039 5.8438 -1.4434 231
-42.6562 33.2188 1.8866999999999998 90
-8.625 6.7148 -1.4003999999999999 246
-10.2109 7.9453 -1.3555000000000001 108
-30.3594 23.6406 3.1387 65
-12.0625 9.3906 -1.2451 160
-42.875 33.375 5.703099999999999 2
-14.8906 11.585899999999999 -1.0947 78
-19.2969 15.023399999999999 -0.8521 224
-6.5 5.0977 -1.4491999999999998 102
-7.480499999999999 5.8672 -1.4434 183
-8.6094 6.75 -1.4013999999999998 140
-31.3438 24.5781 2.3145 119
-10.1562 7.9609000000000005 -1.3516 173
-29.7188 23.3125 3.082 45
