# .PCD v0.7 - Point Cloud Data file format
VERSION 0.7
FIELDS x y z intensity
SIZE 4 4 4 4
TYPE F F F F
COUNT 1 1 1 1
WIDTH 1433
HEIGHT 1
VIEWPOINT 0 0 0 1 0 0 0
POINTS 1433
DATA ascii
4.3555 6.515599999999999 -1.374 98
18.1875 27.2188 0.3818 211
4.9297 7.375 -1.3466999999999998 226
18.1719 27.1875 1.1396 112
5.671900000000001 8.4844 -1.3075999999999999 224
18.1719 27.1875 1.9003999999999999 74
6.6484000000000005 9.9453 -1.2529000000000001 24
8.125 12.148399999999999 -1.1904000000000001 253
15.281199999999998 22.8594 2.8848000000000003 188
10.460899999999999 15.648399999999999 -1.0928 55
14.539100000000001 21.75 3.3594 41
15.8125 23.6562 -0.9917 180
14.4453 21.6094 3.957 181
15.7578 23.5781 -0.3306 245
14.4297 21.5781 4.5703 88
4.375 6.5 -1.374 141
18.3125 27.2031 0.3826 154
4.9609 7.363300000000001 -1.3477000000000001 218
18.2656 27.125 1.1406 45
5.703099999999999 8.4688 -1.3075999999999999 162
18.2812 27.1406 1.9013999999999998 197
6.707000000000001 9.9609 -1.2578 6
8.1562 12.1172 -1.1895 172
15.398399999999999 22.8594 2.8926 255
10.5156 15.6094 -1.0928 228
14.585899999999999 21.6562 3.3535000000000004 140
15.8672 23.5625 -0.9902 60
14.4922 21.5156 3.9492000000000003 190
15.8281 23.5 -0.3306 121
14.6875 21.8125 4.6289 159
4.4102 6.5039 -1.3779 105
4.9883 7.3515999999999995 -1.3477000000000001 85
18.4375 27.1875 1.1455 74
5.730499999999999 8.4453 -1.3075999999999999 198
18.4062 27.1406 1.9053 233
6.7461 9.9453 -1.2588 206
8.2031 12.093800000000002 -1.1904000000000001 89
15.5156 22.875 2.9004000000000003 219
10.5703 15.585899999999999 -1.0928 128
14.648399999999999 21.5938 3.3516000000000004 58
15.968800000000002 23.5469 -0.9917 238
15.0625 22.2031 4.0859 23
15.906199999999998 23.4531 -0.33030000000000004 209
14.8125 21.8438 4.6445 9
4.4219 6.4727 -1.375 224
5.0234 7.3515999999999995 -1.3516 150
18.5625 27.1562 1.1475 105
5.7578 8.4297 -1.3075999999999999 175
18.5469 27.1562 1.9111000000000002 82
6.792999999999999 9.9453 -1.2617 232
8.25 12.0781 -1.1914 47
15.6328 22.8906 2.9082 255
10.625 15.5547 -1.0928 160
14.781199999999998 21.6406 3.3651999999999997 138
16.1562 23.6562 -0.9984999999999999 33
15.125 22.1406 4.082 221
14.843800000000002 21.7344 4.6328 71
4.4531 6.4648 -1.3769999999999998 72
5.0508 7.3359000000000005 -1.3516 71
18.7031 27.1719 1.1504 191
5.792999999999999 8.4141 -1.3086000000000002 154
18.6875 27.1406 1.915 254
6.8398 9.9375 -1.2627 68
8.3203 12.085899999999999 -1.1953 32
15.8047 22.9531 2.9238 163
10.718800000000002 15.5703 -1.0967 5
14.9375 21.6875 3.3827999999999996 98
14.773399999999999 21.4531 3.9648000000000003 100
15.0547 21.8594 4.6719 9
4.4727 6.449199999999999 -1.376 146
5.0742 7.3125 -1.3506 19
22.5625 32.5312 1.3809 221
5.832000000000001 8.4062 -1.3105000000000002 89
18.8594 27.1875 1.9228999999999998 191
6.875 9.9062 -1.2627 247
8.3828 12.085899999999999 -1.1973 214
15.8672 22.875 2.9199 169
10.781199999999998 15.539100000000001 -1.0977 212
17.4375 25.1406 3.9297000000000004 127
16.8125 24.2344 -1.0283 44
14.843800000000002 21.4062 3.9648000000000003 61
19.0312 27.4375 -0.3896 112
15.1406 21.8125 4.6758 89
4.5039 6.4414 -1.3788999999999998 0
5.1016 7.300800000000001 -1.3516 117
22.5312 32.2188 1.3711000000000002 31
5.8672 8.3984 -1.3115 112
18.9844 27.1562 1.9247999999999998 27
6.917999999999999 9.8984 -1.2646 83
8.4141 12.031199999999998 -1.1953 113
15.9922 22.875 2.9297000000000004 246
10.8672 15.5547 -1.1016 168
17.5312 25.0938 3.9316000000000004 118
16.7969 24.0312 -1.0225 192
14.8828 21.2969 3.9551 122
19.1562 27.4062 -0.3901 135
15.1406 21.6562 4.6523 61
4.5312 6.4336 -1.3799000000000001 13
5.144500000000001 7.3047 -1.3555000000000001 201
22.5156 31.9844 1.3643 145
5.894500000000001 8.3672 -1.3115 6
19.0625 27.0781 1.9238 119
6.9648 9.8906 -1.2666 112
16.625 23.625 2.3555 175
8.4688 12.023399999999999 -1.1973 164
10.9297 15.5156 -1.1016 232
18.0 25.5781 4.0195 50
16.8281 23.9062 -1.0186 254
14.976600000000001 21.2656 3.9589999999999996 55
19.3125 27.4375 -0.3914 156
15.7578 22.3906 4.8203 229
4.5547 6.417999999999999 -1.3809 146
5.1640999999999995 7.2812 -1.3555000000000001 230
17.2656 24.3438 1.04 189
5.9297 8.3594 -1.3125 74
19.1094 26.9375 1.9188999999999998 135
7.011699999999999 9.8828 -1.2695 22
16.6875 23.5312 2.3535 54
8.5312 12.031199999999998 -1.2012 161
18.25 25.7188 3.3105 63
11.0156 15.523399999999999 -1.1045 67
18.125 25.5469 4.0234 144
16.875 23.7812 -1.0166 147
15.414100000000001 21.7344 4.0547 109
19.4531 27.4375 -0.3923 170
15.460899999999999 21.7969 4.707 164
4.5742 6.4023 -1.3799000000000001 56
5.203099999999999 7.2812 -1.3584 66
16.9688 23.75 1.0176 119
5.9648 8.3516 -1.3144999999999998 190
16.875 23.6094 1.6855000000000002 197
7.050800000000001 9.8672 -1.2705 32
16.7812 23.4844 2.3535 66
8.5781 12.0078 -1.2012 194
18.3125 25.625 3.3066000000000004 166
11.0703 15.4922 -1.1055 29
18.2031 25.4844 4.0234 152
16.9375 23.7031 -1.0156 254
15.3281 21.4375 4.0117 244
19.6094 27.4375 -0.3933 77
15.4375 21.5938 4.6719 43
4.5977 6.394500000000001 -1.3818000000000001 201
17.2656 24.0 0.3447 107
5.230499999999999 7.269500000000001 -1.3594 115
17.0156 23.6562 1.0166 70
6.0 8.3438 -1.3163999999999998 51
16.9375 23.5469 1.6855000000000002 151
7.082000000000001 9.8438 -1.2695 123
17.6875 24.5938 2.4707 105
8.6406 12.0078 -1.2051 205
17.875 24.8438 3.2129000000000003 24
11.125 15.460899999999999 -1.1055 236
17.0 23.625 3.7382999999999997 237
17.0 23.625 -1.0146 166
15.156199999999998 21.0781 3.9512 51
17.2812 24.0312 -0.3452 19
15.5 21.5469 4.6719 131
4.625 6.386699999999999 -1.3828 219
17.2969 23.8906 0.344 194
5.2461 7.2422 -1.3574000000000002 91
17.1406 23.6562 1.0186 178
6.0390999999999995 8.3359 -1.3184 20
17.0469 23.5156 1.6875 208
7.1172 9.8281 -1.2705 41
19.4844 26.8906 2.7089999999999996 44
8.6875 11.9844 -1.2051 32
17.9062 24.7344 3.2051 117
11.2031 15.468800000000002 -1.1084 26
15.8906 21.9375 3.4785000000000004 25
17.0625 23.5469 -1.0137 112
15.210899999999999 21.0 3.9473000000000003 209
17.3594 23.9531 -0.345 118
15.664100000000001 21.625 4.6992 162
4.6562 6.3789 -1.3857 181
17.4219 23.8438 0.34450000000000003 32
5.2890999999999995 7.2422 -1.3613 150
19.8281 27.1562 1.1729 245
6.074199999999999 8.3125 -1.3193000000000001 113
19.7969 27.1094 1.9502000000000002 100
7.175800000000001 9.8281 -1.2744 158
19.6406 26.8906 2.7168 90
8.7344 11.960899999999999 -1.2061 24
18.0938 24.7812 3.2207 217
11.2969 15.476600000000001 -1.1123 175
15.968800000000002 21.8594 3.4766000000000004 19
17.1719 23.5 -1.0146 9
15.3047 20.9531 3.9492000000000003 188
17.4531 23.9062 -0.3452 21
15.7344 21.5469 4.6953 184
4.6797 6.363300000000001 -1.3857 157
5.328099999999999 7.2422 -1.3643 222
19.9531 27.125 1.1738 103
6.105499999999999 8.3047 -1.3203 251
19.9531 27.125 1.9561000000000002 149
7.2148 9.8047 -1.2754 138
8.7891 11.9453 -1.208 10
11.3203 15.3828 -1.1084 85
16.0938 21.875 3.4863 97
17.2656 23.4688 -1.0156 85
15.3906 20.9219 3.9531 196
20.0156 27.2188 -0.39399999999999996 25
15.6953 21.3281 4.6641 130
4.7031 6.3477 -1.3857 110
5.359400000000001 7.230499999999999 -1.3662 38
20.0938 27.1094 1.1768 210
6.144500000000001 8.2969 -1.3222999999999998 87
20.0781 27.0938 1.959 184
7.25 9.7812 -1.2754 158
19.9219 26.875 2.7285000000000004 82
8.8438 11.9375 -1.21 19
16.75 22.6094 2.9512 17
11.3906 15.375 -1.1104 25
16.2031 21.875 3.4961 127
17.375 23.4375 -1.0176 135
16.1094 21.7344 4.1211 33
20.1406 27.1719 -0.3948 244
15.601600000000001 21.0469 4.6133 204
4.7305 6.3359000000000005 -1.3866999999999998 142
5.386699999999999 7.2188 -1.3672 207
20.2344 27.0938 1.1787 247
6.1836 8.2812 -1.3241999999999998 73
20.2188 27.0781 1.9638999999999998 230
7.3086 9.7891 -1.2793 140
20.0312 26.8438 2.7324 188
8.8906 11.914100000000001 -1.2109 39
16.8125 22.5312 2.9492000000000003 121
11.4453 15.3281 -1.1104 185
16.25 21.7656 3.4882999999999997 80
17.5 23.4531 -1.0205 26
15.8672 21.25 4.0391 71
20.2812 27.1875 -0.3958 28
15.664100000000001 20.9844 4.6094 123
4.7695 6.3477 -1.3925999999999998 20
20.4844 27.2656 0.3979 112
5.4023 7.1914 -1.3652000000000002 133
20.4688 27.25 1.1885 240
6.2227 8.2812 -1.3271000000000002 98
20.3906 27.125 1.9716999999999998 192
7.3398 9.7656 -1.2793 242
8.9531 11.9219 -1.2139 250
16.8594 22.4375 2.9452999999999996 228
11.5156 15.3203 -1.1123 15
19.1094 25.4375 4.0859 231
17.625 23.4531 -1.0225 232
15.843800000000002 21.0938 4.0156 247
20.4219 27.1875 -0.3967 186
15.710899999999999 20.9062 4.6055 135
4.7969 6.3359000000000005 -1.3936000000000002 229
20.625 27.25 0.3987 226
5.4414 7.1914 -1.3681999999999999 48
20.625 27.25 1.1914 226
6.2461 8.2578 -1.3262 37
20.5312 27.1406 1.9775 186
7.386699999999999 9.7578 -1.2822 145
20.3438 26.875 2.75 183
8.9922 11.8828 -1.2139 146
16.5469 21.875 2.8789 119
11.5703 15.2969 -1.1133 224
15.906199999999998 21.0312 3.3867000000000003 11
17.8125 23.5312 -1.0283 172
15.8672 20.9688 4.0039 0
20.5625 27.1719 -0.3975 250
15.7969 20.875 4.6094 165
4.8125 6.3086 -1.3916 187
5.488300000000001 7.1953 -1.374 114
20.7812 27.2344 1.1943000000000001 67
6.2773 8.2266 -1.3262 245
20.6875 27.1094 1.9813999999999998 130
7.4414 9.75 -1.2841999999999998 212
20.4844 26.8594 2.7558999999999996 112
9.0703 11.8828 -1.2178 208
16.5 21.6406 2.8555 241
11.6172 15.226600000000001 -1.1113 24
15.960899999999999 20.9219 3.3789 162
15.9844 20.9531 4.0117 15
20.7344 27.1719 -0.3987 14
15.968800000000002 20.9375 4.6367 85
4.8398 6.296900000000001 -1.3936000000000002 155
5.515599999999999 7.171900000000001 -1.3730000000000002 119
20.9375 27.25 1.1982 12
6.328099999999999 8.2344 -1.3300999999999998 19
20.8125 27.0781 1.9853999999999998 118
7.4727 9.7188 -1.2841999999999998 192
20.6875 26.9062 2.7695 85
9.125 11.8672 -1.2187999999999999 25
16.6094 21.5938 2.8594 137
11.710899999999999 15.2422 -1.1152 131
16.0312 20.8438 3.377 47
16.0312 20.8594 4.0039 20
20.8594 27.1406 -0.3994 127
16.1719 21.0469 4.6719 199
4.8711 6.296900000000001 -1.3965 199
21.1094 27.2812 0.4023 4
5.5273 7.140599999999999 -1.3711000000000002 37
21.0625 27.2031 1.1992 127
6.355499999999999 8.2109 -1.3300999999999998 119
20.9688 27.0938 1.9912 93
7.519500000000001 9.7109 -1.2861000000000002 173
9.1797 11.8594 -1.2207 175
16.7031 21.5781 2.8632999999999997 96
11.7422 15.1719 -1.1143 8
16.1094 20.8281 3.3808999999999996 199
16.1719 20.8906 4.0234 22
21.0 27.1406 -0.4004 12
16.2031 20.9375 4.6602 99
4.9023 6.2890999999999995 -1.3984 39
5.5625 7.136699999999999 -1.3730000000000002 103
21.2188 27.2188 1.2031 211
6.386699999999999 8.1953 -1.3311000000000002 45
21.1094 27.0781 1.9941 13
7.5625 9.7031 -1.2881 108
20.9062 26.8125 2.7733999999999996 138
9.2188 11.8281 -1.2217 183
16.8125 21.5781 2.8711 107
11.8281 15.1719 -1.1162 144
16.3438 20.9531 3.4141000000000004 74
18.4375 23.6562 -1.0459 195
16.4375 21.0781 4.0703 195
16.25 20.8438 4.6523 92
4.9258 6.2773 -1.3994 106
5.609400000000001 7.1484000000000005 -1.3788999999999998 236
21.3438 27.2031 1.2051 48
6.417999999999999 8.1797 -1.3319999999999999 23
21.2656 27.0938 2.002 133
7.613300000000001 9.7031 -1.291 14
19.4219 24.75 2.5664 204
9.2578 11.7969 -1.2207 39
17.3125 22.0625 2.9414 114
11.875 15.1328 -1.1162 91
16.7656 21.375 3.4882999999999997 208
16.4844 21.0156 4.0664 74
18.4375 23.5 -0.34840000000000004 105
16.2969 20.7656 4.6484 10
4.9492 6.265599999999999 -1.4003999999999999 252
21.5469 27.2812 0.40549999999999997 87
5.6289 7.125 -1.3779 89
21.5156 27.2344 1.21 218
6.453099999999999 8.1719 -1.334 110
21.4062 27.0938 2.0059 59
7.6523 9.6875 -1.2930000000000001 126
19.4844 24.6719 2.5645 215
9.3125 11.781199999999998 -1.2227 224
17.3594 21.9688 2.9375 39
11.960899999999999 15.1328 -1.1201 184
16.8594 21.3281 3.4922000000000004 67
20.4062 25.8281 -1.1475 189
16.5781 20.9688 4.0703 117
16.3281 20.6719 4.6406 119
4.9727 6.2461 -1.4003999999999999 187
21.6875 27.2344 0.40619999999999995 64
5.667999999999999 7.1211 -1.3818000000000001 180
21.6562 27.2031 1.2129 118
6.4961 8.1562 -1.3359 57
21.5469 27.0625 2.0098 230
7.6836 9.6562 -1.2919999999999998 103
19.5312 24.5469 2.5586 121
9.3672 11.773399999999999 -1.2256 46
17.5 22.0 2.9492000000000003 200
12.0078 15.085899999999999 -1.1191 84
16.9219 21.25 3.4901999999999997 31
16.7031 21.0 4.0859 70
16.4219 20.6406 4.6445 99
5.0 6.234400000000001 -1.4022999999999999 147
21.8281 27.2188 0.4072 136
5.6875 7.0977 -1.3799000000000001 132
21.8125 27.2031 1.2158 86
6.5390999999999995 8.1562 -1.3388999999999998 42
21.6719 27.0312 2.0137 37
7.738300000000001 9.6562 -1.2959 5
9.4141 11.7422 -1.2256 169
17.5625 21.9062 2.9473000000000003 202
12.1094 15.1094 -1.124 164
17.0469 21.2656 3.502 169
20.7344 25.8594 -1.1553 237
17.25 21.5312 4.1992 13
21.7656 27.1562 -0.406 3
16.5 20.5781 4.6445 79
5.0352 6.234400000000001 -1.4053 187
22.0156 27.25 0.4089 40
5.7188 7.078099999999999 -1.3809 54
21.9531 27.1875 1.2187999999999999 79
6.582000000000001 8.1484 -1.3418 158
21.8438 27.0469 2.0195 41
7.769500000000001 9.6172 -1.2949000000000002 106
9.4609 11.710899999999999 -1.2266 70
17.6562 21.8594 2.9492000000000003 206
12.2031 15.1094 -1.127 5
17.1094 21.1875 3.498 42
20.8906 25.8594 -1.1592 73
17.4219 21.5781 4.2227 139
21.9219 27.1406 -0.40700000000000003 122
18.2344 22.5781 5.1094 158
5.0625 6.2227 -1.4072 5
22.1406 27.2188 0.4094 17
5.75 7.0664 -1.3828 112
22.1094 27.1875 1.2217 90
6.613300000000001 8.1328 -1.3428 183
22.0 27.0312 2.0254 30
7.8203 9.6172 -1.2978999999999998 33
9.5234 11.710899999999999 -1.2295 206
17.7344 21.7969 2.9473000000000003 13
12.25 15.0625 -1.127 222
17.2188 21.1562 3.5039 229
17.5469 21.5625 4.2344 48
22.0625 27.125 -0.408 210
18.6406 22.9062 5.199199999999999 222
5.0781 6.203099999999999 -1.4062000000000001 134
22.2344 27.1562 0.4094 35
5.7773 7.0586 -1.3847999999999998 242
22.1562 27.0625 1.2197 114
6.640599999999999 8.1094 -1.3428 3
22.1094 27.0156 2.0293 78
7.8672 9.6094 -1.3008000000000002 174
9.5547 11.6719 -1.2285 182
17.75 21.6719 2.9395 173
12.2578 14.968800000000002 -1.123 5
17.4219 21.2812 3.5332 155
17.5 21.375 4.207 217
22.2031 27.1094 -0.4089 156
18.7656 22.9219 5.2148 197
5.1055 6.1914 -1.4082 17
5.8203 7.0586 -1.3887 26
22.2812 27.0312 1.2217 89
6.675800000000001 8.1016 -1.3447 28
22.2656 27.0156 2.0332 72
7.9102 9.5938 -1.3018 255
9.6172 11.664100000000001 -1.2305 125
17.875 21.6875 2.9492000000000003 236
12.2969 14.914100000000001 -1.1220999999999999 139
17.5 21.2344 3.5332 90
21.3281 25.875 -1.1699 170
17.5938 21.3438 4.2109 226
22.375 27.1406 -0.4104 46
18.8281 22.8438 5.2109000000000005 181
5.1289 6.175800000000001 -1.4082 133
5.8477 7.0390999999999995 -1.3887 255
22.4844 27.0781 1.2275 12
6.7265999999999995 8.1016 -1.3486000000000002 13
22.4219 27.0 2.0391 138
7.9609000000000005 9.5859 -1.3047 71
9.6797 11.656199999999998 -1.2344 140
17.9219 21.5781 2.9452999999999996 31
12.351600000000001 14.8672 -1.1220999999999999 254
17.5938 21.1875 3.5370999999999997 106
21.5 25.875 -1.1729 201
17.6719 21.2812 4.2109 76
22.5312 27.125 -0.41159999999999997 90
20.4531 24.6406 5.640599999999999 45
5.1602 6.167999999999999 -1.4102000000000001 41
5.8711 7.019500000000001 -1.3887 147
22.6094 27.0312 1.2285 35
6.761699999999999 8.0859 -1.3506 116
22.5781 27.0 2.0449 205
8.0 9.5703 -1.3066 79
20.4062 24.3906 2.5938 215
9.7109 11.6094 -1.2324 13
18.7812 22.4531 3.0702999999999996 102
12.406199999999998 14.8281 -1.1220999999999999 202
18.0 21.5156 3.6035000000000004 99
18.2969 21.875 4.3438 213
22.7031 27.1406 -0.4128 202
5.1914 6.1602 -1.4131 134
5.9102 7.011699999999999 -1.3916 131
6.796900000000001 8.0703 -1.3516 119
22.75 27.0 2.0527 253
8.0547 9.5625 -1.3096 193
20.4688 24.2969 2.5918 62
9.7656 11.585899999999999 -1.2334 241
18.7812 22.2812 3.0586 71
12.4375 14.7578 -1.1201 223
18.2188 21.625 3.6308999999999996 254
18.2656 21.6875 4.3164 95
5.2148 6.144500000000001 -1.4141 99
5.9453 7.0039 -1.3944999999999999 78
22.9688 27.0625 1.2373 174
6.832000000000001 8.0547 -1.3525 250
22.9062 26.9844 2.0566 46
8.1016 9.5469 -1.3115 123
18.9531 22.3438 2.3887 103
9.8281 11.5781 -1.2363 58
18.5 21.7969 3.0 226
12.476600000000001 14.7031 -1.1191 237
18.5156 21.8125 3.6757999999999997 211
21.8906 25.7969 -1.1797 132
18.375 21.6406 4.3203 43
5.230499999999999 6.1211 -1.4121000000000001 48
5.980499999999999 6.9961 -1.3975 145
23.0469 26.9688 1.2373 213
6.8789 8.0469 -1.3563999999999998 38
23.0625 26.9844 2.0625 96
8.1406 9.5234 -1.3125 239
19.0625 22.2969 2.3926 65
9.8672 11.539100000000001 -1.2363 20
19.6406 22.9688 3.1719 71
12.5547 14.6953 -1.1220999999999999 61
19.5781 22.9062 3.8691000000000004 179
22.1094 25.875 -1.1865 69
18.4844 21.625 4.332 115
5.269500000000001 6.1211 -1.4169999999999998 73
6.0078 6.980499999999999 -1.3975 20
23.0625 26.7812 1.2324 164
6.921900000000001 8.0391 -1.3594 71
23.2188 26.9844 2.0684 32
8.1797 9.5078 -1.3135 219
19.1406 22.25 2.3945 225
9.9219 11.531199999999998 -1.2393 196
19.9062 23.125 3.2031 157
12.6875 14.7344 -1.1289 172
20.0781 23.3281 3.9551 226
18.75 21.7812 4.375 26
20.625 23.9688 5.5703 122
5.296900000000001 6.113300000000001 -1.4188999999999998 81
6.0390999999999995 6.9688 -1.3994 43
23.2031 26.7656 1.2354 212
6.9609000000000005 8.0312 -1.3613 38
23.3906 26.9844 2.0742 21
8.2188 9.4844 -1.3144999999999998 36
19.1875 22.1406 2.3887 212
9.9688 11.5078 -1.2402 29
19.9219 23.0 3.1933999999999996 184
12.7578 14.726600000000001 -1.1309 188
20.4844 23.6406 4.0195 200
22.4219 25.875 -1.1943000000000001 176
18.7656 21.6562 4.3633 142
20.7188 23.9062 5.5703 155
5.328099999999999 6.109400000000001 -1.4219 179
6.0625 6.949199999999999 -1.3994 45
23.3438 26.75 1.2383 156
7.0 8.0234 -1.3643 125
23.5469 27.0 2.082 192
8.2656 9.4766 -1.3174000000000001 238
19.2344 22.0625 2.3867 226
10.0156 11.4844 -1.2412 130
20.0312 22.9531 3.1973000000000003 139
12.8281 14.710899999999999 -1.1328 89
18.6094 21.3281 3.6367000000000003 171
18.875 21.6406 4.3711 187
23.6406 27.1094 -0.41969999999999996 175
5.3477 6.0859000000000005 -1.4209 247
23.8281 27.1094 0.4211 249
6.0938 6.9375 -1.4013999999999998 63
23.6562 26.9219 1.249 198
7.0273 8.0 -1.3643 65
23.7188 26.9844 2.0879 24
8.3203 9.4688 -1.3203 58
19.6562 22.375 2.4297 231
10.0625 11.4531 -1.2412 248
20.1562 22.9531 3.207 242
12.8594 14.6406 -1.1309 185
18.9531 21.5781 3.6895 37
19.7031 22.4219 -1.04 117
18.9688 21.5938 4.375 157
23.7969 27.0781 -0.4207 202
5.363300000000001 6.0664 -1.4199000000000002 28
23.9062 27.0312 0.4211 12
6.140599999999999 6.9414 -1.4072 213
23.875 27.0 1.2568000000000001 178
7.0625 7.984400000000001 -1.3662 95
23.875 26.9844 2.0938 60
8.3672 9.4531 -1.3222999999999998 28
19.4844 22.0469 2.4004 239
10.1328 11.460899999999999 -1.2461 202
12.914100000000001 14.6094 -1.1318000000000001 88
19.1094 21.6094 3.7051 196
19.7812 22.3594 -1.04 137
23.9531 27.0938 -0.4219 242
5.4140999999999995 6.074199999999999 -1.4277000000000002 64
6.1562 6.9062 -1.4043 191
24.0469 26.9844 1.2607 100
7.1211 7.988300000000001 -1.3711000000000002 108
24.0312 26.9688 2.0996 113
8.4062 9.4297 -1.3232 141
19.625 22.0156 2.4043 187
10.2109 11.460899999999999 -1.25 24
19.4219 21.7812 3.0625 118
12.9844 14.5703 -1.1328 166
19.1719 21.5156 3.7012 112
19.75 22.1562 -1.0342 231
24.1406 27.0781 -0.4233 64
5.4375 6.0547 -1.4277000000000002 245
24.375 27.1562 0.42579999999999996 128
6.1836 6.890599999999999 -1.4053 148
24.2656 27.0312 1.2666 157
7.1562 7.9727 -1.3730000000000002 130
24.2031 26.9531 2.1055 196
8.4531 9.4219 -1.3262 13
19.6406 21.875 2.3984 238
10.2344 11.406199999999998 -1.248 40
13.0703 14.5625 -1.1357 46
19.7188 21.9688 -1.0293 73
24.4531 27.25 -0.42719999999999997 60
5.4727 6.0586 -1.4325999999999999 12
24.6562 27.2812 0.4292 190
6.2148 6.8789 -1.4072 142
24.5156 27.125 1.2744 131
7.1797 7.949199999999999 -1.3721 147
24.3594 26.9531 2.1113 132
8.4922 9.3984 -1.3271000000000002 214
19.75 21.8594 2.4023 220
10.2969 11.398399999999999 -1.251 61
13.1094 14.5156 -1.1357 89
19.7812 21.8906 -1.0283 173
24.6406 27.2812 -0.429 31
5.4922 6.0390999999999995 -1.4316 34
24.7969 27.2656 0.4299 165
6.2461 6.8672 -1.4082 86
24.7031 27.1562 1.2803 139
7.2227 7.9414 -1.375 195
24.5312 26.9688 2.1191 8
8.5312 9.3828 -1.3281 206
19.8281 21.7969 2.4043 178
10.3594 11.3906 -1.2539 211
13.1719 14.4844 -1.1367 248
19.7969 21.7656 -1.0254 181
24.7812 27.25 -0.4299 72
5.511699999999999 6.015599999999999 -1.4316 91
24.9688 27.25 0.43119999999999997 89
6.2773 6.8515999999999995 -1.4102000000000001 133
24.9062 27.1875 1.2861000000000002 190
7.2734000000000005 7.9375 -1.3799000000000001 145
24.6875 26.9375 2.123 172
8.5859 9.3672 -1.3311000000000002 127
19.8906 21.7031 2.4004 54
10.4219 11.375 -1.2568000000000001 119
13.226600000000001 14.4375 -1.1367 68
19.8125 21.6094 -1.0215 108
24.9844 27.2656 -0.4314 80
5.542999999999999 6.0039 -1.4336000000000002 19
25.0781 27.1875 0.4316 159
6.3086 6.8359000000000005 -1.4121000000000001 156
25.0312 27.1406 1.2871000000000001 217
7.3086 7.921900000000001 -1.3809 183
24.8594 26.9531 2.1309 99
8.6172 9.3438 -1.3311000000000002 148
10.5078 11.3828 -1.2617 186
13.2969 14.406199999999998 -1.1377 23
19.7656 21.4219 -1.0156 71
25.1094 27.2031 -0.4321 36
5.582000000000001 6.0078 -1.4385 11
6.324199999999999 6.8086 -1.4102000000000001 223
25.2031 27.1094 1.291 3
7.355499999999999 7.917999999999999 -1.3847999999999998 133
25.0469 26.9531 2.1367 191
8.6641 9.3281 -1.334 153
10.5625 11.3672 -1.2637 158
13.3594 14.3828 -1.1396 203
19.7344 21.2344 -1.0098 45
21.9219 23.5938 -0.3757 49
5.605499999999999 5.988300000000001 -1.4385 6
6.3672 6.8047 -1.415 137
7.3828 7.890599999999999 -1.3847999999999998 16
21.9375 23.4531 1.8662 113
8.7188 9.3125 -1.3359 173
10.625 11.351600000000001 -1.2666 237
13.414100000000001 14.3281 -1.1396 182
19.7656 21.125 -1.0088 149
5.6211 5.9648 -1.4385 144
25.625 27.2031 0.436 253
6.417999999999999 6.8086 -1.4199000000000002 4
25.5625 27.125 1.2997999999999998 196
7.425800000000001 7.8789 -1.3866999999999998 136
25.3906 26.9531 2.1523 150
8.7734 9.3047 -1.3397999999999999 47
10.664100000000001 11.3125 -1.2656 64
13.5 14.3281 -1.1426 149
19.875 21.0938 -1.0107 31
5.6484000000000005 5.953099999999999 -1.4394999999999998 175
25.7969 27.1875 0.4375 242
6.453099999999999 6.800800000000001 -1.4228999999999998 203
25.7188 27.0938 1.3027000000000002 243
7.4727 7.875 -1.3906 21
25.5469 26.9219 2.1562 35
8.8125 9.2812 -1.3408000000000002 60
10.6953 11.273399999999999 -1.2656 126
13.523399999999999 14.2578 -1.1406 57
20.0156 21.0938 -1.0137 10
5.671900000000001 5.9375 -1.4404 28
25.9844 27.2031 0.439 66
6.4922 6.796900000000001 -1.4268 0
25.9062 27.125 1.3086000000000002 232
7.511699999999999 7.863300000000001 -1.3936000000000002 36
25.7344 26.9531 2.166 104
8.8516 9.2656 -1.3428 77
10.7422 11.25 -1.2666 135
13.6094 14.2578 -1.1445 184
55.4375 58.0625 10.3203 178
5.707000000000001 5.9375 -1.4443000000000001 177
26.1406 27.1875 0.44020000000000004 112
6.515599999999999 6.7773 -1.4277000000000002 193
26.0312 27.0781 1.3105000000000002 201
7.546900000000001 7.8515999999999995 -1.3955000000000002 151
25.9062 26.9375 2.1719 101
8.8906 9.2422 -1.3428 197
10.789100000000001 11.226600000000001 -1.2676 239
13.664100000000001 14.218800000000002 -1.1445 50
5.734400000000001 5.921900000000001 -1.4463 143
26.2031 27.0469 0.4395 50
6.542999999999999 6.7578 -1.4277000000000002 237
26.1406 27.0 1.3105000000000002 97
7.582000000000001 7.828099999999999 -1.3965 40
26.0938 26.9375 2.1797 241
8.9375 9.2344 -1.3457 77
10.8672 11.226600000000001 -1.2725 13
13.718800000000002 14.1719 -1.1445 117
20.3906 21.0469 -1.0215 54
5.7539 5.8984000000000005 -1.4453 149
6.5977 6.765599999999999 -1.4346 4
26.25 26.9219 1.3115 54
7.6211 7.8125 -1.3984 198
26.2656 26.9375 2.1855 182
8.9922 9.2266 -1.3496000000000001 168
10.9219 11.2031 -1.2744 99
13.8047 14.156199999999998 -1.1475 12
20.5781 21.1094 -1.0273 212
5.7852 5.890599999999999 -1.4482 188
26.5 26.9844 0.4414 215
6.6172 6.738300000000001 -1.4336000000000002 121
26.4531 26.9375 1.3163999999999998 27
7.6640999999999995 7.8047 -1.4013999999999998 61
26.4375 26.9219 2.1934 220
9.0312 9.2031 -1.3506 159
10.9922 11.1875 -1.2773 230
13.851600000000001 14.1094 -1.1475 22
56.6562 57.6875 10.398399999999999 247
5.8086 5.875 -1.4491999999999998 134
6.6328 6.707000000000001 -1.4316 216
26.6562 26.9531 1.3222999999999998 92
7.7148 7.800800000000001 -1.4053 114
26.625 26.9219 2.2012 120
9.0703 9.1719 -1.3516 159
11.0469 11.1719 -1.2793 200
13.9297 14.085899999999999 -1.1494 188
20.8438 21.0781 -1.0332 126
5.8515999999999995 5.875 -1.4550999999999998 99
26.9531 27.0781 0.4458 230
6.6836 6.7109000000000005 -1.4375 180
26.8281 26.9375 1.3262 195
7.7539 7.7852 -1.4082 0
26.7812 26.8906 2.2051 181
9.125 9.1641 -1.3544999999999998 56
11.085899999999999 11.1328 -1.2803 98
14.0078 14.0625 -1.1523 2
21.1562 21.25 -0.3496 91
5.8828 5.863300000000001 -1.4569999999999999 82
27.1562 27.0938 0.44780000000000003 139
6.7109000000000005 6.6914 -1.4385 83
26.8906 26.8125 1.3241999999999998 117
7.7890999999999995 7.765599999999999 -1.4091999999999998 126
26.9844 26.9062 2.2148 2
9.1797 9.1484 -1.3574000000000002 49
11.1328 11.101600000000001 -1.2803 97
14.101600000000001 14.0625 -1.1562000000000001 70
21.2656 21.2188 -0.3503 68
5.8984000000000005 5.8438 -1.4569999999999999 2
27.375 27.1094 0.4497 89
6.7578 6.6914 -1.4434 36
26.8438 26.5781 1.3174000000000001 122
7.828099999999999 7.7539 -1.4121000000000001 90
27.1719 26.9062 2.2227 233
9.2188 9.1328 -1.3594 62
11.1953 11.085899999999999 -1.2832 226
14.148399999999999 14.0078 -1.1562000000000001 237
21.3438 21.1406 -1.0479 201
21.25 21.0312 -0.3489 53
5.9297 5.832000000000001 -1.459 217
6.796900000000001 6.6836 -1.4472999999999998 191
27.0156 26.5781 1.3213 200
7.8711 7.738300000000001 -1.4141 178
27.3281 26.875 2.2285 76
9.2578 9.1016 -1.3603999999999998 170
11.2344 11.0469 -1.2832 72
14.218800000000002 13.976600000000001 -1.1572 120
21.3438 21.0 -0.34909999999999997 242
5.957000000000001 5.8164 -1.46 73
6.824199999999999 6.6640999999999995 -1.4482 110
27.2188 26.5781 1.3262 142
7.917999999999999 7.730499999999999 -1.4180000000000001 92
27.5312 26.8906 2.2363 197
9.3047 9.0859 -1.3622999999999998 106
11.281199999999998 11.0156 -1.2841999999999998 140
14.289100000000001 13.9531 -1.1592 65
5.9922 5.8125 -1.4647999999999999 55
27.8438 27.0 0.4526 39
6.859400000000001 6.6523 -1.4502000000000002 200
27.3906 26.5625 1.3311000000000002 37
7.9609000000000005 7.7188 -1.4209 176
27.7188 26.8906 2.2441 175
9.3594 9.0781 -1.3662 114
11.335899999999999 11.0 -1.2861000000000002 189
14.351600000000001 13.9219 -1.1611 96
6.0273 5.8047 -1.4687999999999999 194
6.9102 6.6562 -1.4561000000000002 127
27.8438 26.8281 1.3486000000000002 173
7.984400000000001 7.6914 -1.4209 229
27.9062 26.8906 2.252 19
9.4062 9.0625 -1.3681999999999999 32
11.3906 10.968800000000002 -1.2881 53
14.4375 13.914100000000001 -1.1641 162
6.9453 6.6484000000000005 -1.46 201
28.1094 26.8906 1.3563999999999998 126
8.0156 7.671900000000001 -1.4219 107
28.0938 26.875 2.2598 255
9.4531 9.0469 -1.3700999999999999 22
11.4531 10.960899999999999 -1.291 151
14.476600000000001 13.851600000000001 -1.1631 206
19.9531 19.0938 -0.322 127
28.5 27.0781 0.4587 194
6.988300000000001 6.636699999999999 -1.4628999999999999 140
30.375 28.8594 1.4609 215
8.0625 7.6602 -1.4258000000000002 50
28.2812 26.8594 2.2676 40
9.4922 9.0156 -1.3711000000000002 94
11.531199999999998 10.9531 -1.2949000000000002 167
14.5625 13.835899999999999 -1.166 66
19.8438 18.8438 -0.3191 107
7.019500000000001 6.6211 -1.4647999999999999 115
28.6875 27.0625 1.375 115
8.1172 7.6562 -1.4297 219
28.4531 26.8438 2.2734 9
9.5312 8.9922 -1.3730000000000002 53
11.5625 10.906199999999998 -1.2949000000000002 64
14.6406 13.8125 -1.168 115
19.8281 18.7031 -0.3179 65
30.4219 28.5 0.4866 136
7.0703 6.625 -1.4707 105
28.8594 27.0312 1.3788999999999998 69
8.1562 7.644500000000001 -1.4325999999999999 126
28.6719 26.8594 2.2832 235
9.5859 8.9766 -1.375 36
11.6094 10.875 -1.2959 52
14.718800000000002 13.789100000000001 -1.1709 99
19.8125 18.5469 -0.3164 229
0.6128 0.5703 -0.14029999999999998 60
30.4062 28.2812 0.48460000000000003 235
7.167999999999999 6.667999999999999 -1.4863 136
29.0312 27.0 1.3828 83
8.1953 7.625 -1.4346 82
28.875 26.8594 2.291 59
9.625 8.9531 -1.3769999999999998 229
11.656199999999998 10.843800000000002 -1.2969 255
14.773399999999999 13.7422 -1.1719 180
19.7969 18.4219 -0.3154 159
0.5713 0.5278 -0.1298 111
30.3281 28.0156 0.4819 121
29.2344 27.0 1.3877000000000002 239
8.2266 7.6015999999999995 -1.4355000000000002 195
29.0469 26.8281 2.2988 143
9.6797 8.9453 -1.3809 131
27.8594 25.7344 3.0938 180
11.718800000000002 10.8203 -1.2988 201
14.843800000000002 13.710899999999999 -1.1729 232
19.7969 18.2969 -0.31420000000000003 132
0.5908 0.542 -0.13390000000000002 38
30.375 27.8594 0.48100000000000004 27
29.4688 27.0312 1.3944999999999999 162
8.2734 7.5938 -1.4394999999999998 103
29.25 26.8281 2.3066 114
9.7188 8.9141 -1.3809 156
11.7656 10.789100000000001 -1.2997999999999998 116
14.898399999999999 13.664100000000001 -1.1729 188
58.3438 53.5312 10.1797 98
19.8125 18.1719 -0.3135 51
0.5811 0.5293 -0.13119999999999998 169
30.3438 27.625 0.479 122
29.625 26.9688 1.3975 170
8.3203 7.574199999999999 -1.4413999999999998 119
29.5 26.8594 2.3184 189
9.7578 8.8828 -1.3818000000000001 178
27.7188 25.2344 3.0586 32
11.8203 10.7578 -1.3018 219
14.976600000000001 13.6406 -1.1758 131
19.8438 18.0781 -0.313 21
0.583 0.5268999999999999 -0.13119999999999998 171
30.25 27.3594 1.4228999999999998 61
8.3594 7.5586 -1.4443000000000001 42
27.8125 25.1406 2.1777 80
9.8125 8.8672 -1.3857 65
28.0312 25.3438 3.082 240
11.851600000000001 10.718800000000002 -1.3018 38
15.0703 13.625 -1.1797 226
19.8906 17.9844 -0.3125 145
0.6138 0.5513 -0.1381 190
30.2344 27.1562 1.4180000000000001 39
8.3906 7.5312 -1.4443000000000001 123
27.8438 25.0 2.1738 194
9.8516 8.8516 -1.3866999999999998 187
28.1094 25.25 3.082 245
11.9219 10.710899999999999 -1.3056999999999999 68
15.1406 13.593800000000002 -1.1816 31
20.0 17.9688 -0.3135 78
0.5806 0.5181 -0.1298 233
30.2031 26.9531 0.47240000000000004 197
0.6714 0.5991 -0.1307 182
30.125 26.875 1.4082 82
8.4297 7.519500000000001 -1.4472999999999998 223
27.625 24.6562 2.1523 235
9.8906 8.8203 -1.3887 110
28.2031 25.1719 3.0839999999999996 137
11.960899999999999 10.6719 -1.3056999999999999 9
15.1875 13.5469 -1.1816 84
20.125 17.9531 -0.3145 178
0.5767 0.5107 -0.1284 134
0.6733 0.5967 -0.1307 148
30.2969 26.8438 1.4121000000000001 115
8.4766 7.511699999999999 -1.4512 186
27.7344 24.5781 2.1543 46
9.9375 8.8047 -1.3906 65
28.0781 24.875 3.0605 50
12.031199999999998 10.656199999999998 -1.3096 241
15.25 13.5156 -1.1826 81
20.0938 17.7969 -0.313 161
0.6079 0.5347 -0.1354 12
28.9688 25.5 1.3457 170
8.5156 7.4922 -1.4531 100
27.8438 24.5 2.1543 27
9.9766 8.7734 -1.3916 125
28.0781 24.7031 3.0507999999999997 128
12.0781 10.6328 -1.3105000000000002 41
15.3281 13.4922 -1.1855 125
0.6157 0.5376 -0.1367 32
0.6777 0.5918 -0.1307 227
8.5625 7.480499999999999 -1.4569999999999999 139
27.8906 24.375 2.1523 182
10.0156 8.75 -1.3925999999999998 243
28.1875 24.625 3.0526999999999997 125
12.1094 10.5781 -1.3096 47
15.414100000000001 13.468800000000002 -1.1885 78
20.1719 17.625 -0.3125 60
0.6025 0.5225 -0.1333 211
0.6797 0.5893999999999999 -0.1307 138
29.4375 25.5312 1.3584 220
8.6016 7.457000000000001 -1.459 129
27.9531 24.25 2.1504 89
10.0625 8.7266 -1.3955000000000002 191
28.25 24.5 3.0507999999999997 5
12.148399999999999 10.539100000000001 -1.3096 87
15.476600000000001 13.4219 -1.1895 115
20.2812 17.5938 -0.313 5
0.5952000000000001 0.5127 -0.13119999999999998 30
29.4844 25.3906 1.3574000000000002 150
8.625 7.4336 -1.459 243
28.0469 24.1562 2.1504 127
10.1172 8.7109 -1.3984 220
28.8125 24.8125 3.1016000000000004 219
12.1953 10.5078 -1.3115 121
15.539100000000001 13.3828 -1.1904000000000001 127
20.3906 17.5625 -0.31370000000000003 57
0.5972 0.5107 -0.13119999999999998 67
0.6836 0.585 -0.1307 213
31.3906 26.8438 1.4404 132
8.6719 7.421900000000001 -1.4628999999999999 239
27.7969 23.7656 2.125 112
10.1562 8.6875 -1.3994 197
12.2422 10.476600000000001 -1.3125 230
15.593800000000002 13.335899999999999 -1.1914 231
20.5781 17.6094 -0.9438 161
20.5156 17.5469 -0.3147 149
0.6201 0.5264 -0.136 12
28.75 24.4219 1.3154 164
8.7109 7.3984000000000005 -1.4647999999999999 222
27.9375 23.7188 2.1289 9
10.1953 8.6641 -1.4013999999999998 215
12.2969 10.4375 -1.3135 195
15.6797 13.3125 -1.1943000000000001 157
20.6875 17.5625 -0.9458 120
20.6562 17.5469 -0.31620000000000004 81
0.604 0.5093 -0.1318 47
0.6875 0.5801 -0.1307 119
31.7969 26.8125 1.4502000000000002 90
8.75 7.3789 -1.4668 226
28.1719 23.75 2.1406 165
10.25 8.6484 -1.4053 153
29.0469 24.5 3.0995999999999997 125
12.3281 10.3906 -1.3135 85
15.75 13.281199999999998 -1.1963 197
20.8281 17.5625 -0.9497 215
20.7812 17.5312 -0.3171 209
0.6118 0.5122 -0.1333 233
29.0781 24.3594 1.3232 225
8.7891 7.355499999999999 -1.4687999999999999 52
28.5781 23.9219 2.166 110
10.3047 8.625 -1.4072 238
12.3828 10.3672 -1.3154 181
15.8125 13.2422 -1.1973 153
20.9219 17.5156 -0.3184 154
0.5952000000000001 0.4949 -0.129 85
30.5625 25.4062 1.3857 22
8.8281 7.3398 -1.4707 237
27.75 23.0781 2.0977 244
10.3594 8.6094 -1.4111000000000002 182
12.460899999999999 10.3594 -1.3193000000000001 101
28.6719 23.8438 3.9141000000000004 236
15.8906 13.210899999999999 -1.1992 130
21.0625 17.5156 -0.3193 144
0.6274000000000001 0.5181 -0.136 24
21.8281 18.0156 0.3301 107
30.6875 25.3281 1.3877000000000002 103
8.8672 7.3203 -1.4736000000000002 134
27.75 22.9062 2.0898 81
10.398399999999999 8.5859 -1.4131 199
12.531199999999998 10.343800000000002 -1.3232 133
29.0312 23.9688 3.9512 80
15.968800000000002 13.1797 -1.2021 172
21.2188 17.5156 -0.3208 250
0.5806 0.4758 -0.1249 143
21.7188 17.8125 0.3276 85
30.75 25.2031 1.3866999999999998 2
8.9219 7.3125 -1.4785 39
28.0312 22.9688 2.1055 79
10.4453 8.5625 -1.415 66
29.8281 24.4531 3.1464999999999996 128
12.6094 10.335899999999999 -1.3281 176
28.8594 23.6562 3.918 101
16.0469 13.156199999999998 -1.2051 176
21.3594 17.5 -0.322 70
0.6001 0.4888 -0.129 77
21.8438 17.7812 0.3284 231
0.6978 0.5679 -0.1307 200
8.9609 7.292999999999999 -1.4805000000000001 194
28.0938 22.875 2.1055 42
10.5 8.5469 -1.4180000000000001 60
29.1562 23.75 3.0683999999999996 26
12.664100000000001 10.3047 -1.3300999999999998 36
29.0 23.6094 3.9257999999999997 184
16.125 13.125 -1.207 183
21.5 17.5156 -0.3235 252
0.6357 0.5142 -0.1367 222
0.6997 0.5654 -0.1307 40
9.0312 7.3047 -1.4893 201
28.375 22.9375 2.1191 41
10.539100000000001 8.5234 -1.4199000000000002 62
28.4531 23.0 2.9844 169
12.6953 10.2656 -1.3300999999999998 62
29.9219 24.1875 4.0391 170
16.1875 13.093800000000002 -1.209 93
21.625 17.5 -0.3245 129
0.6284000000000001 0.5044 -0.1346 160
0.7017 0.563 -0.1307 154
29.1562 23.3906 1.3037 17
9.0781 7.2890999999999995 -1.4922 155
28.5625 22.9219 2.127 152
10.593800000000002 8.5 -1.4228999999999998 148
29.2031 23.4375 3.0547000000000004 24
12.7578 10.2422 -1.3319999999999999 137
30.0625 24.125 4.0469 97
16.2656 13.0547 -1.2109 238
21.7812 17.4844 -0.3257 207
0.6177 0.49219999999999997 -0.1318 39
0.7036 0.5605 -0.1307 68
9.1406 7.2852 -1.4980000000000002 96
28.6562 22.8281 2.1289 12
10.625 8.4688 -1.4238 146
29.4531 23.4688 3.0742000000000003 6
12.8203 10.2188 -1.335 131
16.3281 13.0078 -1.2119 235
21.9375 17.4688 -0.3271 194
0.5947 0.4705 -0.1263 103
0.7056 0.5581 -0.1307 68
29.8281 23.5938 1.3262 237
9.1953 7.2734000000000005 -1.5029 82
28.75 22.75 2.1309 79
10.656199999999998 8.4297 -1.4238 166
29.3438 23.2188 3.0526999999999997 241
12.8672 10.1797 -1.3359 111
16.4375 13.0 -1.2158 174
22.0938 17.4688 -0.3284 190
0.6426000000000001 0.5049 -0.1367 144
0.7075 0.5557 -0.1307 23
29.9062 23.5 1.3262 21
9.2422 7.261699999999999 -1.5068000000000001 200
28.8906 22.6875 2.1348 58
10.718800000000002 8.4219 -1.4277000000000002 113
29.3906 23.0938 3.0488 173
12.8906 10.125 -1.335 124
16.5156 12.968800000000002 -1.2187999999999999 83
22.2344 17.4688 -0.3298 41
0.6196 0.48340000000000005 -0.13119999999999998 21
22.7812 17.7656 0.3369 121
0.7095 0.5532 -0.1307 157
29.7812 23.2188 1.3163999999999998 119
9.2812 7.238300000000001 -1.5078 62
28.8594 22.5 2.127 238
10.781199999999998 8.4062 -1.4316 172
29.2969 22.8438 3.0312 230
12.960899999999999 10.1094 -1.3388999999999998 6
16.625 12.968800000000002 -1.2236 211
22.375 17.4531 -0.3308 234
0.5932999999999999 0.4595 -0.1249 22
22.9531 17.7812 0.3386 81
0.7114 0.5508 -0.1307 201
30.1875 23.375 1.3311000000000002 35
9.3203 7.2148 -1.5107 233
29.3438 22.7188 2.1562 230
10.8281 8.3828 -1.4346 115
28.7188 22.2344 2.9629000000000003 30
13.0625 10.1094 -1.3457 192
29.7656 23.0469 3.9512 51
16.6719 12.914100000000001 -1.2246 11
22.5312 17.4531 -0.3323 248
0.5981000000000001 0.4597 -0.12560000000000002 25
23.125 17.7656 0.34009999999999996 220
0.7134 0.5483 -0.1307 95
31.2344 24.0156 1.374 115
9.3672 7.203099999999999 -1.5146000000000002 96
29.1562 22.4062 2.1367 238
10.8672 8.3516 -1.4355000000000002 218
29.5469 22.7188 3.0410000000000004 171
13.1172 10.0859 -1.3477000000000001 102
29.75 22.875 3.9395 175
16.75 12.8828 -1.2266 90
22.6875 17.4375 -0.3337 166
0.6152000000000001 0.4697 -0.129 217
0.7153 0.5459 -0.1307 64
31.2656 23.8594 1.3721 74
9.4297 7.1953 -1.5205000000000002 149
28.4375 21.7031 2.0781 22
10.9219 8.3359 -1.4394999999999998 149
29.7812 22.7188 3.0566000000000004 100
13.1719 10.0469 -1.3496000000000001 134
29.5625 22.5625 3.9023000000000003 181
16.8438 12.851600000000001 -1.2305 114
22.8594 17.4531 -0.3354 72
0.6484000000000001 0.4915 -0.136 58
0.7168000000000001 0.5435 -0.1307 244
35.2812 26.75 1.5449000000000002 234
9.4844 7.1914 -1.5253999999999999 52
28.3906 21.5156 2.0703 144
10.968800000000002 8.3125 -1.4413999999999998 37
30.0 22.75 3.0723000000000003 182
13.210899999999999 10.0156 -1.3506 132
29.7188 22.5312 3.9160000000000004 99
16.8906 12.8125 -1.2314 94
23.0156 17.4531 -0.3367 255
0.6689 0.5034000000000001 -0.14029999999999998 127
0.6807 0.5127 -0.1234 108
9.5078 7.1562 -1.5253999999999999 175
29.7969 22.4375 2.168 50
11.0156 8.2969 -1.4443000000000001 52
13.2578 9.9844 -1.3516 12
29.6719 22.3438 3.8983999999999996 236
17.0312 12.8203 -1.2373 75
23.1562 17.4375 -0.3381 59
0.6201 0.4631 -0.129 52
0.6636 0.49579999999999996 -0.1198 200
35.75 26.7031 1.5556999999999999 13
9.4922 7.0898 -1.5186000000000002 167
30.1094 22.5 2.1836 94
11.0781 8.2734 -1.4482 132
29.875 22.3281 3.043 49
13.351600000000001 9.9766 -1.3574000000000002 135
29.875 22.3125 3.9160000000000004 88
17.0938 12.773399999999999 -1.2393 52
23.4062 17.4844 -1.0186 13
23.3125 17.4219 -0.3396 59
0.6089 0.4517 -0.1263 191
0.6557999999999999 0.4863 -0.11800000000000001 48
36.0 26.7031 1.5635 143
9.4531 7.0078 -1.5078 160
30.2969 22.4688 2.1914 12
11.125 8.25 -1.4502000000000002 192
13.3906 9.9297 -1.3584 186
30.0156 22.2656 3.9238 166
17.1875 12.7422 -1.2422 240
23.5469 17.4531 -1.0215 123
23.4844 17.4219 -0.3411 5
0.604 0.4451 -0.1249 252
0.6923999999999999 0.5103 -0.1246 184
36.25 26.6875 1.5693000000000001 241
9.4766 6.980499999999999 -1.5088 247
30.4531 22.4219 2.1973 29
11.156199999999998 8.2188 -1.4512 174
29.2344 21.5312 2.9608999999999996 56
13.4531 9.9062 -1.3613 178
30.0312 22.1094 3.9141000000000004 214
17.2188 12.6797 -1.2412 57
23.6562 17.4219 -0.3428 167
0.647 0.4731 -0.13390000000000002 90
0.6781999999999999 0.4961 -0.1216 208
36.4375 26.6562 1.5752000000000002 224
9.5078 6.953099999999999 -1.5097999999999998 39
30.1875 22.0781 2.1738 243
11.2031 8.1953 -1.4541 171
29.2031 21.3594 2.9512 41
13.5 9.875 -1.3622999999999998 108
29.9688 21.9219 3.8964999999999996 15
17.3125 12.656199999999998 -1.2451 75
23.875 17.4531 -0.345 232
0.6328 0.4592 -0.1305 169
0.6577 0.47729999999999995 -0.1174 138
36.7188 26.6562 1.5830000000000002 176
9.5234 6.9140999999999995 -1.5088 103
30.5938 22.2031 2.1973 72
11.2578 8.1641 -1.4569999999999999 217
29.3594 21.2969 2.9589999999999996 56
13.5703 9.8516 -1.3662 58
30.0781 21.8281 3.9004000000000003 116
17.4062 12.6328 -1.249 168
28.6094 20.7656 -0.41240000000000004 97
0.6215999999999999 0.44780000000000003 -0.1277 247
0.6689 0.4819 -0.1192 11
36.9688 26.6406 1.5897999999999999 195
9.5469 6.8789 -1.5088 228
31.3125 22.5625 2.2422 204
11.3125 8.1484 -1.4609 162
29.3906 21.1719 2.9551 167
13.6094 9.8047 -1.3662 179
30.3906 21.8906 3.9336 52
17.5156 12.6172 -1.2529000000000001 8
28.7656 20.7188 -0.41359999999999997 190
0.625 0.4468 -0.1281 9
0.6640999999999999 0.47509999999999997 -0.11800000000000001 250
37.3125 26.6875 1.6006 39
9.5625 6.8359000000000005 -1.5068000000000001 43
31.3438 22.4219 2.2402 12
11.3594 8.125 -1.4628999999999999 153
29.4219 21.0312 2.9512 110
13.6719 9.7734 -1.3691 224
30.5 21.8125 3.9375 186
17.5938 12.585899999999999 -1.2559 93
29.0 20.7344 -0.41600000000000004 242
0.6133 0.4355 -0.1252 94
0.6626000000000001 0.4705 -0.1174 239
37.5625 26.6719 1.6074000000000002 222
9.5859 6.8047 -1.5068000000000001 214
31.5625 22.4062 2.25 181
11.3828 8.0859 -1.4628999999999999 189
30.6562 21.7656 3.0683999999999996 195
13.7422 9.7578 -1.3730000000000002 22
30.5625 21.7031 3.9355 49
17.7031 12.5703 -1.2607 226
29.2188 20.7344 -0.4182 174
0.6313 0.4446 -0.1288 243
8.4062 5.921900000000001 -1.5615 229
37.7812 26.6094 1.6113 211
9.6094 6.769500000000001 -1.5068000000000001 236
31.7188 22.3438 2.2559 217
11.4531 8.0703 -1.4678 147
30.9531 21.7969 3.0879000000000003 118
13.8047 9.7266 -1.376 212
17.7812 12.523399999999999 -1.2627 154
29.4219 20.7344 -0.4202 0
0.6455 0.4514 -0.1315 242
8.3359 5.828099999999999 -1.5449000000000002 108
38.0938 26.625 1.6211000000000002 43
9.6172 6.7265999999999995 -1.5038999999999998 173
31.7656 22.2031 2.252 12
11.5078 8.0469 -1.4707 214
31.2031 21.8125 3.1055 44
13.8594 9.6875 -1.3779 4
17.9062 12.5156 -1.2686 86
29.6719 20.75 -0.4226 225
0.644 0.447 -0.1309 55
8.3203 5.7773 -1.5381 35
38.3438 26.625 1.6279 76
9.6406 6.6914 -1.5038999999999998 21
43.2812 30.0469 3.0645 96
11.539100000000001 8.0078 -1.4716999999999998 49
31.3594 21.7656 3.1151999999999997 11
13.906199999999998 9.6562 -1.3788999999999998 245
18.0 12.5 -1.2725 239
29.9219 20.7656 -0.425 177
0.665 0.4583 -0.135 25
8.3203 5.734400000000001 -1.5341999999999998 239
38.5938 26.6094 1.6347999999999998 75
9.6562 6.6562 -1.5029 126
43.3125 29.8438 3.0566000000000004 201
11.585899999999999 7.984400000000001 -1.4736000000000002 94
13.9844 9.6406 -1.3838 172
18.0469 12.4453 -1.2734 117
30.1094 20.75 -0.4268 138
7.609400000000001 5.207000000000001 -1.6181999999999999 156
8.3125 5.6875 -1.5303 165
38.9375 26.6406 1.6455000000000002 167
9.6953 6.6328 -1.5059 56
43.3125 29.625 3.0507999999999997 227
11.6328 7.957000000000001 -1.4766 159
14.023399999999999 9.5938 -1.3847999999999998 250
18.1562 12.4219 -1.2773 21
7.6211 5.175800000000001 -1.6172 134
8.3125 5.6484000000000005 -1.5263999999999998 72
39.1875 26.625 1.6522999999999999 2
9.7188 6.6015999999999995 -1.5059 247
43.25 29.3906 3.0391000000000004 1
11.6875 7.9375 -1.4805000000000001 117
14.085899999999999 9.5703 -1.3877000000000002 246
18.25 12.398399999999999 -1.2812000000000001 225
31.5938 21.4531 -0.4456 40
7.6484000000000005 5.1562 -1.6191 68
39.5312 26.6406 0.5566 159
8.3203 5.605499999999999 -1.5234 9
9.7344 6.5586 -1.5038999999999998 95
43.2812 29.1719 3.0332 15
11.7344 7.9102 -1.4824000000000002 86
14.156199999999998 9.5391 -1.3906 93
18.3594 12.375 -1.2861000000000002 116
31.5781 21.2812 -0.4446 116
7.6797 5.136699999999999 -1.6221 113
8.3516 5.5898 -1.5263999999999998 239
39.7812 26.625 1.6699000000000002 41
9.7578 6.5273 -1.5049000000000001 233
43.2812 28.9531 3.0273000000000003 238
11.781199999999998 7.8828 -1.4853999999999998 26
14.226600000000001 9.5156 -1.3944999999999999 35
18.3906 12.2969 -1.2841999999999998 207
31.5938 21.1406 -0.4436 170
7.707000000000001 5.1172 -1.624 224
8.3438 5.5390999999999995 -1.5205000000000002 147
40.0625 26.5938 1.6768 27
9.7969 6.5 -1.5068000000000001 222
43.2812 28.7344 3.0195 108
11.843800000000002 7.859400000000001 -1.4893 56
14.2969 9.4922 -1.3984 112
18.5 12.281199999999998 -1.29 221
31.625 20.9844 -0.4429 176
7.7422 5.1016 -1.6279 254
8.3672 5.515599999999999 -1.5225 157
40.375 26.5938 1.6865 180
9.8203 6.4727 -1.5078 133
43.25 28.5 3.0117000000000003 95
11.906199999999998 7.8438 -1.4941 56
14.351600000000001 9.4609 -1.4003999999999999 153
18.625 12.273399999999999 -1.2949000000000002 54
31.6094 20.8281 -0.44189999999999996 42
7.792999999999999 5.0938 -1.6338 222
8.375 5.4765999999999995 -1.5194999999999999 25
40.6875 26.5938 1.6953 177
9.8438 6.4336 -1.5068000000000001 129
43.25 28.2812 3.0039 54
11.164100000000001 7.296900000000001 -1.3975 235
14.4219 9.4297 -1.4043 2
18.7344 12.25 -1.2997999999999998 70
31.6562 20.7031 -0.4414 242
7.828099999999999 5.0781 -1.6377000000000002 133
8.4062 5.449199999999999 -1.5205000000000002 6
9.8594 6.394500000000001 -1.5059 79
43.25 28.0469 2.9961 197
11.1719 7.2461 -1.3955000000000002 231
14.5 9.4062 -1.4082 236
18.8438 12.226600000000001 -1.3047 171
31.7188 20.5781 -0.4414 224
7.855499999999999 5.0547 -1.6396000000000002 80
8.4062 5.4102 -1.5175999999999998 156
41.25 26.5625 1.7119 178
9.8828 6.359400000000001 -1.5059 178
43.2188 27.8281 2.9882999999999997 155
11.210899999999999 7.2148 -1.3965 180
14.5469 9.3594 -1.4091999999999998 107
18.875 12.156199999999998 -1.3037 243
31.8438 20.5 -0.44189999999999996 248
7.863300000000001 5.0234 -1.6377000000000002 211
8.4375 5.386699999999999 -1.5194999999999999 125
9.9062 6.328099999999999 -1.5068000000000001 135
43.2188 27.6094 2.9824 144
11.2578 7.1875 -1.3994 13
14.625 9.3438 -1.4141 120
18.9531 12.1094 -1.3066 98
32.0312 20.4688 -0.4436 73
7.8672 4.9883 -1.6347999999999998 163
8.4297 5.3438 -1.5156 58
9.9375 6.300800000000001 -1.5078 192
43.2188 27.4062 2.9745999999999997 255
11.281199999999998 7.1562 -1.3994 18
14.6953 9.3203 -1.4180000000000001 19
19.0469 12.0781 -1.3096 180
32.25 20.4531 -0.4458 233
7.8672 4.9531 -1.6318000000000001 11
8.4531 5.3203 -1.5156 8
9.9531 6.269500000000001 -1.5078 119
43.2188 27.2031 2.9688 230
11.3281 7.1328 -1.4022999999999999 16
14.7578 9.2891 -1.4209 137
19.1719 12.0625 -1.3154 66
32.5 20.4531 -0.44799999999999995 177
7.8515999999999995 4.9062 -1.625 175
8.4766 5.292999999999999 -1.5175999999999998 209
9.9688 6.2227 -1.5059 62
43.25 27.0156 2.9629000000000003 145
11.3594 7.0938 -1.4033000000000002 96
14.8203 9.2578 -1.4238 191
19.2969 12.0469 -1.3203 43
32.7188 20.4375 -0.45020000000000004 17
7.8398 4.8594 -1.6191 56
8.4844 5.2578 -1.5156 151
9.9922 6.1953 -1.5068000000000001 50
43.1875 26.7656 2.9531 133
11.398399999999999 7.0664 -1.4053 124
14.8906 9.2344 -1.4277000000000002 205
19.3594 12.0 -1.3222999999999998 200
32.9375 20.4219 -0.4524 114
7.824199999999999 4.8125 -1.6122999999999998 71
8.5234 5.2422 -1.5186000000000002 93
10.0 6.1523 -1.5049000000000001 34
43.1562 26.5469 2.9452999999999996 67
11.4297 7.0312 -1.4062000000000001 64
14.9453 9.1875 -1.4297 145
19.4844 11.9844 -1.3281 238
33.2188 20.4219 -0.4551 58
7.832000000000001 4.7773 -1.6103999999999998 213
8.5312 5.203099999999999 -1.5175999999999998 154
10.0312 6.1172 -1.5059 23
43.2812 26.4062 2.9473000000000003 143
11.4531 6.988300000000001 -1.4062000000000001 167
15.0078 9.1562 -1.4325999999999999 242
19.5625 11.9375 -1.3300999999999998 220
33.4688 20.4219 -0.4575 80
7.824199999999999 4.7344 -1.6055000000000001 194
43.9688 26.5938 0.6001 113
8.5156 5.1523 -1.5107 208
10.0547 6.082000000000001 -1.5059 77
43.6875 26.4375 2.9688 73
11.531199999999998 6.980499999999999 -1.4121000000000001 169
15.093800000000002 9.1328 -1.4375 109
19.6719 11.906199999999998 -1.335 18
33.7188 20.4062 -0.46 188
7.832000000000001 4.7031 -1.6035 121
44.3125 26.5938 0.6035 253
8.5312 5.1211 -1.5107 248
43.1562 25.9062 1.7559 200
10.0703 6.046900000000001 -1.5059 115
44.0312 26.4375 2.9863 223
11.593800000000002 6.9609000000000005 -1.4169999999999998 80
15.156199999999998 9.1016 -1.4404 190
19.7188 11.843800000000002 -1.3359 31
33.9688 20.4062 -0.46259999999999996 112
7.8125 4.6562 -1.5957 186
44.5625 26.5469 0.606 138
8.5469 5.0938 -1.5107 25
43.125 25.7031 1.751 19
10.0781 6.0078 -1.5038999999999998 130
44.3438 26.4375 3.002 34
11.601600000000001 6.9140999999999995 -1.415 125
15.226600000000001 9.0781 -1.4443000000000001 240
19.9062 11.8594 -1.3447 125
