# .PCD v0.7 - Point Cloud Data file format
VERSION 0.7
FIELDS x y z intensity
SIZE 4 4 4 4
TYPE F F F F
COUNT 1 1 1 1
WIDTH 1244
HEIGHT 1
VIEWPOINT 0 0 0 1 0 0 0
POINTS 1244
DATA ascii
9.5234 -2.6016000000000004 -1.7334 230
10.851600000000001 -2.9629000000000003 -1.7080000000000002 100
12.726600000000001 -3.4766000000000004 0.45899999999999996 253
12.5078 -3.418 -1.6621000000000001 25
12.5156 -3.4199 0.7524 28
12.664100000000001 -3.4608999999999996 -1.376 118
12.4922 -3.4141000000000004 1.0547 46
12.726600000000001 -3.4785000000000004 -1.0742 66
12.4453 -3.4004000000000003 1.3516 117
12.7422 -3.4805 -0.7656000000000001 188
12.6172 -3.4452999999999996 1.6768 8
12.7422 -3.4805 -0.4595 22
12.664100000000001 -3.4589999999999996 1.9950999999999999 228
12.710899999999999 -3.4726999999999997 -0.1532 30
12.875 -3.5176 2.3457 81
9.5156 -2.6348000000000003 -1.7334 133
10.8594 -3.0077999999999996 -1.7109 81
12.7656 -3.5370999999999997 0.46090000000000003 87
12.5078 -3.4629000000000003 -1.6631 118
12.5156 -3.4668 0.7529 255
12.648399999999999 -3.5039 -1.375 171
12.4844 -3.4589999999999996 1.0547 135
12.6797 -3.5117000000000003 -1.0713 184
12.4531 -3.4492000000000003 1.3535 171
12.6797 -3.5117000000000003 -0.7626999999999999 34
12.601600000000001 -3.4901999999999997 1.6768 135
12.75 -3.5312 -0.4604 67
12.6875 -3.5137 2.0 163
12.718800000000002 -3.5233999999999996 -0.1534 0
12.906199999999998 -3.5742000000000003 2.3535 110
9.5156 -2.6699 -1.7353999999999998 21
10.851600000000001 -3.0449 -1.7128999999999999 40
12.7422 -3.5762 0.4604 255
12.523399999999999 -3.5117000000000003 -1.6669999999999998 47
12.5156 -3.5117000000000003 0.7539 63
12.656199999999998 -3.5507999999999997 -1.3769999999999998 133
12.4844 -3.502 1.0556999999999999 228
12.7656 -3.582 -1.0791 140
12.460899999999999 -3.4961 1.3555000000000001 154
12.7656 -3.5801 -0.7686 18
12.585899999999999 -3.5293 1.6758000000000002 207
12.773399999999999 -3.5839999999999996 -0.46140000000000003 108
12.6875 -3.5586 2.002 228
12.7344 -3.5723000000000003 -0.15380000000000002 242
12.8672 -3.6094 2.3496 108
9.5 -2.6992000000000003 -1.7344 32
12.9297 -3.6738 0.1562 75
10.835899999999999 -3.0781 -1.7109 75
12.773399999999999 -3.6289 0.4619 227
12.523399999999999 -3.5566000000000004 -1.6688999999999998 53
12.523399999999999 -3.5586 0.7548999999999999 111
12.656199999999998 -3.5938 -1.3779 237
12.476600000000001 -3.5449 1.0556999999999999 17
12.7344 -3.6191000000000004 -1.0781 130
12.468800000000002 -3.5410000000000004 1.3574000000000002 130
12.7578 -3.625 -0.769 173
12.585899999999999 -3.5762 1.6777000000000002 103
12.8125 -3.6406 -0.46340000000000003 38
12.6875 -3.6055 2.0059 191
12.789100000000001 -3.6327999999999996 -0.1545 19
12.8672 -3.6562 2.3516 1
9.5234 -2.7422000000000004 -1.7402000000000002 23
12.835899999999999 -3.6952999999999996 0.15539999999999998 217
10.835899999999999 -3.1191000000000004 -1.7128999999999999 251
12.773399999999999 -3.6757999999999997 0.46240000000000003 147
12.5078 -3.5995999999999997 -1.6680000000000001 42
12.531199999999998 -3.6074 0.7559 186
12.656199999999998 -3.6426 -1.3788999999999998 35
12.476600000000001 -3.5918 1.0566 34
12.648399999999999 -3.6426 -1.0713 79
12.4531 -3.5858999999999996 1.3574000000000002 249
12.664100000000001 -3.6445 -0.7642 63
12.593800000000002 -3.627 1.6806999999999999 134
12.6875 -3.6523000000000003 -0.4592 136
12.6719 -3.6483999999999996 2.0039 49
12.718800000000002 -3.6601999999999997 -0.15380000000000002 16
12.8594 -3.7031 2.3535 118
9.5156 -2.7754000000000003 -1.7412 183
12.6875 -3.6973000000000003 0.1536 103
10.843800000000002 -3.1620999999999997 -1.7158000000000002 11
12.6719 -3.6933999999999996 0.45899999999999996 212
12.5078 -3.6445 -1.6699000000000002 89
12.523399999999999 -3.6504000000000003 0.7563 62
12.5625 -3.6620999999999997 -1.3700999999999999 255
12.468800000000002 -3.6327999999999996 1.0566 232
12.625 -3.6797000000000004 -1.0703 185
12.4453 -3.627 1.3584 85
12.6406 -3.6855 -0.7637 212
12.585899999999999 -3.6699 1.6816 32
12.6797 -3.6973000000000003 -0.4595 254
12.6875 -3.6992000000000003 2.0098 219
12.664100000000001 -3.6914 -0.1534 54
12.8203 -3.7363 2.3477 32
9.5078 -2.8105 -1.7412 150
12.648399999999999 -3.7363 0.1533 194
10.851600000000001 -3.2051 -1.7187999999999999 174
12.648399999999999 -3.7382999999999997 0.45899999999999996 119
12.5 -3.6914 -1.6709 86
12.5078 -3.6973000000000003 0.7563 98
12.5156 -3.6973000000000003 -1.3672 68
12.468800000000002 -3.6836 1.0586 150
12.523399999999999 -3.6992000000000003 -1.0635 172
12.4453 -3.6776999999999997 1.3594 205
12.523399999999999 -3.6992000000000003 -0.7568 24
12.585899999999999 -3.7188 1.6825999999999999 208
12.5703 -3.7148000000000003 -0.4561 141
12.6953 -3.75 2.0117 168
12.5781 -3.7148000000000003 -0.1525 156
12.7422 -3.7637 2.3359 173
9.5078 -2.8457 -1.7431999999999999 15
12.5703 -3.7598000000000003 0.1525 114
10.835899999999999 -3.2441000000000004 -1.7187999999999999 31
12.601600000000001 -3.7714999999999996 0.4575 241
12.5078 -3.7422000000000004 -1.6738 250
12.5156 -3.7441000000000004 0.7573000000000001 192
12.5078 -3.7441000000000004 -1.3681999999999999 103
12.4531 -3.7245999999999997 1.0576 121
12.523399999999999 -3.748 -1.0645 12
12.4453 -3.7245999999999997 1.3613 164
12.5156 -3.7441000000000004 -0.7573000000000001 169
12.5781 -3.7637 1.6825999999999999 172
12.523399999999999 -3.748 -0.4546 53
12.6797 -3.7949 2.0117 161
12.523399999999999 -3.748 -0.152 134
12.6797 -3.7949 2.3262 70
9.5156 -2.8848000000000003 -1.7461000000000002 19
12.5156 -3.793 0.1521 187
10.8203 -3.2793 -1.7178 93
12.5156 -3.793 0.4548 3
12.5078 -3.7891000000000004 -1.6747999999999998 89
12.523399999999999 -3.7949 0.7587999999999999 153
12.5156 -3.793 -1.3700999999999999 185
12.4453 -3.7714999999999996 1.0586 178
12.5156 -3.793 -1.0645 64
12.4531 -3.7754000000000003 1.3633000000000002 4
12.523399999999999 -3.7949 -0.7587999999999999 7
12.5703 -3.8105 1.6846 30
12.5156 -3.793 -0.4548 232
12.593800000000002 -3.8164 2.0 235
12.5156 -3.793 -0.152 180
12.6172 -3.8242000000000003 2.3184 249
9.5078 -2.918 -1.7471 52
12.5078 -3.8398000000000003 0.1521 187
10.8281 -3.3242000000000003 -1.7207 54
12.5078 -3.8379000000000003 0.4551 30
12.4922 -3.8339999999999996 -1.6758000000000002 217
12.5156 -3.8418 0.7593000000000001 51
12.523399999999999 -3.8438 -1.3721 40
12.4453 -3.8183999999999996 1.0595999999999999 8
12.5078 -3.8379000000000003 -1.0654000000000001 199
12.4453 -3.8183999999999996 1.3633000000000002 195
12.523399999999999 -3.8418 -0.7593000000000001 212
12.585899999999999 -3.8632999999999997 1.6885 5
12.5156 -3.8398000000000003 -0.45530000000000004 110
12.585899999999999 -3.8632999999999997 2.002 189
12.5078 -3.8398000000000003 -0.1521 166
12.6094 -3.8691000000000004 2.3184 162
9.4922 -2.9492000000000003 -1.7450999999999999 217
12.523399999999999 -3.8906 0.1525 156
10.8203 -3.3632999999999997 -1.7216999999999998 143
12.5078 -3.8867000000000003 0.4556 132
12.4844 -3.8789 -1.6768 159
12.5156 -3.8867000000000003 0.7598 229
12.523399999999999 -3.8906 -1.374 57
12.4453 -3.8651999999999997 1.0605 113
12.5078 -3.8867000000000003 -1.0664 62
12.4297 -3.8613 1.3633000000000002 110
12.5078 -3.8867000000000003 -0.7593000000000001 58
12.585899999999999 -3.9120999999999997 1.6904 163
12.523399999999999 -3.8906 -0.4561 227
12.585899999999999 -3.9101999999999997 2.0039 69
12.5 -3.8827999999999996 -0.1522 88
12.6094 -3.918 2.3203 245
9.4844 -2.9824 -1.7461000000000002 229
12.5078 -3.9336 0.1525 74
10.8203 -3.4043 -1.7236000000000002 247
12.5078 -3.9336 0.4561 123
12.4844 -3.9276999999999997 -1.6777000000000002 141
12.5078 -3.9336 0.7603 40
12.523399999999999 -3.9395 -1.375 245
12.4453 -3.9141000000000004 1.0615 62
12.5078 -3.9336 -1.0674 135
12.4375 -3.9120999999999997 1.3662 183
12.5 -3.9316000000000004 -0.7598 216
12.5781 -3.957 1.6913999999999998 95
12.531199999999998 -3.9414 -0.4568 138
12.585899999999999 -3.9589999999999996 2.0059 158
12.5156 -3.9375 -0.15259999999999999 122
12.593800000000002 -3.9608999999999996 2.3203 23
9.4922 -3.0214999999999996 -1.749 186
12.4922 -3.9785000000000004 0.1525 36
10.8281 -3.4473000000000003 -1.7256 112
12.5078 -3.9824 0.4568 100
12.5 -3.9805 -1.6825999999999999 174
12.5 -3.9805 0.7606999999999999 26
12.5078 -3.9824 -1.375 179
12.4297 -3.957 1.0615 149
12.5078 -3.9824 -1.0684 136
12.460899999999999 -3.9668 1.3700999999999999 220
12.5 -3.9805 -0.7606999999999999 67
12.5547 -3.998 1.6894999999999998 174
12.5156 -3.9863 -0.457 239
12.601600000000001 -4.0117 2.0098 40
12.5156 -3.9844 -0.1527 199
12.585899999999999 -4.0078 2.3223 163
9.4844 -3.0566000000000004 -1.75 255
12.5078 -4.0273 0.1527 239
10.8125 -3.4824 -1.7256 49
12.5078 -4.0312 0.457 33
12.5078 -4.0312 -1.6846 11
12.5156 -4.0312 0.7622 28
12.5156 -4.0352 -1.3779 26
12.4297 -4.0039 1.0635 57
12.5 -4.0273 -1.0693000000000001 136
12.468800000000002 -4.0195 1.3730000000000002 218
12.5078 -4.0273 -0.7617 235
12.5781 -4.0547 1.6943000000000001 226
12.5078 -4.0312 -0.457 238
12.585899999999999 -4.0547 2.0098 181
12.5156 -4.0352 -0.153 47
12.593800000000002 -4.0586 2.3262 185
9.4844 -3.0918 -1.7519999999999998 135
12.5078 -4.0781 0.153 222
10.8047 -3.5214999999999996 -1.7256 39
12.5078 -4.0781 0.4575 44
12.4922 -4.0742 -1.6846 71
12.5 -4.0781 0.7622 61
12.523399999999999 -4.082 -1.3799000000000001 162
12.4375 -4.0547 1.0645 219
12.4922 -4.0742 -1.0693000000000001 185
12.476600000000001 -4.0664 1.374 198
12.5078 -4.0781 -0.7626999999999999 166
12.585899999999999 -4.1055 1.6972999999999998 24
12.5156 -4.082 -0.45799999999999996 226
12.585899999999999 -4.1055 2.0117 143
12.5078 -4.0781 -0.153 36
12.585899999999999 -4.1055 2.3281 183
9.4609 -3.123 -1.75 72
12.5156 -4.1289 0.1532 39
10.8203 -3.5702999999999996 -1.7305000000000001 65
12.5078 -4.125 0.45799999999999996 212
12.4922 -4.1211 -1.6875 135
12.5 -4.125 0.7631999999999999 192
12.523399999999999 -4.1328 -1.3818000000000001 184
12.4453 -4.1055 1.0664 164
12.5 -4.125 -1.0713 242
12.4922 -4.1211 1.3779 207
12.4844 -4.1172 -0.7622 70
12.585899999999999 -4.1523 1.6991999999999998 163
12.531199999999998 -4.1328 -0.45899999999999996 123
12.585899999999999 -4.1523 2.0137 69
12.4922 -4.1211 -0.153 28
12.593800000000002 -4.1523 2.3301 161
9.4375 -3.1483999999999996 -1.7471 50
12.4922 -4.168 0.1531 177
10.8203 -3.6094 -1.7324000000000002 64
12.5078 -4.1719 0.4587 109
12.5 -4.1719 -1.6894999999999998 21
12.5 -4.1719 0.7642 234
12.5156 -4.1758 -1.3818000000000001 233
12.4375 -4.1484 1.0674 123
12.5078 -4.1719 -1.0732 190
12.531199999999998 -4.1797 1.3838 4
12.5 -4.1719 -0.7642 11
12.5781 -4.1953 1.7002000000000002 66
12.531199999999998 -4.1797 -0.4595 154
12.593800000000002 -4.2031 2.0176 115
12.5 -4.1719 -0.1532 118
12.5781 -4.1953 2.3301 89
9.4688 -3.1933999999999996 -1.7549000000000001 35
12.5 -4.2148 0.1534 210
10.7969 -3.6426 -1.7313999999999998 162
12.5078 -4.2188 0.4592 2
12.5 -4.2148 -1.6913999999999998 82
12.5 -4.2188 0.7651 110
12.5078 -4.2188 -1.3828 24
12.4219 -4.1914 1.0674 117
12.5 -4.2188 -1.0742 16
12.5781 -4.2422 1.3906 65
12.4844 -4.2109 -0.7642 190
12.5703 -4.2383 1.7012 112
12.523399999999999 -4.2227 -0.4597 137
12.585899999999999 -4.2461 2.0195 241
12.5 -4.2148 -0.1534 245
12.585899999999999 -4.2461 2.334 23
9.4766 -3.2344 -1.7578 129
12.4922 -4.2656 0.1534 155
10.8125 -3.6914 -1.7353999999999998 64
12.4922 -4.2656 0.4592 55
12.406199999999998 -4.2383 -1.6816 150
12.5 -4.2695 0.7661 189
12.4297 -4.2422 -1.376 92
12.414100000000001 -4.2383 1.0684 12
12.5156 -4.2734 -1.0762 185
12.5781 -4.2969 1.3925999999999998 67
12.5078 -4.2695 -0.7666 85
12.5703 -4.2891 1.7031 207
12.5156 -4.2734 -0.46 120
12.5781 -4.293 2.0195 69
12.5 -4.2695 -0.1536 132
12.585899999999999 -4.2969 2.3379 85
9.4219 -3.252 -1.75 76
12.5 -4.3164 0.1537 59
10.7969 -3.7285000000000004 -1.7353999999999998 56
12.4844 -4.3125 0.4595 250
12.375 -4.2734 -1.6787 4
12.5156 -4.3203 0.7676000000000001 2
12.406199999999998 -4.2812 -1.375 33
12.4375 -4.293 1.0713 188
12.3828 -4.2773 -1.0664 178
12.585899999999999 -4.3438 1.3944999999999999 190
12.4297 -4.293 -0.7626999999999999 26
12.5625 -4.3398 1.7041 201
12.5 -4.3164 -0.46 66
12.5703 -4.3398 2.0215 31
12.4922 -4.3125 -0.1537 32
12.585899999999999 -4.3477 2.3398 37
9.4141 -3.2870999999999997 -1.751 183
12.4453 -4.3477 0.1533 184
10.8125 -3.7754000000000003 -1.7393 103
12.4922 -4.3633 0.46020000000000005 40
12.4531 -4.3516 -1.6913999999999998 4
12.5 -4.3633 0.7676000000000001 8
12.406199999999998 -4.332 -1.3769999999999998 68
12.4297 -4.3398 1.0723 248
12.375 -4.3203 -1.0664 6
12.5781 -4.3906 1.3955000000000002 201
12.375 -4.3203 -0.7598 22
12.5547 -4.3828 1.7050999999999998 25
12.4219 -4.3359 -0.4575 165
12.5781 -4.3906 2.0254 67
12.406199999999998 -4.332 -0.1528 49
12.585899999999999 -4.3945 2.3438 83
12.406199999999998 -4.3789 0.153 188
12.414100000000001 -4.3828 0.45799999999999996 163
12.4219 -4.3867 0.7637 148
12.5078 -4.418 -1.3896000000000002 208
12.4297 -4.3906 1.0732 53
12.476600000000001 -4.4062 -1.0771 102
12.468800000000002 -4.4023 1.3847999999999998 223
12.398399999999999 -4.3789 -0.7626999999999999 104
12.468800000000002 -4.4023 1.6953 80
12.398399999999999 -4.3789 -0.4573 7
12.531199999999998 -4.4258 2.0195 242
12.3906 -4.375 -0.1527 236
12.5547 -4.4336 2.3398 83
12.3906 -4.4258 0.153 156
3.8379000000000003 -1.3700999999999999 -0.6147 182
12.414100000000001 -4.4336 0.4585 98
3.8438 -1.3730000000000002 -0.5195000000000001 152
12.414100000000001 -4.4336 0.7642 129
12.4219 -4.4336 1.0732 89
12.5078 -4.4648 -1.0811 83
12.4297 -4.4375 1.3828 205
12.4844 -4.457 -0.769 56
12.476600000000001 -4.4531 1.6982 65
12.5078 -4.4648 -0.4619 105
12.5078 -4.4688 2.0195 237
12.460899999999999 -4.4492 -0.15380000000000002 194
12.4922 -4.4609 2.3301 14
3.7969 -1.3700999999999999 -0.7041 67
12.414100000000001 -4.4805 0.1534 152
3.8145 -1.3769999999999998 -0.6118 115
12.4219 -4.4844 0.4595 218
12.4219 -4.4844 0.7656000000000001 27
3.873 -1.3984 -0.4282 62
12.4219 -4.4844 1.0752 255
3.832 -1.3838 -0.32909999999999995 182
12.4297 -4.4883 1.3847999999999998 197
12.460899999999999 -4.4961 1.6982 255
12.5 -4.5117 -0.46240000000000003 87
12.4844 -4.5078 2.0176 252
12.5078 -4.5156 -0.1547 224
12.5 -4.5156 2.3359 125
3.7461 -1.3672 -0.6958 206
12.5 -4.5625 0.1547 228
3.7714999999999996 -1.3769999999999998 -0.606 231
12.4844 -4.5586 0.46240000000000003 133
3.7891000000000004 -1.3828 -0.5132 124
12.5 -4.5625 0.7715000000000001 73
3.8262 -1.3965 -0.4236 95
12.4219 -4.5312 1.0762 221
12.531199999999998 -4.5742 1.3975 77
3.8476999999999997 -1.4043 -0.23559999999999998 120
12.5156 -4.5664 1.7080000000000002 85
12.5156 -4.5664 -0.46340000000000003 219
12.531199999999998 -4.5742 2.0273 77
12.5078 -4.5625 -0.1548 191
12.531199999999998 -4.5703 2.3438 180
3.6952999999999996 -1.3633000000000002 -0.687 219
12.5 -4.6094 0.1549 134
3.7285000000000004 -1.376 -0.5996 247
12.4922 -4.6094 0.4631 25
3.7363 -1.3788999999999998 -0.5068 3
12.4922 -4.6094 0.772 151
3.7733999999999996 -1.3916 -0.4182 86
12.4297 -4.5859 1.0781 22
3.8066000000000004 -1.4043 -0.3276 125
12.5703 -4.6367 1.4033000000000002 23
12.5703 -4.6367 1.7178 200
4.0234 -1.4844 -0.1479 92
12.5547 -4.6328 2.0352 84
12.4922 -4.6094 -0.1548 41
12.5703 -4.6367 2.3555 182
3.6464999999999996 -1.3594 -0.6787000000000001 138
12.5 -4.6602 0.155 76
3.6875 -1.375 -0.5938 67
12.5 -4.6602 0.46409999999999996 81
3.6973000000000003 -1.3788999999999998 -0.502 167
12.4844 -4.6562 0.7725 73
3.7285000000000004 -1.3906 -0.4138 29
12.4297 -4.6328 1.0801 130
3.7577999999999996 -1.4013999999999998 -0.324 116
12.5781 -4.6875 1.4062000000000001 251
3.7812 -1.4102000000000001 -0.2321 161
12.5547 -4.6836 1.7187999999999999 160
3.8574 -1.4385 -0.142 183
12.5625 -4.6875 2.0391 222
12.4922 -4.6602 -0.155 165
12.5625 -4.6875 2.3574 45
3.6055 -1.3584 -0.6718999999999999 24
12.4844 -4.707 0.1552 27
3.6327999999999996 -1.3691 -0.5854 203
12.5 -4.7109 0.4646 232
3.6620999999999997 -1.3799000000000001 -0.498 65
12.4844 -4.707 0.7739 233
3.6776999999999997 -1.3857 -0.40840000000000004 213
12.406199999999998 -4.6758 1.0801 228
3.7148000000000003 -1.4003999999999999 -0.3206 234
12.585899999999999 -4.7422 1.4091999999999998 247
3.7363 -1.4082 -0.2296 35
12.5547 -4.7344 1.7207 69
3.8086 -1.4355000000000002 -0.14029999999999998 36
12.585899999999999 -4.7422 2.043 28
12.4922 -4.7109 -0.1553 114
12.5625 -4.7344 2.3594 96
3.5449 -1.3506 -0.6616 113
12.4922 -4.7578 0.15539999999999998 214
3.5976999999999997 -1.3700999999999999 -0.5806 177
12.4922 -4.7578 0.4648 218
3.627 -1.3818000000000001 -0.4939 74
12.4922 -4.7578 0.7748999999999999 69
3.6406 -1.3866999999999998 -0.405 107
12.406199999999998 -4.7266 1.0811 12
3.6620999999999997 -1.3944999999999999 -0.3164 35
12.5781 -4.7891 1.4102000000000001 181
3.6952999999999996 -1.4072 -0.2273 68
12.5625 -4.7852 1.7236000000000002 179
3.7656 -1.4346 -0.1389 120
12.5781 -4.7891 2.0449 132
12.5 -4.7617 -0.1555 47
12.5625 -4.7852 2.3633 44
3.5293 -1.3584 -0.6592 222
12.4844 -4.8047 0.1555 158
3.5566000000000004 -1.3691 -0.5747 248
12.468800000000002 -4.8008 0.4648 156
3.5683999999999996 -1.3730000000000002 -0.4863 207
12.5 -4.8125 0.7764 54
3.6094 -1.3887 -0.4019 172
12.4219 -4.7812 1.083 86
3.6113 -1.3896000000000002 -0.3123 219
12.5625 -4.8359 1.4102000000000001 221
3.6660000000000004 -1.4102000000000001 -0.22579999999999997 158
12.5625 -4.8359 1.7266 2
3.7168 -1.4297 -0.13720000000000002 51
12.5625 -4.8359 2.0469 125
12.4844 -4.8047 -0.1555 6
12.5625 -4.8359 2.3672 241
3.498 -1.3584 -0.6543000000000001 189
12.5078 -4.8594 0.156 127
3.5351999999999997 -1.3730000000000002 -0.5718 248
12.476600000000001 -4.8477 0.4656 215
3.5156 -1.3652000000000002 -0.47950000000000004 0
12.4922 -4.8516 0.7768999999999999 234
3.5801 -1.3906 -0.3992 58
12.414100000000001 -4.8203 1.084 144
3.5702999999999996 -1.3866999999999998 -0.3091 55
12.5625 -4.8828 1.4121000000000001 100
3.5995999999999997 -1.3984 -0.22190000000000001 41
12.5625 -4.8828 1.7285 71
3.6660000000000004 -1.4247999999999998 -0.1356 52
12.5625 -4.8789 2.0488 129
12.476600000000001 -4.8477 -0.15560000000000002 239
12.5625 -4.8789 2.3691 37
3.4375 -1.3486000000000002 -0.6436 168
12.4922 -4.8984 0.156 38
3.4941000000000004 -1.3700999999999999 -0.5659000000000001 221
12.4844 -4.8984 0.46659999999999996 45
3.4882999999999997 -1.3681999999999999 -0.47659999999999997 83
12.4844 -4.8984 0.7773 211
3.5214999999999996 -1.3818000000000001 -0.3931 210
12.414100000000001 -4.8711 1.0859 16
3.5469 -1.3916 -0.3074 21
12.5703 -4.9297 1.415 174
3.5664 -1.3994 -0.2202 57
12.5625 -4.9258 1.7305000000000001 57
3.6660000000000004 -1.4385 -0.13570000000000002 99
12.5703 -4.9297 2.0527 219
12.4844 -4.8984 -0.1559 59
12.5547 -4.9258 2.3711 175
3.4101999999999997 -1.3535 -0.6396000000000001 83
12.468800000000002 -4.9453 0.156 79
3.4531 -1.3700999999999999 -0.5600999999999999 124
12.4844 -4.9531 0.4673 141
3.4629000000000003 -1.374 -0.4736 178
12.4844 -4.9531 0.7787999999999999 210
3.4863 -1.3838 -0.3896 56
12.414100000000001 -4.9258 1.0879 147
3.502 -1.3896000000000002 -0.304 168
12.5703 -4.9883 1.4169999999999998 152
3.5254000000000003 -1.3994 -0.218 147
12.5547 -4.9805 1.7313999999999998 184
3.6113 -1.4325999999999999 -0.13390000000000002 224
12.5625 -4.9844 2.0547 188
12.468800000000002 -4.9453 -0.156 214
12.5625 -4.9844 2.375 86
3.3887 -1.3584 -0.6367 27
12.5 -5.0078 0.1566 40
3.3926 -1.3603999999999998 -0.5508 92
12.476600000000001 -5.0 0.4675 228
3.4297000000000004 -1.375 -0.47 5
12.4922 -5.0078 0.7803 88
3.4473000000000003 -1.3818000000000001 -0.3857 74
12.406199999999998 -4.9727 1.0879 154
3.4648000000000003 -1.3887 -0.3013 201
12.5781 -5.0391 1.4188999999999998 28
3.4922000000000004 -1.3994 -0.2162 230
12.5469 -5.0273 1.7334 155
3.6074 -1.4453 -0.13390000000000002 246
12.5625 -5.0352 2.0566 176
3.8105 -1.5272999999999999 -0.0471 226
12.5703 -5.0352 2.3809 201
3.3535000000000004 -1.3574000000000002 -0.6304 126
4.332 -1.7519999999999998 0.0537 181
3.375 -1.3652000000000002 -0.5483 98
12.476600000000001 -5.0469 0.4683 102
3.3827999999999996 -1.3691 -0.46409999999999996 27
12.5 -5.0586 0.7817000000000001 129
3.418 -1.3828 -0.3831 177
12.414100000000001 -5.0234 1.0898 115
3.4199 -1.3838 -0.29760000000000003 19
12.539100000000001 -5.0742 1.4169999999999998 229
3.4531 -1.3975 -0.2141 113
12.539100000000001 -5.0742 1.7344 28
3.6016000000000004 -1.4569999999999999 -0.13390000000000002 51
12.5469 -5.0781 2.0586 157
3.7226999999999997 -1.5059 -0.0461 113
12.5703 -5.0859 2.3828 176
3.3066000000000004 -1.3506 -0.6221 179
3.3438 -1.3662 -0.5444 142
12.398399999999999 -5.0625 0.4658 81
12.414100000000001 -5.0703 0.7773 255
3.375 -1.3788999999999998 -0.3787 82
12.4219 -5.0742 1.0918 137
3.3887 -1.3838 -0.2952 170
12.4219 -5.0742 1.4062000000000001 147
3.4160000000000004 -1.3955000000000002 -0.212 41
12.4453 -5.082 1.7236000000000002 66
3.4785000000000004 -1.4209 -0.1294 13
12.4844 -5.0977 2.0488 254
3.6289 -1.4824000000000002 -0.045 201
12.5078 -5.1094 2.375 15
3.2577999999999996 -1.3457 -0.6143 27
3.3007999999999997 -1.3633000000000002 -0.5381 254
12.289100000000001 -5.0742 0.46240000000000003 6
3.3301 -1.375 -0.4578 89
12.2578 -5.0625 0.769 53
3.3438 -1.3809 -0.3757 177
12.3125 -5.0859 1.084 164
3.3594 -1.3866999999999998 -0.2932 74
12.3047 -5.082 1.3955000000000002 254
3.3672000000000004 -1.3906 -0.2094 90
12.3203 -5.0859 1.709 143
3.5 -1.4453 -0.1304 81
12.343800000000002 -5.0977 2.0293 206
3.5702999999999996 -1.4746000000000001 -0.0443 180
12.375 -5.1133 2.3535 212
3.2266000000000004 -1.3457 -0.6089 198
3.2539 -1.3574000000000002 -0.5312 92
3.2812 -1.3681999999999999 -0.4517 115
12.125 -5.0547 0.7617 44
3.3086 -1.3799000000000001 -0.3721 171
12.164100000000001 -5.0742 1.0732 4
3.3339999999999996 -1.3906 -0.2913 182
12.1797 -5.082 1.3828 55
3.3438 -1.3944999999999999 -0.20800000000000002 77
12.1875 -5.082 1.6934 128
3.4023000000000003 -1.4188999999999998 -0.127 202
12.226600000000001 -5.1016 2.0137 249
3.5254000000000003 -1.4707 -0.0438 12
12.25 -5.1094 2.334 2
3.2108999999999996 -1.3516 -0.6069 65
3.2188 -1.3544999999999998 -0.5259 117
4.3711 -1.8397999999999999 0.1638 251
3.2129000000000003 -1.3525 -0.4429 63
12.0 -5.0508 0.7548999999999999 75
3.2773000000000003 -1.3799000000000001 -0.3691 187
12.023399999999999 -5.0625 1.0615 115
3.2773000000000003 -1.3799000000000001 -0.2869 94
12.0547 -5.0742 1.3700999999999999 253
3.3086 -1.3925999999999998 -0.20620000000000002 25
12.0703 -5.0781 1.6787 64
3.3964999999999996 -1.4297 -0.127 99
12.093800000000002 -5.0938 1.9950999999999999 224
3.4589999999999996 -1.4561000000000002 -0.043 21
12.125 -5.1055 2.3125 207
3.1855 -1.3535 -0.603 242
11.914100000000001 -5.0625 0.15039999999999998 8
3.2012 -1.3603999999999998 -0.5239 223
4.293 -1.8232 0.161 99
3.2089999999999996 -1.3633000000000002 -0.44310000000000005 44
11.906199999999998 -5.0586 0.75 193
3.2324 -1.374 -0.36450000000000005 154
11.914100000000001 -5.0625 1.0537 227
3.2441000000000004 -1.3779 -0.2842 8
11.9297 -5.0664 1.3574000000000002 18
3.2733999999999996 -1.3906 -0.20420000000000002 51
11.9453 -5.0742 1.6641 147
3.3926 -1.4413999999999998 -0.127 46
11.968800000000002 -5.0859 1.9766 148
3.4160000000000004 -1.4512 -0.0425 21
12.0078 -5.1016 2.293 96
3.1483999999999996 -1.3516 -0.5967 103
11.898399999999999 -5.1094 0.1505 239
3.1719 -1.3613 -0.52 35
11.8828 -5.1016 0.4497 84
3.1699 -1.3603999999999998 -0.4382 90
11.8828 -5.1016 0.75 62
11.906199999999998 -5.1094 1.0547 255
3.2108999999999996 -1.3779 -0.2817 180
11.906199999999998 -5.1094 1.3574000000000002 162
3.2461 -1.3936000000000002 -0.2028 155
11.8828 -5.1016 1.6582 214
3.2949 -1.4141 -0.1234 152
11.8906 -5.1016 1.9658000000000002 0
3.3574 -1.4413999999999998 -0.0418 67
11.9219 -5.1172 2.2793 206
3.1035000000000004 -1.3447 -0.5889 245
11.8828 -5.1484000000000005 0.1505 99
3.1464999999999996 -1.3633000000000002 -0.5161 227
11.8906 -5.1523 0.4507 46
3.1504000000000003 -1.3652000000000002 -0.4363 40
11.8828 -5.1484000000000005 0.7509999999999999 82
3.1641000000000004 -1.3711000000000002 -0.3579 196
11.906199999999998 -5.1602 1.0566 1
3.1914 -1.3828 -0.2805 221
11.906199999999998 -5.1602 1.3594 89
3.1875 -1.3818000000000001 -0.19949999999999998 104
11.8828 -5.1484000000000005 1.6602000000000001 104
11.898399999999999 -5.1562 1.9716999999999998 185
3.3223000000000003 -1.4394999999999998 -0.0414 116
11.8906 -5.1523 2.2773 49
3.0762 -1.3457 -0.585 242
11.8828 -5.199199999999999 0.1508 16
3.1035000000000004 -1.3574000000000002 -0.5097999999999999 100
11.8906 -5.203099999999999 0.4514 45
3.1211 -1.3652000000000002 -0.4326 78
11.8906 -5.203099999999999 0.7524 23
3.1523000000000003 -1.3788999999999998 -0.35719999999999996 209
11.906199999999998 -5.207000000000001 1.0576 186
3.1699 -1.3866999999999998 -0.2791 254
11.906199999999998 -5.2109000000000005 1.3613 163
3.1719 -1.3877000000000002 -0.19870000000000002 89
11.875 -5.1953 1.6621000000000001 75
11.906199999999998 -5.207000000000001 1.9746000000000001 37
3.2832 -1.4365 -0.040999999999999995 93
11.898399999999999 -5.203099999999999 2.2832 196
3.0547000000000004 -1.3486000000000002 -0.5811 197
11.8906 -5.25 0.15109999999999998 119
3.0723000000000003 -1.3574000000000002 -0.5059 35
11.8828 -5.2461 0.4517 117
3.0957 -1.3672 -0.4299 15
11.8906 -5.2539 0.7539 53
3.123 -1.3788999999999998 -0.3542 140
11.898399999999999 -5.2539 1.0586 130
3.1132999999999997 -1.375 -0.2742 124
11.906199999999998 -5.2578 1.3633000000000002 165
3.1445 -1.3887 -0.1974 12
11.8828 -5.2461 1.665 205
3.1914 -1.4091999999999998 -0.12 48
11.8906 -5.2539 1.9756 87
3.2598000000000003 -1.4394999999999998 -0.0408 69
11.898399999999999 -5.2578 2.2871 42
3.0332 -1.3525 -0.5781000000000001 245
11.8828 -5.296900000000001 0.1512 140
3.0488 -1.3594 -0.5024000000000001 191
11.8594 -5.2890999999999995 0.4517 20
3.0566000000000004 -1.3622999999999998 -0.425 51
11.8906 -5.3047 0.7548999999999999 73
3.1035000000000004 -1.3838 -0.3525 114
11.8906 -5.300800000000001 1.0595999999999999 229
11.898399999999999 -5.3047 1.3652000000000002 105
3.1211 -1.3916 -0.1962 96
11.8828 -5.300800000000001 1.6680000000000001 194
3.1348000000000003 -1.3975 -0.11800000000000001 221
11.8906 -5.300800000000001 1.9785 114
3.2285000000000004 -1.4394999999999998 -0.0404 248
11.898399999999999 -5.3047 2.2891 58
2.9961 -1.3486000000000002 -0.5718 207
11.8906 -5.3515999999999995 0.1516 227
3.0195 -1.3594 -0.4985 227
11.8672 -5.3398 0.4526 11
3.0195 -1.3584 -0.4204 181
11.8906 -5.3515999999999995 0.7559 69
3.0645 -1.3788999999999998 -0.34840000000000004 209
11.898399999999999 -5.355499999999999 1.0625 70
11.8906 -5.3515999999999995 1.3662 229
3.082 -1.3877000000000002 -0.19399999999999998 128
11.8828 -5.3477 1.6709 126
3.1797000000000004 -1.4316 -0.12 176
11.8906 -5.3515999999999995 1.9813999999999998 117
3.1875 -1.4346 -0.04 118
11.8906 -5.3515999999999995 2.293 223
2.9648000000000003 -1.3466999999999998 -0.5669 23
11.8828 -5.3984000000000005 0.1517 141
2.9844 -1.3555000000000001 -0.49340000000000006 130
11.875 -5.394500000000001 0.4536 147
3.002 -1.3633000000000002 -0.41869999999999996 232
11.875 -5.394500000000001 0.7563 40
3.0214999999999996 -1.3721 -0.344 250
11.8906 -5.4023 1.0635 226
3.0156 -1.3700999999999999 -0.2668 213
11.898399999999999 -5.4023 1.3691 13
3.0488 -1.3847999999999998 -0.19210000000000002 16
11.8828 -5.3984000000000005 1.6738 168
3.1757999999999997 -1.4424000000000001 -0.12 39
11.8906 -5.4023 1.9844 110
3.1562 -1.4336000000000002 -0.039599999999999996 177
11.8594 -5.386699999999999 2.2891 77
2.9375 -1.3466999999999998 -0.5625 248
11.8672 -5.4414 0.1517 102
2.9608999999999996 -1.3574000000000002 -0.49 28
11.8906 -5.453099999999999 0.4551 196
2.9766000000000004 -1.3652000000000002 -0.4158 193
11.8828 -5.449199999999999 0.7583 60
2.9882999999999997 -1.3700999999999999 -0.3411 83
11.8828 -5.449199999999999 1.0645 205
3.0214999999999996 -1.3857 -0.26780000000000004 208
11.898399999999999 -5.457000000000001 1.3711000000000002 77
3.0233999999999996 -1.3866999999999998 -0.19079999999999997 140
11.875 -5.4453 1.6747999999999998 74
3.0839999999999996 -1.4141 -0.1166 238
11.898399999999999 -5.457000000000001 1.9893 240
3.1426 -1.4413999999999998 -0.039599999999999996 12
11.8828 -5.449199999999999 2.2988 17
2.9238 -1.3516 -0.5605 110
11.8906 -5.4961 0.1522 87
2.9316000000000004 -1.3563999999999998 -0.4861 196
11.875 -5.4922 0.4551 210
2.9551 -1.3662 -0.4133 205
11.8906 -5.5 0.7593000000000001 47
2.9707 -1.374 -0.3396 142
11.8828 -5.4961 1.0664 18
2.9844 -1.3809 -0.26489999999999997 246
11.898399999999999 -5.5039 1.3730000000000002 188
3.002 -1.3877000000000002 -0.18969999999999998 93
11.875 -5.4922 1.6777000000000002 116
3.0566000000000004 -1.4141 -0.1158 127
11.8828 -5.4961 1.9902000000000002 241
3.0957 -1.4316 -0.039 60
11.8906 -5.5 2.3027 241
2.8867000000000003 -1.3466999999999998 -0.5542 199
11.960899999999999 -5.578099999999999 0.1534 152
2.9120999999999997 -1.3584 -0.48340000000000005 30
11.875 -5.5390999999999995 0.4558 20
2.9219 -1.3633000000000002 -0.4092 199
11.8828 -5.542999999999999 0.7603 189
2.9433999999999996 -1.3730000000000002 -0.3367 103
11.8828 -5.546900000000001 1.0674 22
2.9452999999999996 -1.374 -0.26170000000000004 177
11.898399999999999 -5.550800000000001 1.376 240
11.875 -5.5390999999999995 1.6797 12
3.0526999999999997 -1.4238 -0.1158 162
11.8906 -5.546900000000001 1.9941 145
3.0683999999999996 -1.4316 -0.0387 235
11.898399999999999 -5.550800000000001 2.3066 75
2.8418 -1.3397999999999999 -0.5464 193
3.7168 -1.7519999999999998 0.0471 166
2.8906 -1.3622999999999998 -0.4807 116
11.8672 -5.5938 0.45649999999999996 153
2.8867000000000003 -1.3613 -0.405 216
11.8828 -5.6015999999999995 0.7617 240
2.9219 -1.3769999999999998 -0.335 82
11.8906 -5.605499999999999 1.0703 101
2.9257999999999997 -1.3799000000000001 -0.2605 224
11.8906 -5.605499999999999 1.3779 182
2.9120999999999997 -1.3730000000000002 -0.18469999999999998 198
11.875 -5.5977 1.6825999999999999 118
2.9785000000000004 -1.4033000000000002 -0.11320000000000001 170
11.8828 -5.6015999999999995 1.9971 69
3.0351999999999997 -1.4306999999999999 -0.0383 152
11.8828 -5.6015999999999995 2.3086 247
2.8125 -1.3378999999999999 -0.5415 53
3.5879000000000003 -1.7080000000000002 0.045599999999999995 241
2.8535000000000004 -1.3574000000000002 -0.4753 99
11.8828 -5.6523 0.4575 93
2.8613 -1.3613 -0.4021 93
11.8672 -5.6484000000000005 0.7622 87
2.8983999999999996 -1.3799000000000001 -0.3328 29
11.8828 -5.6562 1.0713 89
2.8964999999999996 -1.3779 -0.2583 93
11.8828 -5.6562 1.3788999999999998 29
2.9004000000000003 -1.3809 -0.18420000000000003 167
11.8594 -5.644500000000001 1.6836000000000002 17
2.9901999999999997 -1.4228999999999998 -0.11380000000000001 165
11.8906 -5.6602 2.002 32
3.0156 -1.4355000000000002 -0.0381 95
11.875 -5.6523 2.3105 183
2.7910000000000004 -1.3388999999999998 -0.5386 125
3.4355 -1.6475 0.0436 38
2.8145 -1.3496000000000001 -0.46950000000000003 92
11.875 -5.6953 0.45799999999999996 60
2.8379000000000003 -1.3613 -0.3994 131
11.875 -5.6953 0.7637 20
2.8594 -1.3711000000000002 -0.3286 130
11.8906 -5.699199999999999 1.0732 78
2.875 -1.3788999999999998 -0.2568 243
11.898399999999999 -5.703099999999999 1.3818000000000001 242
2.8964999999999996 -1.3887 -0.18420000000000003 253
11.8672 -5.6875 1.6875 135
2.9276999999999997 -1.4043 -0.1116 165
11.898399999999999 -5.703099999999999 2.0059 176
2.9901999999999997 -1.4336000000000002 -0.0379 221
11.8828 -5.6953 2.3164 206
2.7832 -1.3466999999999998 -0.5381 222
3.3887 -1.6387 0.0431 105
2.793 -1.3506 -0.46659999999999996 77
11.875 -5.7422 0.4587 210
2.8145 -1.3613 -0.3967 79
11.8828 -5.7461 0.7656000000000001 197
2.8358999999999996 -1.3721 -0.3267 140
11.8672 -5.7422 1.0732 153
2.8398000000000003 -1.3730000000000002 -0.2539 28
11.898399999999999 -5.7539 1.3847999999999998 126
2.8711 -1.3887 -0.18289999999999998 193
11.8672 -5.738300000000001 1.6904 163
2.8926 -1.3984 -0.1104 198
11.8828 -5.7461 2.0059 199
2.9726999999999997 -1.4375 -0.0377 141
11.8828 -5.75 2.3203 196
2.7598000000000003 -1.3466999999999998 -0.5342 115
3.3887 -1.6543 0.0432 141
2.7714999999999996 -1.3535 -0.4639 117
11.8672 -5.792999999999999 0.4592 229
2.7832 -1.3584 -0.39280000000000004 111
11.8828 -5.800800000000001 0.7666 2
2.8047000000000004 -1.3691 -0.3235 57
11.8828 -5.800800000000001 1.0762 168
2.8105 -1.3721 -0.25170000000000003 3
11.8906 -5.8047 1.3857 125
2.8516000000000004 -1.3916 -0.1819 197
11.8828 -5.800800000000001 1.6953 108
2.8574 -1.3955000000000002 -0.1093 47
11.8672 -5.792999999999999 2.0078 218
2.9257999999999997 -1.4287 -0.037200000000000004 76
11.8906 -5.8047 2.3262 106
2.7305 -1.3447 -0.5293 120
3.3339999999999996 -1.6416 0.0425 230
2.752 -1.3555000000000001 -0.46140000000000003 169
11.8672 -5.8477 0.46020000000000005 236
2.7461 -1.3525 -0.3882 12
11.875 -5.8477 0.7676000000000001 221
2.7832 -1.3711000000000002 -0.3215 219
11.8828 -5.8515999999999995 1.0781 75
2.7949 -1.3769999999999998 -0.2507 201
11.8828 -5.855499999999999 1.3877000000000002 138
2.8145 -1.3857 -0.17980000000000002 204
11.875 -5.8515999999999995 1.6972999999999998 218
2.8632999999999997 -1.4102000000000001 -0.1097 85
11.8828 -5.855499999999999 2.0137 187
2.8964999999999996 -1.4258000000000002 -0.0368 187
11.8828 -5.8515999999999995 2.3281 135
2.6699 -1.3271000000000002 -0.5186 168
3.2891000000000004 -1.6347999999999998 0.0421 91
2.7168 -1.3506 -0.45630000000000004 149
11.8828 -5.9062 0.46140000000000003 178
2.7344 -1.3584 -0.3872 39
11.8672 -5.8984000000000005 0.7681 150
2.7617000000000003 -1.3721 -0.3193 203
11.875 -5.9023 1.0801 195
2.7676 -1.375 -0.2487 179
11.8828 -5.9062 1.3896000000000002 210
2.7832 -1.3838 -0.1782 66
11.8672 -5.8984000000000005 1.6991999999999998 176
2.8476999999999997 -1.415 -0.1093 238
11.8906 -5.9102 2.0195 53
2.873 -1.4277000000000002 -0.0366 159
11.8672 -5.8984000000000005 2.3301 103
2.6543 -1.3300999999999998 -0.5161 28
3.2382999999999997 -1.6230000000000002 0.0414 67
2.6875 -1.3477000000000001 -0.4521 183
11.8828 -5.957000000000001 0.46240000000000003 140
2.6895 -1.3486000000000002 -0.38159999999999994 82
11.8672 -5.949199999999999 0.7695000000000001 156
2.6973000000000003 -1.3525 -0.3125 100
11.875 -5.953099999999999 1.0811 52
2.7598000000000003 -1.3838 -0.24850000000000003 199
11.8828 -5.957000000000001 1.3925999999999998 186
2.7617000000000003 -1.3847999999999998 -0.177 154
11.8594 -5.9453 1.7012 71
2.8242000000000003 -1.416 -0.10859999999999999 165
11.8906 -5.9609000000000005 2.0215 165
2.8594 -1.4336000000000002 -0.0365 241
11.8828 -5.957000000000001 2.3359 193
2.6562 -1.3428 -0.5176 215
3.1992000000000003 -1.6181999999999999 0.040999999999999995 65
2.6738 -1.3516 -0.45020000000000004 240
11.8672 -6.0 0.46259999999999996 221
2.6855 -1.3574000000000002 -0.38159999999999994 128
11.875 -6.0039 0.7715000000000001 233
2.7245999999999997 -1.3779 -0.3164 161
11.8594 -5.9961 1.082 97
2.6875 -1.3594 -0.24230000000000002 160
11.8906 -6.011699999999999 1.3955000000000002 147
2.7441000000000004 -1.3877000000000002 -0.1761 29
11.8594 -5.9961 1.7041 94
2.7637 -1.3965 -0.1063 36
11.875 -6.0039 2.0234 118
2.8379000000000003 -1.4346 -0.0363 24
11.875 -6.0039 2.3379 158
2.6523000000000003 -1.3525 -0.5176 214
3.1875 -1.625 0.0409 218
2.6719 -1.3622999999999998 -0.4509 253
11.8594 -6.046900000000001 0.4631 73
2.6562 -1.3544999999999998 -0.3779 43
11.8672 -6.050800000000001 0.7725 105
2.6992000000000003 -1.376 -0.31370000000000003 212
11.875 -6.050800000000001 1.085 189
2.6895 -1.3700999999999999 -0.24280000000000002 10
11.8906 -6.0625 1.3984 204
2.7089999999999996 -1.3809 -0.17420000000000002 208
11.8672 -6.046900000000001 1.7069999999999999 248
2.7461 -1.3994 -0.1058 201
11.875 -6.0547 2.0254 25
2.8145 -1.4346 -0.036000000000000004 75
11.8828 -6.0586 2.3438 34
2.627 -1.3516 -0.5136999999999999 66
3.1211 -1.6055000000000001 0.0401 153
2.6562 -1.3662 -0.449 148
11.8672 -6.1015999999999995 0.46409999999999996 0
2.6445 -1.3603999999999998 -0.377 6
11.8594 -6.1015999999999995 0.7734000000000001 43
2.6914 -1.3847999999999998 -0.3135 247
11.8828 -6.109400000000001 1.0879 128
2.6738 -1.375 -0.2418 47
11.8594 -6.1015999999999995 1.3975 153
2.6992000000000003 -1.3877000000000002 -0.17379999999999998 27
11.8594 -6.1015999999999995 1.71 223
2.7382999999999997 -1.4091999999999998 -0.1058 55
11.8672 -6.105499999999999 2.0293 31
2.7891000000000004 -1.4346 -0.0358 178
11.8906 -6.113300000000001 2.3496 231
2.6094 -1.3544999999999998 -0.5112 13
3.0723000000000003 -1.5937999999999999 0.039599999999999996 37
2.6523000000000003 -1.376 -0.449 232
11.875 -6.1602 0.4653 226
2.6367000000000003 -1.3672 -0.3765 217
11.851600000000001 -6.1484000000000005 0.7739 191
2.6660000000000004 -1.3828 -0.311 141
11.8828 -6.1640999999999995 1.0898 205
2.6641000000000004 -1.3828 -0.2416 147
11.875 -6.1602 1.4013999999999998 226
2.6738 -1.3877000000000002 -0.1726 255
11.851600000000001 -6.1484000000000005 1.7119 113
2.7129000000000003 -1.4072 -0.10490000000000001 193
11.875 -6.1602 2.0332 154
2.7754000000000003 -1.4394999999999998 -0.0356 70
11.875 -6.1602 2.3516 84
2.6094 -1.3652000000000002 -0.5117 241
3.0469 -1.5937999999999999 0.0393 127
2.6289 -1.376 -0.446 60
11.851600000000001 -6.203099999999999 0.4653 111
2.627 -1.375 -0.376 27
11.8594 -6.207000000000001 0.7764 25
2.6582 -1.3906 -0.3105 223
11.875 -6.2148 1.0908 203
2.6504000000000003 -1.3866999999999998 -0.2407 132
11.875 -6.2148 1.4043 124
2.6562 -1.3896000000000002 -0.1716 138
11.843800000000002 -6.199199999999999 1.7138999999999998 121
2.6875 -1.4062000000000001 -0.1041 191
11.8828 -6.2148 2.0371 123
2.7422000000000004 -1.4355000000000002 -0.0353 117
11.8672 -6.207000000000001 2.3535 10
2.6113 -1.3779 -0.5132 221
3.0233999999999996 -1.5947 0.0391 218
2.627 -1.3857 -0.44630000000000003 152
11.851600000000001 -6.2539 0.46630000000000005 168
2.6191000000000004 -1.3818000000000001 -0.37549999999999994 213
11.8672 -6.261699999999999 0.7778 55
2.6464999999999996 -1.3965 -0.3098 78
11.8594 -6.2578 1.0918 223
2.6348000000000003 -1.3906 -0.2397 117
11.875 -6.265599999999999 1.4072 86
2.6582 -1.4022999999999999 -0.1721 205
11.851600000000001 -6.2539 1.7187999999999999 46
2.6797000000000004 -1.4141 -0.10400000000000001 188
11.8672 -6.261699999999999 2.0391 10
2.7422000000000004 -1.4463 -0.0353 87
11.875 -6.269500000000001 2.3613 59
2.5995999999999997 -1.3838 -0.5117 58
3.0058999999999996 -1.6006 0.038900000000000004 86
2.6211 -1.3955000000000002 -0.44630000000000003 138
11.843800000000002 -6.3047 0.4668 218
2.6074 -1.3877000000000002 -0.37450000000000006 14
11.8594 -6.3164 0.7793000000000001 89
2.6523000000000003 -1.4121000000000001 -0.31129999999999997 255
11.8594 -6.3125 1.0937999999999999 178
2.6172000000000004 -1.3925999999999998 -0.2384 108
11.8594 -6.3125 1.4072 220
2.6523000000000003 -1.4121000000000001 -0.1721 87
11.8594 -6.3125 1.7227000000000001 252
2.6738 -1.4238 -0.10400000000000001 144
11.851600000000001 -6.3125 2.041 134
2.707 -1.4404 -0.0349 235
11.875 -6.324199999999999 2.3652 149
2.5918 -1.3906 -0.5112 79
2.9901999999999997 -1.6055000000000001 0.0388 14
2.6211 -1.4072 -0.4473 40
11.851600000000001 -6.363300000000001 0.4678 50
2.6016000000000004 -1.3975 -0.37450000000000006 151
11.851600000000001 -6.363300000000001 0.7798 212
2.6445 -1.4199000000000002 -0.31079999999999997 189
11.8594 -6.3672 1.0957 215
2.623 -1.4082 -0.2394 223
11.851600000000001 -6.363300000000001 1.4091999999999998 83
2.6445 -1.4199000000000002 -0.17190000000000003 86
11.8672 -6.3672 1.7266 185
2.6776999999999997 -1.4375 -0.1043 37
11.8672 -6.3711 2.0469 112
2.6816000000000004 -1.4394999999999998 -0.0347 58
11.8672 -6.3711 2.3672 23
2.5762 -1.3944999999999999 -0.5088 235
2.9375 -1.5897999999999999 0.0381 244
2.6211 -1.4188999999999998 -0.44780000000000003 173
11.8594 -6.417999999999999 0.469 100
2.6035000000000004 -1.4091999999999998 -0.37520000000000003 159
11.843800000000002 -6.4102 0.7807999999999999 139
2.627 -1.4219 -0.3093 7
11.8672 -6.425800000000001 1.0986 1
2.6172000000000004 -1.4169999999999998 -0.2394 90
11.851600000000001 -6.417999999999999 1.4121000000000001 39
2.6113 -1.4131 -0.17 214
11.8281 -6.4023 1.7246000000000001 250
2.6641000000000004 -1.4424000000000001 -0.10400000000000001 234
11.875 -6.4297 2.0527 9
2.6738 -1.4472999999999998 -0.0346 237
11.8594 -6.421900000000001 2.3711 148
2.5742000000000003 -1.4053 -0.5097999999999999 146
2.9276999999999997 -1.5986000000000002 0.0381 4
2.5995999999999997 -1.4188999999999998 -0.4451 124
11.851600000000001 -6.4688 0.4697 176
2.5976999999999997 -1.4180000000000001 -0.37520000000000003 78
11.843800000000002 -6.4648 0.7822 45
2.6113 -1.4258000000000002 -0.3081 199
11.8594 -6.4727 1.0996 13
2.6151999999999997 -1.4277000000000002 -0.2397 84
11.8594 -6.4765999999999995 1.416 226
2.6132999999999997 -1.4268 -0.1705 53
11.8125 -6.449199999999999 1.7256 172
2.6562 -1.4502000000000002 -0.1039 64
11.8672 -6.480499999999999 2.0547 201
2.6757999999999997 -1.46 -0.0347 229
11.8672 -6.4765999999999995 2.377 140
2.5762 -1.4180000000000001 -0.5112 222
2.9062 -1.5996000000000001 0.0379 45
2.5898000000000003 -1.4247999999999998 -0.4443 116
11.8281 -6.5078 0.4697 183
2.5898000000000003 -1.4247999999999998 -0.37479999999999997 84
11.851600000000001 -6.5234000000000005 0.7847 44
2.6132999999999997 -1.4385 -0.3091 252
11.851600000000001 -6.5234000000000005 1.1016 32
2.5995999999999997 -1.4306999999999999 -0.23879999999999998 152
11.8594 -6.5273 1.4180000000000001 59
2.6151999999999997 -1.4385 -0.171 81
11.8203 -6.5039 1.7294999999999998 196
2.6426 -1.4541 -0.1035 252
11.898399999999999 -6.546900000000001 2.0645 19
2.6699 -1.4687999999999999 -0.0347 8
11.875 -6.5352 2.3828 253
2.5742000000000003 -1.4277000000000002 -0.5117 130
2.8789 -1.5966999999999998 0.037599999999999995 131
2.5879000000000003 -1.4355000000000002 -0.4448 205
11.8281 -6.5586 0.4705 152
2.5839999999999996 -1.4325999999999999 -0.37450000000000006 133
11.8594 -6.578099999999999 0.7861 124
2.625 -1.4561000000000002 -0.31079999999999997 165
11.8594 -6.574199999999999 1.1035 28
2.5918 -1.4375 -0.2384 142
11.8594 -6.574199999999999 1.4209 55
2.6113 -1.4482 -0.1711 253
11.8125 -6.550800000000001 1.7324000000000002 13
2.6387 -1.4638999999999998 -0.1036 220
12.1953 -6.765599999999999 2.1211 6
2.6387 -1.4638999999999998 -0.0344 127
12.226600000000001 -6.7812 2.459 73
2.5625 -1.4336000000000002 -0.5103 72
2.8495999999999997 -1.5928 0.0373 218
2.5898000000000003 -1.4482 -0.446 157
3.582 -2.002 0.14150000000000001 198
2.5742000000000003 -1.4394999999999998 -0.374 174
11.843800000000002 -6.625 0.7870999999999999 53
2.6191000000000004 -1.4647999999999999 -0.31079999999999997 91
11.8594 -6.6289 1.1064 162
2.5879000000000003 -1.4463 -0.2384 88
11.851600000000001 -6.625 1.4228999999999998 81
2.5995999999999997 -1.4541 -0.1707 72
11.8203 -6.609400000000001 1.7363 169
2.6308999999999996 -1.4707 -0.1035 105
12.1875 -6.8125 2.1211 179
2.623 -1.4668 -0.0342 136
12.218800000000002 -6.832000000000001 2.4609 200
2.5547 -1.4394999999999998 -0.5097999999999999 44
2.8281 -1.5937999999999999 0.037000000000000005 56
2.582 -1.4550999999999998 -0.44530000000000003 1
3.5039 -1.9746000000000001 0.1387 32
2.5702999999999996 -1.4482 -0.374 35
11.835899999999999 -6.667999999999999 0.7876000000000001 55
11.8672 -6.6875 1.1094 1
2.5938 -1.4609 -0.2394 113
11.851600000000001 -6.6797 1.4258000000000002 193
2.5976999999999997 -1.4628999999999999 -0.17079999999999998 58
11.8203 -6.6602 1.7393 187
2.6289 -1.4813999999999998 -0.1036 71
12.148399999999999 -6.8438 2.1191 101
2.6289 -1.4813999999999998 -0.0344 85
12.210899999999999 -6.8828 2.4648 58
2.5391 -1.4434 -0.5078 201
2.793 -1.5878999999999999 0.036699999999999997 9
2.582 -1.4678 -0.44630000000000003 110
3.3789 -1.9219 0.13390000000000002 12
2.5762 -1.4647999999999999 -0.3757 28
11.843800000000002 -6.734400000000001 0.79 6
2.5801 -1.4668 -0.3074 190
11.851600000000001 -6.738300000000001 1.1104 120
2.5898000000000003 -1.4727000000000001 -0.2397 250
11.851600000000001 -6.738300000000001 1.4287 234
2.5957 -1.4756 -0.171 78
11.8125 -6.7148 1.7422 59
2.6191000000000004 -1.4883000000000002 -0.10339999999999999 36
12.1797 -6.921900000000001 2.1289 85
2.623 -1.4912 -0.0344 137
12.226600000000001 -6.949199999999999 2.4727 63
2.5371 -1.4541 -0.5083 170
2.7793 -1.5928 0.0366 162
2.5702999999999996 -1.4727000000000001 -0.4451 219
3.2988 -1.8906 0.131 87
2.5742000000000003 -1.4756 -0.3762 82
11.851600000000001 -6.792999999999999 0.792 46
2.582 -1.4794999999999998 -0.3081 211
11.843800000000002 -6.7890999999999995 1.1113 226
2.5723000000000003 -1.4736000000000002 -0.2384 51
11.8594 -6.796900000000001 1.4316 247
2.5898000000000003 -1.4844 -0.171 77
11.8047 -6.769500000000001 1.7450999999999999 99
2.6055 -1.4931999999999999 -0.10300000000000001 78
12.148399999999999 -6.9648 2.1289 250
2.6191000000000004 -1.5019999999999998 -0.0344 68
12.226600000000001 -7.0078 2.4766 36
2.5293 -1.4609 -0.5078 74
2.7598000000000003 -1.5947 0.0364 113
2.5645 -1.4813999999999998 -0.4451 205
3.2733999999999996 -1.8906 0.13019999999999998 120
2.5625 -1.4805000000000001 -0.37520000000000003 74
11.851600000000001 -6.8438 0.7935 227
2.5879000000000003 -1.4950999999999999 -0.3096 73
11.835899999999999 -6.8359000000000005 1.1133 174
2.5605 -1.4785 -0.2378 164
11.843800000000002 -6.8398 1.4325999999999999 88
2.5879000000000003 -1.4950999999999999 -0.17129999999999998 57
11.8125 -6.824199999999999 1.75 46
2.6074 -1.5059 -0.1033 103
12.164100000000001 -7.0273 2.1348 148
2.6016000000000004 -1.5019999999999998 -0.0342 139
12.218800000000002 -7.0586 2.4805 25
2.5137 -1.4628999999999999 -0.5054 113
2.752 -1.6016 0.0363 255
2.5702999999999996 -1.4961000000000002 -0.447 6
3.2324 -1.8809 0.1288 62
2.5469 -1.4824000000000002 -0.3738 44
11.843800000000002 -6.890599999999999 0.7944 121
2.5898000000000003 -1.5068000000000001 -0.3103 178
11.8594 -6.9023 1.1172 54
2.5723000000000003 -1.4971 -0.2394 7
11.851600000000001 -6.8984000000000005 1.4365 214
2.5762 -1.499 -0.17079999999999998 130
11.8203 -6.8789 1.7529 70
2.6055 -1.5166 -0.1035 75
12.125 -7.0547 2.1328 143
2.5938 -1.5097999999999998 -0.0342 213
12.226600000000001 -7.1172 2.4863 33
2.4941 -1.4647999999999999 -0.5029 188
2.7129000000000003 -1.5928 0.0359 29
2.5645 -1.5059 -0.447 101
3.1699 -1.8613 0.1266 13
2.5488 -1.4961000000000002 -0.37479999999999997 200
11.835899999999999 -6.949199999999999 0.7959 233
2.5762 -1.5127000000000002 -0.3093 123
11.851600000000001 -6.957000000000001 1.1191 138
2.5702999999999996 -1.5088 -0.2397 21
11.851600000000001 -6.9609000000000005 1.4404 34
2.5664 -1.5078 -0.1705 36
11.8125 -6.9336 1.7559 15
2.6055 -1.5303 -0.1038 81
12.1094 -7.109400000000001 2.1348 113
2.5879000000000003 -1.5194999999999999 -0.0342 211
12.218800000000002 -7.175800000000001 2.4922 169
2.4824 -1.4697 -0.5015 112
2.6933999999999996 -1.5937999999999999 0.035699999999999996 42
2.5488 -1.5088 -0.4451 55
3.1348000000000003 -1.8555000000000001 0.1255 158
2.5566 -1.5137 -0.37670000000000003 43
11.835899999999999 -7.0039 0.7974 68
2.5664 -1.5186000000000002 -0.30879999999999996 20
11.843800000000002 -7.011699999999999 1.1211 54
2.5683999999999996 -1.5194999999999999 -0.2401 19
11.851600000000001 -7.015599999999999 1.4434 172
2.5625 -1.5166 -0.1705 210
11.7969 -6.984400000000001 1.7578 90
2.5976999999999997 -1.5371000000000001 -0.1036 154
12.1328 -7.1797 2.1426 141
2.5957 -1.5361000000000002 -0.0344 84
12.210899999999999 -7.2265999999999995 2.4941 146
2.4785 -1.4775 -0.5015 131
2.6719 -1.5937999999999999 0.0355 138
2.5332 -1.5107 -0.4434 236
3.1132999999999997 -1.8563999999999998 0.12480000000000001 18
2.5488 -1.5194999999999999 -0.3762 31
11.835899999999999 -7.0586 0.7993000000000001 108
2.5683999999999996 -1.5322 -0.3098 137
11.835899999999999 -7.0586 1.1220999999999999 214
2.5566 -1.5244 -0.2394 205
11.8594 -7.074199999999999 1.4463 126
2.5702999999999996 -1.5332 -0.1714 1
11.7969 -7.0352 1.7616999999999998 212
2.582 -1.54 -0.10310000000000001 172
12.1953 -7.269500000000001 2.1582 108
2.5858999999999996 -1.5430000000000001 -0.034300000000000004 185
12.218800000000002 -7.2852 2.5 66
2.4707 -1.4844 -0.5005 143
2.6562 -1.5957 0.0353 166
2.5312 -1.5215 -0.44380000000000003 248
3.0645 -1.8418 0.12300000000000001 117
2.543 -1.5283000000000002 -0.3762 46
