# .PCD v0.7 - Point Cloud Data file format
VERSION 0.7
FIELDS x y z intensity
SIZE 4 4 4 4
TYPE F F F F
COUNT 1 1 1 1
WIDTH 1363
HEIGHT 1
VIEWPOINT 0 0 0 1 0 0 0
POINTS 1363
DATA ascii
8.5391 7.4765999999999995 -1.4550999999999998 26
27.8125 24.3438 2.1484 5
10.0 8.7578 -1.3925999999999998 26
28.1562 24.6562 3.0526999999999997 220
12.085899999999999 10.585899999999999 -1.3086000000000002 224
15.3828 13.468800000000002 -1.1865 33
0.5771000000000001 0.501 -0.1273 71
29.4062 25.5312 1.3584 59
8.5859 7.453099999999999 -1.4569999999999999 47
27.9688 24.2812 2.1523 248
10.0625 8.7422 -1.3965 134
28.5 24.75 3.0801 218
12.1406 10.539100000000001 -1.3096 205
15.4453 13.414100000000001 -1.1875 211
31.625 27.4688 -0.4888 183
0.6147 0.5297999999999999 -0.13570000000000002 98
31.75 27.3594 0.4893 54
29.5 25.4375 1.3584 249
8.6328 7.4375 -1.46 56
28.0312 24.1719 2.1504 1
10.1016 8.7109 -1.3975 104
28.8125 24.8438 3.1035000000000004 170
12.1875 10.5078 -1.3105000000000002 74
15.5078 13.3672 -1.1885 207
0.5922999999999999 0.5073 -0.1301 130
31.3281 26.8438 1.4385 25
8.6719 7.4297 -1.4628999999999999 141
27.75 23.7656 2.123 96
10.1484 8.6953 -1.3994 154
27.2812 23.375 2.9297000000000004 189
12.2422 10.4844 -1.3125 16
15.625 13.3828 -1.1943000000000001 87
0.6089 0.5181 -0.1335 233
28.7188 24.4531 1.3154 143
8.7109 7.4102 -1.4647999999999999 131
27.7969 23.6562 2.1211 132
10.1875 8.6719 -1.4013999999999998 24
28.9375 24.625 3.1016000000000004 191
12.273399999999999 10.4453 -1.3125 21
15.664100000000001 13.3281 -1.1943000000000001 0
0.6167 0.521 -0.135 130
31.8438 26.9062 0.4866 30
0.687 0.5806 -0.1307 65
8.7422 7.386699999999999 -1.4668 66
28.125 23.7656 2.1406 193
10.2422 8.6562 -1.4043 189
28.9688 24.4688 3.0938 76
12.3047 10.398399999999999 -1.3125 68
15.7344 13.2969 -1.1963 88
0.6035 0.5063 -0.1315 153
29.0625 24.375 1.3232 201
8.7734 7.359400000000001 -1.4678 23
28.5 23.9062 2.1621 6
10.2969 8.6406 -1.4082 34
29.0156 24.3438 3.0898000000000003 69
12.3594 10.3672 -1.3135 50
15.789100000000001 13.2422 -1.1963 251
0.5903 0.4917 -0.1281 174
0.6914 0.5757 -0.1307 76
30.4688 25.375 1.3828 53
8.8047 7.3359000000000005 -1.4687999999999999 100
27.75 23.1094 2.0996 236
10.343800000000002 8.6172 -1.4111000000000002 245
12.4531 10.375 -1.3203 77
28.6562 23.875 3.9160000000000004 209
15.875 13.226600000000001 -1.1992 245
0.5889 0.48710000000000003 -0.1273 10
0.6934 0.5732 -0.1307 244
29.25 24.1875 1.3232 149
8.8594 7.328099999999999 -1.4736000000000002 104
27.75 22.9375 2.0918 204
10.3906 8.5938 -1.4121000000000001 199
29.4062 24.3125 3.1132999999999997 140
12.531199999999998 10.3672 -1.3252000000000002 60
28.7969 23.8125 3.9238 175
15.960899999999999 13.1953 -1.2021 58
25.6406 21.2031 -0.3882 62
0.6089 0.5 -0.1315 81
29.0938 23.8906 1.3125 171
8.9141 7.3203 -1.4785 32
28.0 22.9844 2.1055 96
10.4375 8.5703 -1.415 70
29.8281 24.4844 3.1483999999999996 133
12.585899999999999 10.335899999999999 -1.3262 199
28.9688 23.7812 3.9355 96
16.0156 13.148399999999999 -1.2031 35
25.6562 21.0781 -0.3875 116
0.6074 0.4954 -0.1309 196
29.2812 23.875 0.4409 163
0.6973 0.5684 -0.1307 88
8.9453 7.292999999999999 -1.4794999999999998 177
28.0938 22.9062 2.1055 21
10.4922 8.5547 -1.4180000000000001 91
29.6875 24.2031 3.125 204
12.648399999999999 10.3125 -1.3291 19
28.9375 23.5938 3.9199 216
16.0781 13.101600000000001 -1.2041 41
25.7031 20.9531 -0.38670000000000004 175
0.6093999999999999 0.4932 -0.1309 211
29.5 23.8906 0.44310000000000005 250
0.6992 0.5659000000000001 -0.1307 33
9.0 7.2852 -1.4844 170
28.2188 22.8438 2.1094 82
10.531199999999998 8.5234 -1.4199000000000002 10
28.4844 23.0625 2.9901999999999997 138
12.6953 10.273399999999999 -1.3300999999999998 236
16.1719 13.093800000000002 -1.208 241
25.8125 20.8906 -0.3875 161
0.5986 0.48119999999999996 -0.1281 242
0.7012 0.5635 -0.1307 44
29.0938 23.3906 1.3018 171
9.0781 7.296900000000001 -1.4931999999999999 134
28.5156 22.9219 2.127 35
10.5625 8.4844 -1.4188999999999998 121
12.75 10.2422 -1.3319999999999999 7
30.0781 24.1719 4.0508 140
16.2188 13.039100000000001 -1.208 24
25.9375 20.8438 -0.3884 36
0.6006 0.4792 -0.1281 29
29.6094 23.625 0.4421 101
0.7031000000000001 0.561 -0.1307 24
9.1328 7.2890999999999995 -1.4971 121
28.6719 22.875 2.1309 79
10.6094 8.4609 -1.4219 51
29.4062 23.4688 3.0702999999999996 69
12.8047 10.2188 -1.334 245
16.3125 13.0156 -1.2109 244
26.1094 20.8281 -0.3896 105
0.6177 0.4893 -0.1315 87
29.7031 23.5312 0.4421 147
0.7051000000000001 0.5586 -0.1307 104
9.1797 7.2734000000000005 -1.501 19
28.7344 22.7656 2.1309 121
10.6719 8.4531 -1.4258000000000002 146
29.2656 23.1875 3.0469 162
12.851600000000001 10.1797 -1.335 230
16.4062 13.0 -1.2158 159
26.3125 20.8438 -0.39159999999999995 227
0.6191 0.48729999999999996 -0.1315 116
34.0938 26.8281 0.5063 76
0.7070000000000001 0.5562 -0.1307 134
29.9062 23.5312 1.3271000000000002 197
9.2266 7.2578 -1.5049000000000001 117
28.8906 22.7344 2.1367 38
10.710899999999999 8.4297 -1.4277000000000002 93
29.3906 23.125 3.0507999999999997 243
12.906199999999998 10.1562 -1.3378999999999999 51
16.4844 12.968800000000002 -1.2168 153
26.4375 20.8125 -0.3926 65
0.5898 0.46090000000000003 -0.1246 92
0.7090000000000001 0.5542 -0.1307 233
29.7344 23.2344 1.3163999999999998 71
9.2578 7.238300000000001 -1.5068000000000001 185
28.6562 22.3906 2.1133 126
10.781199999999998 8.4219 -1.4325999999999999 119
29.2812 22.8906 3.0332 57
12.976600000000001 10.1406 -1.3408000000000002 226
29.6719 23.1875 3.9531 159
16.5625 12.9531 -1.2207 238
26.6406 20.8125 -0.3945 66
0.5977 0.4636 -0.126 112
0.7109000000000001 0.5513 -0.1307 239
30.125 23.3594 1.3291 131
9.3125 7.2227 -1.5107 212
28.7031 22.2656 2.1113 60
10.8047 8.375 -1.4325999999999999 182
28.7031 22.2656 2.9629000000000003 67
13.023399999999999 10.1016 -1.3428 250
29.75 23.0781 3.9512 141
16.6562 12.914100000000001 -1.2236 117
26.7969 20.7812 -0.39549999999999996 88
0.6147 0.47340000000000004 -0.1294 68
0.7129000000000001 0.5488000000000001 -0.1307 80
31.2812 24.0938 1.3769999999999998 172
9.3672 7.2109000000000005 -1.5146000000000002 249
29.1562 22.4531 2.1387 21
10.8594 8.3594 -1.4355000000000002 57
29.5469 22.75 3.043 84
13.085899999999999 10.0781 -1.3457 194
29.7344 22.9062 3.9395 106
16.75 12.898399999999999 -1.2266 17
26.9688 20.7812 -0.3972 85
0.6416 0.4905 -0.135 78
0.6581999999999999 0.5029 -0.1198 250
31.2656 23.9062 1.3730000000000002 232
9.4062 7.1914 -1.5175999999999998 26
28.5625 21.8438 2.0898 83
10.906199999999998 8.3359 -1.4385 152
29.6875 22.7031 3.0488 38
13.1406 10.0469 -1.3477000000000001 246
29.6094 22.6406 3.9120999999999997 253
16.8281 12.8594 -1.2295 58
27.1719 20.7656 -0.39890000000000003 32
0.6245 0.4739 -0.1309 112
0.6914 0.5249 -0.1259 187
9.4375 7.1640999999999995 -1.5186000000000002 148
28.3438 21.5156 2.0684 135
10.976600000000001 8.3359 -1.4443000000000001 227
30.0781 22.8281 3.0801 226
13.210899999999999 10.0234 -1.3506 141
29.6406 22.5 3.9082 91
16.875 12.8047 -1.2295 254
27.3594 20.7656 -0.40090000000000003 188
0.5977 0.45039999999999997 -0.1246 102
0.6934 0.5225 -0.1259 247
35.4375 26.6875 1.5469 18
9.4922 7.1562 -1.5244 203
29.625 22.3281 2.1562 176
11.023399999999999 8.3047 -1.4453 169
30.0469 22.6406 3.0702999999999996 27
13.25 9.9844 -1.3516 52
29.6875 22.375 3.9023000000000003 116
17.0 12.8047 -1.2354 57
27.5312 20.7344 -0.4021 98
0.6054999999999999 0.4531 -0.126 157
0.6729 0.5034000000000001 -0.1216 104
35.6562 26.6719 1.5537 55
9.5156 7.1172 -1.5234 220
29.5156 22.0781 2.1426 123
11.0547 8.2734 -1.4463 103
29.9688 22.4219 3.0526999999999997 129
13.3125 9.9609 -1.3544999999999998 26
29.7969 22.2969 3.9062 166
17.0781 12.781199999999998 -1.2383 227
27.7344 20.75 -0.4043 147
0.6386999999999999 0.4746 -0.1329 38
0.6679999999999999 0.4963 -0.1204 19
9.4453 7.015599999999999 -1.5078 249
30.2188 22.4531 2.1875 214
11.101600000000001 8.25 -1.4491999999999998 42
13.3906 9.9453 -1.3594 235
29.9688 22.2656 3.9199 72
17.1562 12.75 -1.2412 74
27.9375 20.75 -0.406 248
0.6338 0.4678 -0.1315 225
0.6445000000000001 0.4753 -0.11560000000000001 122
36.1562 26.6719 1.5674000000000001 61
9.4688 6.988300000000001 -1.5088 33
30.375 22.4062 2.1934 172
11.156199999999998 8.2266 -1.4521000000000002 247
29.2344 21.5625 2.9629000000000003 165
13.4375 9.9141 -1.3603999999999998 114
30.0312 22.1562 3.918 242
17.2188 12.6953 -1.2422 222
28.125 20.75 -0.408 145
0.6196 0.4536 -0.1281 20
0.6557999999999999 0.48 -0.1174 61
36.4375 26.6562 1.5741999999999998 84
9.4922 6.9453 -1.5078 61
30.2031 22.1094 2.1758 175
11.1953 8.1953 -1.4541 223
29.2031 21.375 2.9531 206
13.4844 9.8672 -1.3613 251
29.9531 21.9219 3.8964999999999996 64
17.3594 12.710899999999999 -1.25 214
28.3438 20.7344 -0.4097 243
0.647 0.47 -0.1335 248
0.6831 0.4963 -0.1223 215
36.6875 26.6562 1.5819999999999999 23
9.5078 6.9102 -1.5068000000000001 175
30.4844 22.1562 2.1895 141
11.2422 8.1719 -1.4561000000000002 209
29.3594 21.3281 2.9608999999999996 11
13.5547 9.8516 -1.3652000000000002 209
30.0 21.7969 3.8926 214
17.4062 12.648399999999999 -1.25 103
28.5312 20.7344 -0.4114 165
0.6294 0.45409999999999995 -0.1294 113
0.6592 0.4753 -0.1174 125
36.875 26.6094 1.5859 24
9.5547 6.890599999999999 -1.5097999999999998 119
31.3125 22.5938 2.2441 63
11.3047 8.1562 -1.46 167
29.4219 21.2344 2.9589999999999996 225
13.6094 9.8203 -1.3672 82
30.3906 21.9219 3.9355 188
17.5 12.625 -1.2529000000000001 179
28.7188 20.7188 -0.4133 141
0.605 0.4336 -0.12390000000000001 139
0.6636 0.4756 -0.11800000000000001 161
37.1875 26.6406 1.5957 242
9.5625 6.8515999999999995 -1.5078 238
31.2344 22.375 2.2344 15
11.3281 8.1172 -1.46 108
29.4375 21.0938 2.9531 168
13.648399999999999 9.7812 -1.3681999999999999 95
30.5 21.8438 3.9375 114
17.5625 12.5781 -1.2539 239
28.9375 20.7344 -0.4155 76
0.6357 0.4521 -0.1301 130
0.627 0.4458 -0.1108 208
37.4688 26.6406 1.6035 211
9.5703 6.8047 -1.5049000000000001 71
31.5312 22.4219 2.248 225
11.3594 8.0781 -1.46 190
29.5156 21.0 2.9551 104
13.7031 9.75 -1.3700999999999999 52
30.5469 21.7188 3.9355 58
17.6406 12.539100000000001 -1.2568000000000001 6
29.1562 20.7344 -0.4175 68
0.624 0.4409 -0.1273 20
9.5859 6.765599999999999 -1.5038999999999998 51
31.6875 22.375 2.2539 191
11.4453 8.0781 -1.4678 184
30.8281 21.7656 3.0801 3
13.7656 9.7266 -1.3730000000000002 57
30.7031 21.6875 3.9452999999999996 166
17.75 12.539100000000001 -1.2617 242
29.3906 20.75 -0.41969999999999996 187
0.6225999999999999 0.4363 -0.1267 128
8.3594 5.855499999999999 -1.5497999999999998 81
38.0625 26.6719 1.6211000000000002 24
9.6016 6.7265999999999995 -1.5029 193
31.8125 22.2812 2.2578 144
11.5 8.0547 -1.4707 207
31.1562 21.8281 3.1035000000000004 52
13.835899999999999 9.6875 -1.376 147
17.8594 12.5078 -1.2656 228
29.5781 20.7188 -0.4214 40
0.6372 0.44310000000000005 -0.1294 94
8.3203 5.7852 -1.5391 202
38.3125 26.6406 1.6279 112
9.6328 6.6953 -1.5038999999999998 56
43.3125 30.1094 3.0664 94
11.523399999999999 8.0156 -1.4707 80
31.3438 21.7969 3.1151999999999997 130
13.898399999999999 9.6641 -1.3799000000000001 3
17.9375 12.476600000000001 -1.2686 103
29.8438 20.75 -0.4241 173
0.6386999999999999 0.4407 -0.1294 149
38.6875 26.7031 0.5488000000000001 109
8.2969 5.7265999999999995 -1.5312000000000001 27
38.5938 26.625 1.6347999999999998 9
9.6562 6.6640999999999995 -1.5038999999999998 20
43.3125 29.875 3.0586 85
11.5703 7.984400000000001 -1.4736000000000002 135
31.2656 21.5781 3.0995999999999997 57
13.976600000000001 9.6484 -1.3838 216
18.0469 12.4531 -1.2734 178
30.0781 20.7656 -0.4265 86
7.6523 5.2422 -1.6279 97
8.3125 5.6953 -1.5303 243
38.8438 26.6094 1.6425999999999998 112
9.6875 6.636699999999999 -1.5049000000000001 141
43.2812 29.6562 3.0507999999999997 68
11.625 7.9609000000000005 -1.4766 60
14.0156 9.6016 -1.3847999999999998 179
18.1406 12.4297 -1.2773 90
30.2969 20.75 -0.4285 145
7.636699999999999 5.1914 -1.6211000000000002 98
8.3203 5.6562 -1.5272999999999999 253
39.0938 26.5781 1.6494 56
9.7031 6.5977 -1.5038999999999998 151
43.3125 29.4375 3.0449 91
11.6797 7.9414 -1.4794999999999998 210
14.0781 9.5703 -1.3877000000000002 54
18.2188 12.3906 -1.2793 120
31.5938 21.4688 -0.4458 61
7.6289 5.1484000000000005 -1.6152000000000002 155
39.5312 26.6719 0.5566 50
8.3359 5.625 -1.5272999999999999 106
9.7188 6.5586 -1.5029 46
43.2812 29.2031 3.0351999999999997 2
11.726600000000001 7.9140999999999995 -1.4824000000000002 216
14.125 9.5312 -1.3887 107
18.2969 12.351600000000001 -1.2822 174
31.5938 21.3125 -0.4448 33
7.667999999999999 5.136699999999999 -1.6200999999999999 77
8.3516 5.5938 -1.5253999999999999 116
39.6875 26.5781 1.666 78
9.7578 6.5390999999999995 -1.5049000000000001 224
43.25 28.9844 3.0273000000000003 220
11.773399999999999 7.890599999999999 -1.4853999999999998 20
14.226600000000001 9.5312 -1.3955000000000002 186
18.3906 12.3203 -1.2852000000000001 4
31.5938 21.1562 -0.4436 44
7.707000000000001 5.125 -1.625 158
40.375 26.8438 0.5659000000000001 130
8.3516 5.5547 -1.5234 170
40.0312 26.625 1.6768 170
9.7891 6.511699999999999 -1.5068000000000001 100
43.2812 28.7969 3.0214999999999996 28
11.8203 7.859400000000001 -1.4872999999999998 203
14.273399999999999 9.4922 -1.3965 123
18.4844 12.2969 -1.2891 240
31.5938 21.0156 -0.4429 249
7.761699999999999 5.1211 -1.6318000000000001 44
8.3594 5.511699999999999 -1.5205000000000002 96
40.3125 26.5781 1.6836000000000002 66
9.8125 6.4727 -1.5068000000000001 185
43.2812 28.5469 3.0137 221
11.8828 7.8359000000000005 -1.4912 163
14.335899999999999 9.4531 -1.3994 107
18.6094 12.273399999999999 -1.2938999999999998 155
31.6094 20.8438 -0.44189999999999996 227
7.792999999999999 5.1016 -1.6347999999999998 52
8.375 5.484400000000001 -1.5205000000000002 79
40.625 26.6094 1.6943000000000001 231
9.8281 6.4336 -1.5059 168
43.25 28.2969 3.0039 102
11.156199999999998 7.3047 -1.3965 1
14.3906 9.4219 -1.4013999999999998 109
18.7344 12.2656 -1.2997999999999998 227
31.6562 20.7188 -0.4414 191
7.8164 5.082 -1.6366999999999998 19
8.375 5.4453 -1.5175999999999998 14
40.8125 26.5312 1.6982 163
9.8516 6.4023 -1.5059 44
43.2188 28.1094 2.998 237
11.164100000000001 7.2578 -1.3944999999999999 254
14.4531 9.3906 -1.4043 209
18.75 12.1953 -1.2988 67
31.7031 20.6094 -0.4412 103
7.8477 5.0664 -1.6396000000000002 50
8.4219 5.4336 -1.5215 29
9.875 6.3711 -1.5059 51
43.25 27.9062 2.9922000000000004 223
11.2031 7.230499999999999 -1.3965 125
14.5469 9.3906 -1.4102000000000001 37
18.8594 12.1719 -1.3037 38
31.7969 20.5156 -0.44170000000000004 141
7.8672 5.0352 -1.6396000000000002 114
8.4141 5.386699999999999 -1.5175999999999998 253
41.5 26.5625 1.7187999999999999 218
9.8984 6.3359000000000005 -1.5059 126
43.2188 27.6562 2.9824 120
11.210899999999999 7.175800000000001 -1.3944999999999999 122
14.625 9.3594 -1.415 233
18.9688 12.1406 -1.3075999999999999 115
31.9844 20.4688 -0.44310000000000005 33
7.8711 4.9961 -1.6366999999999998 231
8.4219 5.3515999999999995 -1.5156 145
9.9297 6.3047 -1.5068000000000001 30
43.25 27.4688 2.9785000000000004 174
11.2656 7.1523 -1.3975 228
14.656199999999998 9.3047 -1.415 122
19.0312 12.085899999999999 -1.3096 195
32.2188 20.4531 -0.44530000000000003 93
7.8711 4.9648 -1.6338 157
8.4531 5.332000000000001 -1.5175999999999998 80
9.9375 6.265599999999999 -1.5059 106
43.2188 27.25 2.9707 204
11.335899999999999 7.144500000000001 -1.4033000000000002 219
14.726600000000001 9.2812 -1.4180000000000001 225
19.1406 12.0703 -1.3144999999999998 122
32.4375 20.4531 -0.4475 232
7.855499999999999 4.9141 -1.626 206
8.4688 5.300800000000001 -1.5175999999999998 190
9.9609 6.230499999999999 -1.5059 21
43.2188 27.0469 2.9629000000000003 105
11.351600000000001 7.105499999999999 -1.4033000000000002 92
14.781199999999998 9.25 -1.4209 196
19.2656 12.0547 -1.3193000000000001 247
32.6562 20.4375 -0.4495 201
7.832000000000001 4.8633 -1.6181999999999999 215
8.5 5.2734000000000005 -1.5186000000000002 45
9.9844 6.199199999999999 -1.5059 94
43.1562 26.7969 2.9531 179
11.3828 7.0664 -1.4043 197
14.8594 9.2266 -1.4258000000000002 22
19.3125 11.9922 -1.3203 120
32.875 20.4219 -0.45189999999999997 230
7.8359000000000005 4.8281 -1.6152000000000002 245
8.5078 5.238300000000001 -1.5166 154
10.0156 6.167999999999999 -1.5078 146
43.1562 26.5781 2.9452999999999996 197
11.4219 7.0352 -1.4053 199
14.9531 9.2109 -1.4316 218
19.4219 11.968800000000002 -1.3252000000000002 21
33.1562 20.4062 -0.4543 7
7.832000000000001 4.7891 -1.6113 114
8.5078 5.199199999999999 -1.5146000000000002 117
10.0234 6.1289 -1.5059 241
43.25 26.4219 2.9452999999999996 210
11.460899999999999 7.0078 -1.4072 181
15.0156 9.1719 -1.4336000000000002 53
19.5781 11.960899999999999 -1.3319999999999999 130
33.375 20.4062 -0.45649999999999996 128
7.832000000000001 4.75 -1.6074000000000002 148
43.875 26.6094 0.5991 250
8.5156 5.1640999999999995 -1.5116999999999998 65
10.0312 6.0859000000000005 -1.5038999999999998 132
43.5625 26.4219 2.9629000000000003 162
11.523399999999999 6.988300000000001 -1.4121000000000001 230
15.023399999999999 9.1094 -1.4316 161
19.6562 11.914100000000001 -1.334 177
33.6562 20.4062 -0.4592 66
7.8203 4.7031 -1.6016 201
44.2188 26.5938 0.6025 67
8.5547 5.144500000000001 -1.5156 151
10.0547 6.050800000000001 -1.5038999999999998 94
43.9375 26.4219 2.9805 160
11.585899999999999 6.9688 -1.416 47
15.148399999999999 9.1172 -1.4404 168
19.7344 11.8672 -1.3369 111
33.9062 20.3906 -0.4619 212
7.8047 4.6602 -1.5957 139
44.5312 26.5781 0.606 107
8.5469 5.1016 -1.5107 94
44.375 26.4844 1.8027000000000002 23
10.0781 6.015599999999999 -1.5049000000000001 4
44.25 26.4062 2.9961 107
11.593800000000002 6.917999999999999 -1.4141 111
15.2344 9.0938 -1.4453 208
19.8438 11.843800000000002 -1.3418 154
34.1562 20.3906 -0.4644 126
7.8047 4.625 -1.5918 78
44.8438 26.5625 0.6089 219
8.5391 5.0586 -1.5068000000000001 205
44.6562 26.4531 1.8105000000000002 190
10.1016 5.984400000000001 -1.5049000000000001 56
44.5938 26.4219 3.0137 25
11.625 6.8828 -1.415 207
15.2969 9.0625 -1.4482 103
19.9375 11.8047 -1.3457 78
34.4062 20.3906 -0.467 81
7.8086 4.5898 -1.5897999999999999 43
45.1562 26.5469 0.6118 236
8.5156 5.0078 -1.5 183
44.9688 26.4375 1.8203 133
10.1172 5.949199999999999 -1.5038999999999998 202
44.9375 26.4219 3.0312 249
11.6719 6.863300000000001 -1.4188999999999998 239
15.335899999999999 9.0156 -1.4502000000000002 247
20.0312 11.781199999999998 -1.3496000000000001 57
34.6875 20.4062 -0.4697 177
7.8086 4.5508 -1.5859 37
45.5625 26.5469 0.6157 92
8.5469 4.9844 -1.5029 87
43.0 25.0625 1.7363 184
10.125 5.9023 -1.5019999999999998 110
45.2812 26.4062 3.0469 242
11.7031 6.824199999999999 -1.4188999999999998 53
15.414100000000001 8.9844 -1.4541 38
20.1562 11.75 -1.3544999999999998 51
35.0 20.3906 -0.4727 1
7.792999999999999 4.5078 -1.5800999999999998 216
45.9062 26.5469 0.6191 113
8.5625 4.9531 -1.5019999999999998 15
43.0938 24.9219 1.7363 47
10.1406 5.863300000000001 -1.5019999999999998 95
45.625 26.3906 3.0645 223
11.7422 6.7890999999999995 -1.4209 180
15.4844 8.9531 -1.4580000000000002 228
20.2344 11.6953 -1.3563999999999998 37
35.25 20.375 -0.47509999999999997 167
7.7852 4.4648 -1.5752000000000002 166
46.25 26.5312 0.6225999999999999 16
8.5859 4.9258 -1.5019999999999998 182
46.0312 26.4062 1.8516 45
10.1641 5.832000000000001 -1.5019999999999998 229
44.9375 25.7812 3.0117000000000003 14
11.7422 6.738300000000001 -1.4188999999999998 65
15.5703 8.9297 -1.4628999999999999 123
20.3594 11.6719 -1.3622999999999998 96
35.5312 20.375 -0.478 6
7.7852 4.4297 -1.5722999999999998 252
46.6562 26.5469 0.627 144
8.5859 4.8867 -1.5 31
46.3438 26.375 1.8603999999999998 179
10.1719 5.7890999999999995 -1.501 173
44.3125 25.2031 2.9629000000000003 99
11.7969 6.7109000000000005 -1.4219 247
15.625 8.8906 -1.4647999999999999 48
20.5 11.664100000000001 -1.3700999999999999 208
35.8125 20.375 -0.48100000000000004 152
7.7890999999999995 4.3945 -1.5693000000000001 237
8.6094 4.8555 -1.5 230
43.0312 24.2812 1.7236000000000002 64
10.1719 5.7422 -1.4971 11
44.25 24.9844 2.9551 68
11.8203 6.667999999999999 -1.4219 251
12.1328 6.8477 -1.1348 37
20.6094 11.6328 -1.374 240
36.0938 20.375 -0.4836 123
7.7852 4.3555 -1.5654 87
47.2812 26.4531 0.6328 167
8.6328 4.832 -1.5019999999999998 158
43.0938 24.125 1.7236000000000002 241
10.1719 5.6953 -1.4941 133
44.2188 24.75 2.9452999999999996 176
11.875 6.6484000000000005 -1.4258000000000002 155
12.1094 6.7773 -1.1299 30
20.6875 11.5781 -1.3769999999999998 54
36.375 20.3594 -0.4866 149
7.7734000000000005 4.3164 -1.5605000000000002 5
47.6875 26.4688 0.6367 69
8.6484 4.8047 -1.5019999999999998 1
10.1797 5.6484000000000005 -1.4922 50
11.835899999999999 6.5703 0.7852 35
11.898399999999999 6.609400000000001 -1.4258000000000002 19
11.914100000000001 6.613300000000001 1.1094 83
12.1172 6.7265999999999995 -1.1279000000000001 251
12.2031 6.7734000000000005 -0.8090999999999999 165
12.3047 6.832000000000001 -0.48950000000000005 218
36.625 20.3438 -0.489 16
7.7734000000000005 4.2812 -1.5575999999999999 56
8.6797 4.7773 -1.5038999999999998 193
10.2031 5.6172 -1.4931999999999999 77
11.835899999999999 6.519500000000001 0.7837000000000001 237
11.9297 6.5703 -1.4268 238
11.8906 6.546900000000001 1.1055 217
12.1094 6.667999999999999 -1.126 255
12.164100000000001 6.699199999999999 -0.8057 43
12.2031 6.7188 -0.48460000000000003 214
12.1719 6.703099999999999 -0.1616 157
7.765599999999999 4.2422 -1.5527000000000002 58
12.2422 6.6914 0.16219999999999998 107
8.6875 4.75 -1.5038999999999998 91
12.1875 6.6602 0.48340000000000005 170
10.2031 5.574199999999999 -1.4902000000000002 78
11.835899999999999 6.4648 0.7817000000000001 178
11.9531 6.5273 -1.4268 168
11.898399999999999 6.5 1.1035 229
12.125 6.625 -1.125 106
12.2031 6.6640999999999995 -0.8062 63
12.2031 6.667999999999999 -0.4839 174
12.1875 6.6602 -0.16149999999999998 129
7.7734000000000005 4.2148 -1.5518 128
12.2422 6.636699999999999 0.162 21
8.7031 4.7188 -1.5038999999999998 103
12.1953 6.613300000000001 0.4827 11
10.2031 5.5312 -1.4872999999999998 247
11.8125 6.4023 0.7793000000000001 253
11.9922 6.5 -1.4287 195
11.8906 6.4453 1.1016 155
12.1406 6.578099999999999 -1.124 165
12.289100000000001 6.6640999999999995 1.4647999999999999 204
12.2422 6.6328 -0.8076000000000001 79
12.1719 6.5977 1.7753999999999999 20
12.2344 6.6328 -0.4841 183
12.218800000000002 6.6211 2.1133 124
12.218800000000002 6.6211 -0.1616 248
12.1797 6.605499999999999 2.4355 40
7.7734000000000005 4.1758 -1.5488 20
12.3281 6.6211 0.16269999999999998 215
8.7266 4.6875 -1.5038999999999998 17
12.226600000000001 6.5664 0.4829 59
10.2031 5.480499999999999 -1.4844 140
11.8281 6.3515999999999995 0.7783 60
12.031199999999998 6.4609000000000005 -1.4306999999999999 197
12.2344 6.5703 -1.1309 3
21.2969 11.4375 -1.4043 117
12.2344 6.5703 1.7812000000000001 116
12.3047 6.609400000000001 -0.1625 143
12.1875 6.546900000000001 2.4336 165
7.7734000000000005 4.1406 -1.5459 32
49.5 26.3594 0.6548 193
8.7734 4.6719 -1.5088 250
44.3438 23.6094 1.7529 198
10.2109 5.4375 -1.4824000000000002 90
11.8281 6.300800000000001 0.7768999999999999 36
12.0547 6.421900000000001 -1.4316 110
12.335899999999999 6.5703 -1.1377 115
21.3906 11.3906 -1.4072 122
49.8125 26.5312 -0.6592 132
12.2422 6.519500000000001 2.4395 178
7.7734000000000005 4.1094 -1.5430000000000001 51
49.9375 26.375 0.6597 230
8.7812 4.6406 -1.5078 53
44.375 23.4375 1.75 172
10.2422 5.4102 -1.4844 159
11.835899999999999 6.2539 0.7764 80
12.093800000000002 6.390599999999999 -1.4325999999999999 69
11.875 6.2734000000000005 1.0928 136
16.3281 8.625 -1.5049000000000001 15
21.5469 11.3828 -1.415 218
50.3438 26.5938 -0.665 49
7.800800000000001 4.0898 -1.5449000000000002 89
8.7891 4.6055 -1.5068000000000001 19
44.625 23.3906 1.7578 167
10.2578 5.3789 -1.4844 167
11.835899999999999 6.203099999999999 0.7748999999999999 29
12.1094 6.3477 -1.4325999999999999 216
16.4062 8.5938 -1.5088 134
21.6094 11.3203 -1.4169999999999998 54
44.4688 23.3125 -1.7519999999999998 240
44.9062 23.5312 -0.5918 61
7.8164 4.0586 -1.5459 165
8.8047 4.5703 -1.5059 212
44.0938 22.8906 1.7324000000000002 56
10.2656 5.332000000000001 -1.4824000000000002 83
11.9219 6.1914 0.7787999999999999 147
12.156199999999998 6.3125 -1.4346 37
16.4844 8.5625 -1.5137 96
21.75 11.2969 -1.4228999999999998 42
44.5312 23.125 -1.75 198
45.0312 23.3906 -0.5922999999999999 94
7.8359000000000005 4.0352 -1.5469 36
8.8281 4.5469 -1.5078 72
45.0938 23.2344 1.7694999999999999 204
10.281199999999998 5.296900000000001 -1.4824000000000002 83
12.7969 6.5898 0.835 111
12.2031 6.2852 -1.4385 128
16.5625 8.5234 -1.5175999999999998 60
21.875 11.2656 -1.4297 211
44.6562 23.0 -1.7519999999999998 82
7.8477 4.0078 -1.5459 119
8.8672 4.5273 -1.5116999999999998 129
46.25 23.625 1.8125 79
10.289100000000001 5.2539 -1.4813999999999998 143
43.75 22.3438 2.8555 176
12.2344 6.2461 -1.4394999999999998 8
100.125 51.125 9.1797 177
16.6406 8.5 -1.5225 52
21.9844 11.226600000000001 -1.4336000000000002 199
44.7812 22.875 -1.7538999999999998 72
7.855499999999999 3.9766000000000004 -1.5449000000000002 147
8.8828 4.4961 -1.5116999999999998 134
45.0625 22.7969 1.7616999999999998 140
10.3125 5.2227 -1.4813999999999998 86
45.875 23.2188 2.9882999999999997 159
12.281199999999998 6.2188 -1.4424000000000001 129
16.7656 8.4844 -1.5312000000000001 174
22.0781 11.1797 -1.4375 177
7.875 3.957 -1.5469 253
8.9062 4.4727 -1.5127000000000002 47
44.9688 22.5938 1.7559 239
10.3203 5.1836 -1.4805000000000001 239
12.3047 6.1797 -1.4424000000000001 184
16.8125 8.4453 -1.5332 68
22.1719 11.1406 -1.4413999999999998 80
52.7812 26.5156 -0.6899 68
7.9062 3.9375 -1.5497999999999998 193
8.9062 4.4375 -1.5107 193
45.2812 22.5625 1.7656 141
10.351600000000001 5.1562 -1.4813999999999998 38
52.6562 26.2188 3.4199 7
12.343800000000002 6.1484000000000005 -1.4443000000000001 227
99.875 49.75 9.1094 138
16.9062 8.4219 -1.5391 170
22.3281 11.125 -1.4491999999999998 146
54.125 26.9531 -0.7061 27
7.917999999999999 3.9082 -1.5497999999999998 15
8.9531 4.418 -1.5156 43
45.5 22.4531 1.7694999999999999 14
10.375 5.1211 -1.4824000000000002 88
46.3438 22.875 3.0039 222
12.3672 6.105499999999999 -1.4453 137
16.9844 8.3828 -1.5438999999999998 255
22.4219 11.0703 -1.4521000000000002 174
54.125 26.7188 -0.7051000000000001 252
7.9140999999999995 3.873 -1.5469 152
8.9844 4.3984 -1.5186000000000002 45
45.9062 22.4531 1.7832 133
10.335899999999999 5.0586 -1.4746000000000001 148
12.3906 6.0625 -1.4453 15
99.9375 48.9062 9.0859 198
17.0469 8.3438 -1.5469 229
22.5781 11.0469 -1.46 132
46.7812 22.8906 -1.8174000000000001 224
46.6875 22.8438 -0.6069 134
7.925800000000001 3.8438 -1.5459 249
9.0 4.3633 -1.5186000000000002 4
47.125 22.8594 1.8281 78
10.343800000000002 5.0156 -1.4736000000000002 164
100.0 48.4688 6.4609000000000005 35
12.406199999999998 6.015599999999999 -1.4443000000000001 10
99.9375 48.4688 9.0703 42
17.1719 8.3203 -1.5547 116
22.6875 11.0 -1.4638999999999998 91
54.4062 26.3906 -0.7061 56
7.9375 3.8164 -1.5459 203
9.0156 4.332 -1.5186000000000002 77
47.0 22.5938 1.8193000000000001 176
10.375 4.9883 -1.4756 239
99.9375 48.0312 6.449199999999999 103
12.4219 5.9727 -1.4443000000000001 139
17.2344 8.2812 -1.5586000000000002 150
22.7812 10.9453 -1.4678 230
7.9609000000000005 3.793 -1.5478999999999998 223
9.0234 4.2969 -1.5166 228
10.414100000000001 4.9609 -1.4785 61
99.9375 47.5938 6.4375 98
12.4531 5.9336 -1.4453 37
99.875 47.5938 9.0312 113
17.2812 8.2344 -1.5605000000000002 157
22.9219 10.9219 -1.4746000000000001 233
7.980499999999999 3.7676 -1.5488 112
9.0547 4.2734 -1.5205000000000002 61
55.4062 26.1406 2.1367 94
10.4219 4.918 -1.4766 32
12.476600000000001 5.886699999999999 -1.4453 192
99.8125 47.125 9.0156 152
17.3438 8.1875 -1.5635 222
23.0625 10.8906 -1.4813999999999998 21
7.988300000000001 3.7344 -1.5478999999999998 211
9.0469 4.2305 -1.5166 143
55.8438 26.1094 2.1504 182
10.4531 4.8867 -1.4785 70
12.5078 5.8477 -1.4472999999999998 174
100.0 46.75 9.0156 140
17.4531 8.1641 -1.5703 29
23.1719 10.835899999999999 -1.4853999999999998 176
46.25 21.625 -1.7812000000000001 38
56.4375 26.3906 -0.7275 67
7.9961 3.7051 -1.5469 186
9.1094 4.2188 -1.5234 144
56.4062 26.125 2.168 119
10.468800000000002 4.8516 -1.4785 79
12.523399999999999 5.800800000000001 -1.4463 231
17.5625 8.1406 -1.5771000000000002 164
23.375 10.835899999999999 -1.4961000000000002 83
46.1562 21.3906 -1.7744 127
57.0 26.4062 -0.7339 157
8.0156 3.6836 -1.5488 20
9.1172 4.1875 -1.5234 246
10.5 4.8281 -1.4813999999999998 82
12.539100000000001 5.761699999999999 -1.4453 124
17.6406 8.1094 -1.5830000000000002 91
23.4688 10.789100000000001 -1.5 89
46.25 21.25 -1.7753999999999999 147
57.5625 26.4531 -0.7397 25
8.0312 3.6582 -1.5488 175
57.75 26.3125 0.7412000000000001 181
9.1172 4.1523 -1.5205000000000002 101
57.375 26.1406 2.1992 237
10.531199999999998 4.7969 -1.4834 181
12.5703 5.7265999999999995 -1.4472999999999998 52
17.7031 8.0625 -1.585 59
46.3125 21.0938 -1.7753999999999999 12
8.0547 3.6308999999999996 -1.5508000000000002 146
9.1406 4.1172 -1.5225 233
10.5469 4.7539 -1.4824000000000002 197
12.601600000000001 5.6797 -1.4482 62
99.9375 45.0312 8.9531 174
17.7812 8.0156 -1.5897999999999999 251
19.5 8.7891 -1.2422 143
46.4062 20.9062 -1.7753999999999999 240
8.0703 3.5995999999999997 -1.5497999999999998 49
9.1719 4.0938 -1.5253999999999999 128
10.5547 4.7109 -1.4813999999999998 29
99.875 44.5938 6.363300000000001 45
12.6328 5.636699999999999 -1.4491999999999998 210
99.9375 44.5938 8.9375 217
17.9375 8.0 -1.6006 223
14.9453 6.667999999999999 -0.9492 176
60.1875 26.8594 -0.77 213
8.0781 3.5723000000000003 -1.5497999999999998 151
9.1797 4.0586 -1.5244 121
10.585899999999999 4.6797 -1.4834 83
99.875 44.1562 6.3515999999999995 52
12.656199999999998 5.5977 -1.4502000000000002 159
99.875 44.1875 8.9141 21
14.9219 6.6015999999999995 -1.3291 255
14.9297 6.605499999999999 -0.9473 138
14.9922 6.6328 -0.5708 193
8.1094 3.5507999999999997 -1.5527000000000002 70
9.1875 4.0273 -1.5234 191
10.6172 4.6523 -1.4853999999999998 81
99.875 43.75 6.3438 87
12.6797 5.5547 -1.4502000000000002 186
99.875 43.75 8.8984 74
14.9531 6.550800000000001 -1.3300999999999998 15
14.9375 6.542999999999999 -0.9462999999999999 131
14.9375 6.542999999999999 -0.5679 254
44.5938 19.5469 -0.5684 249
8.125 3.5293 -1.5547 202
9.2109 4.0 -1.5253999999999999 168
55.5312 24.125 2.1133 58
10.6328 4.6211 -1.4863 135
100.0 43.4375 6.3398 255
12.710899999999999 5.5234000000000005 -1.4521000000000002 207
99.8125 43.3438 8.8828 173
14.9375 6.488300000000001 -1.3262 226
14.8828 6.4648 -0.9414 64
14.8828 6.4648 -0.5649000000000001 225
44.75 19.4375 -0.5698 215
8.1406 3.5039 -1.5556999999999999 73
9.2188 3.9688 -1.5244 162
10.648399999999999 4.582 -1.4853999999999998 188
12.75 5.488300000000001 -1.4541 156
99.75 42.9375 8.8672 114
14.851600000000001 6.394500000000001 -1.3174000000000001 242
14.906199999999998 6.417999999999999 -0.9419 64
14.8906 6.4102 -0.564 214
61.4375 26.4375 -0.7812 179
8.1484 3.4707 -1.5547 199
61.4062 26.1562 0.7798 161
9.2422 3.9355 -1.5253999999999999 12
55.875 23.7969 2.1191 218
10.664100000000001 4.543 -1.4853999999999998 173
12.773399999999999 5.4414 -1.4541 224
99.8125 42.5 8.8594 109
14.8672 6.332000000000001 -1.3163999999999998 112
14.8906 6.3398 -0.9390000000000001 174
14.8594 6.328099999999999 -0.562 51
61.5312 26.2031 -0.7812 52
8.1719 3.4452999999999996 -1.5556999999999999 231
9.2578 3.9062 -1.5263999999999998 13
10.6953 4.5117 -1.4872999999999998 184
12.8047 5.3984000000000005 -1.4561000000000002 152
14.914100000000001 6.2890999999999995 -1.3184 184
14.8906 6.2812 -0.9375 21
14.8906 6.2812 -0.5625 16
8.1953 3.4238 -1.5586000000000002 43
9.2734 3.875 -1.5253999999999999 151
10.710899999999999 4.4727 -1.4872999999999998 237
12.835899999999999 5.363300000000001 -1.4569999999999999 55
99.875 41.7188 8.8359 95
14.968800000000002 6.2578 -1.3213 22
14.9531 6.25 -0.564 195
8.2109 3.3983999999999996 -1.5596 14
9.2656 3.8379000000000003 -1.5234 75
10.7344 4.4453 -1.4883000000000002 179
12.8281 5.3125 -1.4550999999999998 236
99.8125 41.3125 8.8203 36
14.9531 6.1914 -1.3184 179
15.0625 6.238300000000001 -0.9462999999999999 95
15.031199999999998 6.2227 -0.5664 150
8.2266 3.3691000000000004 -1.5596 247
9.3047 3.8086 -1.5263999999999998 213
10.7422 4.3984 -1.4883000000000002 145
12.8828 5.2773 -1.459 104
99.75 40.8438 8.7969 78
15.0469 6.1640999999999995 -1.3241999999999998 192
15.156199999999998 6.207000000000001 -0.9501999999999999 8
65.125 26.6719 -0.8223 51
8.2344 3.3398000000000003 -1.5596 236
9.3203 3.7793 -1.5272999999999999 71
10.75 4.3594 -1.4872999999999998 17
12.9219 5.238300000000001 -1.4609 164
99.75 40.4375 8.7891 205
15.1719 6.1523 -1.3330000000000002 111
15.226600000000001 6.171900000000001 -0.9531000000000001 160
16.1094 6.5312 -0.2024 14
8.2422 3.3105 -1.5586000000000002 0
16.1406 6.484400000000001 0.2025 224
9.3516 3.7539 -1.5303 24
16.1406 6.484400000000001 0.606 91
10.781199999999998 4.332 -1.4893 255
16.1719 6.4922 1.0107 64
12.9453 5.199199999999999 -1.4619 63
16.0938 6.4609000000000005 -1.4121000000000001 131
16.0938 6.4609000000000005 -1.0059 163
16.125 6.4765999999999995 -0.605 211
16.1094 6.4648 -0.20199999999999999 155
8.2578 3.2832 -1.5586000000000002 27
16.125 6.4140999999999995 0.20199999999999999 130
9.3594 3.7226999999999997 -1.5293 28
16.125 6.4102 0.604 31
10.8047 4.2969 -1.4902000000000002 174
16.1406 6.417999999999999 1.0078 104
12.960899999999999 5.1562 -1.4619 24
16.1406 6.417999999999999 1.415 104
16.125 6.417999999999999 -1.4141 13
16.125 6.4140999999999995 1.8193000000000001 80
16.1094 6.4102 -1.0068000000000001 162
16.1094 6.4102 2.2266 44
16.1094 6.4102 -0.6035 198
16.125 6.417999999999999 2.6406 237
16.1094 6.4062 -0.20190000000000002 240
16.125 6.4140999999999995 3.0526999999999997 250
8.2734 3.2577999999999996 -1.5605000000000002 189
16.1406 6.3515999999999995 0.20190000000000002 1
9.3594 3.6855 -1.5272999999999999 63
16.125 6.3477 0.603 138
10.8203 4.2617 -1.4902000000000002 16
16.1094 6.3438 1.0049 200
13.0 5.1172 -1.4638999999999998 71
16.0938 6.3398 1.4102000000000001 1
16.1406 6.355499999999999 -1.4131 165
16.125 6.3477 1.8163999999999998 66
16.1562 6.359400000000001 -1.0078 41
16.0938 6.3359000000000005 2.2188 35
16.125 6.3477 -0.6035 151
16.125 6.3477 2.6348000000000003 55
16.125 6.3477 -0.20170000000000002 48
16.125 6.3477 3.0469 34
8.3047 3.2382999999999997 -1.5644999999999998 212
16.1406 6.292999999999999 0.20170000000000002 59
9.375 3.6562 -1.5283000000000002 35
16.125 6.2852 0.6025 83
10.8281 4.2227 -1.4902000000000002 212
16.125 6.2890999999999995 1.0049 16
13.0469 5.0859 -1.4678 158
16.125 6.2852 1.4102000000000001 205
16.1875 6.3086 -1.415 18
16.1406 6.2890999999999995 1.8154 120
16.2188 6.3203 -1.0098 114
16.1094 6.2812 2.2188 205
16.1875 6.3125 -0.605 221
16.125 6.2890999999999995 2.6327999999999996 209
16.1562 6.300800000000001 -0.20190000000000002 48
16.1406 6.292999999999999 3.0469 181
8.2969 3.1992000000000003 -1.5605000000000002 23
16.2031 6.2461 0.2023 83
9.4062 3.625 -1.5303 169
16.1719 6.234400000000001 0.6035 228
10.851600000000001 4.1797 -1.4902000000000002 173
16.1562 6.230499999999999 1.0049 240
13.0703 5.0391 -1.4678 180
16.1562 6.2265999999999995 1.4102000000000001 252
16.2812 6.2773 -1.4219 66
16.1562 6.230499999999999 1.8154 184
19.25 7.421900000000001 -1.1973 157
16.1562 6.230499999999999 2.2227 189
16.3125 6.2890999999999995 -0.6089 66
16.1719 6.234400000000001 2.6367000000000003 74
16.2344 6.2539 -0.2025 105
16.1719 6.234400000000001 3.0507999999999997 122
8.3203 3.1738 -1.5635 237
16.2969 6.2188 0.20309999999999997 183
9.4141 3.5918 -1.5303 76
16.2656 6.203099999999999 0.606 226
10.875 4.1484 -1.4912 107
16.2344 6.1914 1.0078 246
13.1094 5.0 -1.4697 93
16.2344 6.1953 1.416 250
17.7344 6.761699999999999 -1.5459 135
16.2656 6.203099999999999 1.8252000000000002 117
19.2656 7.3515999999999995 -1.1973 85
16.2188 6.1875 2.2266 212
16.2656 6.203099999999999 2.6483999999999996 169
8.3359 3.1483999999999996 -1.5644999999999998 80
9.4219 3.5605 -1.5303 52
55.875 21.1094 2.084 88
10.8906 4.1133 -1.4912 36
13.1328 4.9609 -1.4707 29
100.0 37.7812 8.7344 206
17.75 6.707000000000001 -1.5469 187
19.2969 7.2852 -1.1973 117
8.3594 3.125 -1.5654 235
9.4453 3.5312 -1.5312000000000001 217
58.3125 21.7969 2.1719 172
10.906199999999998 4.0781 -1.4922 167
17.9375 6.707000000000001 1.1113 188
13.164100000000001 4.9219 -1.4727000000000001 212
17.7656 6.644500000000001 -1.5459 135
17.8281 6.6640999999999995 -0.6626000000000001 107
17.8125 6.6602 -0.2216 243
8.375 3.0957 -1.5663999999999998 216
17.8906 6.613300000000001 0.222 90
9.4688 3.5 -1.5332 248
17.8594 6.6015999999999995 0.6631 219
10.9219 4.0391 -1.4922 32
17.9531 6.636699999999999 1.1113 145
13.218800000000002 4.8867 -1.4766 158
17.8906 6.613300000000001 -1.5537 119
19.4688 7.199199999999999 -1.2051 251
17.8438 6.5977 -0.2217 38
8.3906 3.0702999999999996 -1.5684 253
9.4922 3.4726999999999997 -1.5352000000000001 84
17.9531 6.5703 0.6659999999999999 147
10.9297 3.9961 -1.4912 206
17.9375 6.5625 1.1094 26
13.25 4.8477 -1.4785 80
99.9375 36.5625 8.6875 155
17.9375 6.5625 -1.5566 38
19.5625 7.1523 -1.209 212
8.3906 3.0351999999999997 -1.5654 208
9.5078 3.4395 -1.5352000000000001 90
10.9531 3.9629000000000003 -1.4922 37
17.9375 6.488300000000001 1.1074 102
13.289100000000001 4.8086 -1.4805000000000001 119
100.0 36.1875 8.6875 137
18.0 6.515599999999999 -1.5605000000000002 135
19.7344 7.144500000000001 -1.2187999999999999 138
8.4062 3.0077999999999996 -1.5663999999999998 128
9.5156 3.4062 -1.5352000000000001 73
10.968800000000002 3.9257999999999997 -1.4931999999999999 23
13.2969 4.7578 -1.4794999999999998 146
99.875 35.75 8.6641 24
18.0781 6.4688 -1.5644999999999998 84
21.8125 7.8047 -0.27 135
8.4141 2.9805 -1.5663999999999998 116
9.5312 3.375 -1.5352000000000001 138
10.9844 3.8906 -1.4931999999999999 54
13.343800000000002 4.7266 -1.4834 165
99.875 35.375 8.6484 201
18.0938 6.4062 -1.5644999999999998 235
20.1719 7.140599999999999 -1.2422 106
8.4375 2.957 -1.5693000000000001 220
9.5469 3.3438 -1.5352000000000001 109
11.0 3.8535000000000004 -1.4941 212
71.0625 24.9062 4.3789 5
13.398399999999999 4.6953 -1.4872999999999998 149
99.875 35.0 8.6406 87
18.1562 6.363300000000001 -1.5684 54
8.4375 2.9219 -1.5663999999999998 250
9.5703 3.3125 -1.5371000000000001 41
11.023399999999999 3.8164 -1.4950999999999999 254
13.4297 4.6523 -1.4893 108
100.0 34.625 8.6406 96
18.2188 6.3086 -1.5713 155
8.4531 2.8945 -1.5684 172
9.5859 3.2812 -1.5381 160
11.031199999999998 3.7773000000000003 -1.4941 54
13.4453 4.6016 -1.4893 159
99.875 34.1875 8.6172 12
18.2812 6.2578 -1.5752000000000002 183
20.7031 7.0898 -0.7622 82
8.4688 2.8672000000000004 -1.5693000000000001 145
9.5703 3.2382999999999997 -1.5341999999999998 83
68.0625 23.0312 2.5078 74
11.0469 3.7382999999999997 -1.4950999999999999 108
68.375 23.1406 4.1953 6
13.468800000000002 4.5586 -1.4893 240
99.9375 33.8125 8.6094 172
18.3281 6.203099999999999 -1.5771000000000002 146
20.7188 7.015599999999999 -0.7622 29
8.4922 2.8398000000000003 -1.5713 5
9.5781 3.2031 -1.5332 203
67.8125 22.6875 2.4961 134
11.0703 3.7051 -1.4961000000000002 101
70.625 23.6406 4.332 73
13.5078 4.5195 -1.4931999999999999 171
99.8125 33.4062 8.5938 206
18.3594 6.144500000000001 -1.5781 153
20.7344 6.9375 -0.7617 59
8.5078 2.8125 -1.5722999999999998 200
9.6016 3.1757999999999997 -1.5352000000000001 25
11.093800000000002 3.668 -1.4971 164
68.375 22.6094 4.1875 104
13.5547 4.4844 -1.4961000000000002 23
99.8125 33.0312 8.5859 50
18.3906 6.082000000000001 -1.5791 6
20.9375 6.925800000000001 -0.7686 107
8.5234 2.7851999999999997 -1.5732 36
9.6172 3.1445 -1.5371000000000001 60
67.8125 22.1562 2.4902 85
11.093800000000002 3.625 -1.4950999999999999 235
68.375 22.3594 4.1836 155
13.5703 4.4336 -1.4961000000000002 160
99.8125 32.625 8.5781 51
18.4531 6.0312 -1.5819999999999999 115
15.406199999999998 5.0352 -0.9404 172
8.5234 2.752 -1.5713 29
9.6484 3.1151999999999997 -1.5391 64
11.1328 3.5957 -1.499 235
69.8125 22.5469 4.2656 148
13.6094 4.3945 -1.4980000000000002 164
15.2422 4.9219 -1.3047 20
15.3828 4.9688 -0.938 209
8.5547 2.7285000000000004 -1.5752000000000002 30
9.6484 3.0781 -1.5371000000000001 145
11.156199999999998 3.5605 -1.501 4
13.625 4.3477 -1.4980000000000002 193
100.9375 32.2188 8.6484 68
15.2578 4.8672 -1.3047 218
15.375 4.9062 -0.9365000000000001 63
8.5781 2.7051 -1.5781 210
9.6562 3.0449 -1.5371000000000001 217
67.625 21.3281 2.4746 232
11.1719 3.5233999999999996 -1.5019999999999998 235
69.4375 21.8906 4.2305 211
13.648399999999999 4.3047 -1.5 56
100.9375 31.8281 8.6406 45
18.625 5.875 -1.5918 132
15.3828 4.8516 -0.9359999999999999 186
15.5625 4.9062 -0.5679 97
8.5859 2.6757999999999997 -1.5791 42
101.0 31.4688 1.2363 92
9.6719 3.0117000000000003 -1.5381 9
68.0 21.1875 2.4863 15
11.1875 3.4844 -1.5019999999999998 54
101.0 31.4531 6.1523 124
13.6875 4.2617 -1.5019999999999998 51
18.6562 5.8086 -1.5918 177
15.3906 4.793 -0.9355 95
15.4922 4.8242 -0.5649000000000001 208
8.6016 2.6464999999999996 -1.5800999999999998 227
9.6875 2.9785000000000004 -1.5391 229
67.875 20.8906 2.4785 121
11.218800000000002 3.4512 -1.5038999999999998 242
13.718800000000002 4.2188 -1.5038999999999998 90
100.9375 31.0625 8.625 253
18.7031 5.7539 -1.5947 0
15.3906 4.7344 -0.9346 158
15.476600000000001 4.7617 -0.5635 91
15.5703 4.7891 -0.18960000000000002 24
8.6094 2.6151999999999997 -1.5791 142
9.7031 2.9492000000000003 -1.54 179
11.2422 3.4141000000000004 -1.5059 143
71.6875 21.7812 4.3555 20
13.7578 4.1797 -1.5059 147
18.75 5.699199999999999 -1.5977000000000001 62
15.406199999999998 4.6836 -0.9346 227
15.5156 4.7148 -0.5645 13
15.5625 4.7266 -0.1893 165
8.625 2.5918 -1.5811000000000002 24
9.7109 2.9160000000000004 -1.5391 88
11.2656 3.3848000000000003 -1.5078 178
13.7344 4.125 -1.5029 44
18.7812 5.640599999999999 -1.5977000000000001 60
15.4219 4.6328 -0.9346 195
15.523399999999999 4.6641 -0.564 182
15.5469 4.6719 -0.18899999999999997 83
8.6562 2.5683999999999996 -1.584 118
9.7109 2.8827999999999996 -1.5391 210
11.281199999999998 3.3495999999999997 -1.5088 55
13.8047 4.0977 -1.5088 118
15.726600000000001 4.668 -1.3359 106
15.460899999999999 4.5898 -0.9355 145
15.531199999999998 4.6094 -0.564 210
15.5703 4.6211 -0.18899999999999997 52
8.6641 2.5371 -1.584 194
9.75 2.8535000000000004 -1.5419999999999998 249
11.2969 3.3086 -1.5088 162
13.835899999999999 4.0508 -1.5107 233
15.710899999999999 4.6016 -1.334 119
15.539100000000001 4.5508 -0.9395 27
15.5 4.5391 -0.562 184
15.6797 4.5898 -0.1902 133
8.6719 2.5059 -1.584 219
9.7578 2.8202999999999996 -1.5430000000000001 39
11.3125 3.2695 -1.5088 243
107.6875 31.125 6.519500000000001 113
13.8594 4.0078 -1.5116999999999998 168
15.7422 4.5508 -1.335 37
15.5469 4.4922 -0.9390000000000001 157
15.5 4.4805 -0.5615 146
8.6797 2.4746 -1.584 118
9.7891 2.793 -1.5459 44
11.3203 3.2285000000000004 -1.5088 21
13.8906 3.9608999999999996 -1.5137 68
18.9844 5.417999999999999 -1.6094 12
25.7344 7.3398 -0.9326000000000001 182
8.6875 2.4453 -1.585 34
9.8125 2.7617000000000003 -1.5478999999999998 19
11.335899999999999 3.1895 -1.5088 215
13.906199999999998 3.9160000000000004 -1.5146000000000002 213
19.0156 5.355499999999999 -1.6103999999999998 29
25.75 7.25 -0.9326000000000001 251
14.9531 4.207 -0.1808 52
8.7109 2.418 -1.5859 179
9.8203 2.7266000000000004 -1.5469 81
11.3672 3.1562 -1.5116999999999998 246
13.9297 3.8672000000000004 -1.5146000000000002 235
14.7344 4.0938 -1.2451 85
14.914100000000001 4.1406 -0.8979 104
14.9297 4.1484 -0.5396 66
14.9219 4.1445 -0.1802 211
8.7188 2.3887 -1.5869 155
9.8203 2.6914 -1.5469 216
11.3594 3.1113 -1.5088 246
13.976600000000001 3.8301 -1.5186000000000002 80
14.75 4.0391 -1.2451 251
14.906199999999998 4.082 -0.8965000000000001 150
14.898399999999999 4.082 -0.5376 121
14.8906 4.0781 -0.1797 28
8.7188 2.3555 -1.585 169
9.8594 2.6641000000000004 -1.5508000000000002 113
11.3594 3.0683999999999996 -1.5078 47
14.0078 3.7851999999999997 -1.5205000000000002 97
19.1562 5.175800000000001 -1.6172 17
14.898399999999999 4.0234 -0.895 250
14.8906 4.0234 -0.5366 24
14.8828 4.0195 -0.1793 34
8.7188 2.3242 -1.584 14
9.8828 2.6327999999999996 -1.5527000000000002 77
11.3672 3.0293 -1.5078 70
14.0469 3.7422000000000004 -1.5234 92
19.1875 5.1133 -1.6181999999999999 106
14.9453 3.9824 -0.897 148
14.898399999999999 3.9688 -0.5366 186
14.8672 3.9629000000000003 -0.1791 224
8.75 2.2988 -1.5878999999999999 151
9.875 2.5957 -1.5508000000000002 208
11.414100000000001 2.998 -1.5127000000000002 220
14.0781 3.6973000000000003 -1.5253999999999999 248
19.2812 5.0664 -1.625 106
14.976600000000001 3.9355 -0.8984000000000001 221
14.8828 3.9101999999999997 -0.5356000000000001 145
14.898399999999999 3.9141000000000004 -0.17920000000000003 120
8.7578 2.2695 -1.5878999999999999 123
9.8672 2.5566 -1.5478999999999998 22
11.414100000000001 2.957 -1.5107 35
14.093800000000002 3.6504000000000003 -1.5263999999999998 164
19.2969 4.9961 -1.624 188
15.023399999999999 3.8906 -0.9004000000000001 61
14.8828 3.8555 -0.5352 105
14.898399999999999 3.8594 -0.1791 56
8.7812 2.2441 -1.5908000000000002 99
9.8906 2.5273 -1.5497999999999998 227
11.398399999999999 2.9120999999999997 -1.5078 216
14.125 3.6094 -1.5283000000000002 90
15.2344 3.8926 -1.2803 71
15.0781 3.8516000000000004 -0.9028 104
14.851600000000001 3.7949 -0.5337 163
14.898399999999999 3.8066000000000004 -0.179 171
8.7812 2.2129 -1.5897999999999999 15
9.9062 2.4941 -1.5508000000000002 214
11.414100000000001 2.875 -1.5078 170
14.164100000000001 3.5683999999999996 -1.5303 113
15.273399999999999 3.8476999999999997 -1.2832 80
15.1328 3.8125 -0.9053 71
14.875 3.748 -0.5337 28
14.8594 3.7441000000000004 -0.1783 185
8.7891 2.1797 -1.5897999999999999 122
9.9219 2.4609 -1.5518 43
11.4297 2.8358999999999996 -1.5097999999999998 162
14.1797 3.5176 -1.5312000000000001 147
19.5156 4.8398 -1.6387 193
25.2969 6.2773 -1.5137 190
14.875 3.6895 -0.5332 230
14.9297 3.7031 -0.179 241
8.8203 2.1543 -1.5928 141
25.3594 6.1953 0.3044 115
9.9297 2.4258 -1.5527000000000002 135
25.3125 6.1875 0.9081999999999999 20
11.4531 2.7988 -1.5107 226
25.3594 6.1953 1.5166 240
14.1953 3.4688 -1.5312000000000001 91
19.5312 4.7695 -1.6387 34
25.2969 6.1797 -1.5127000000000002 23
25.3281 6.1875 3.3476999999999997 8
14.8828 3.6367000000000003 -0.5332 45
25.3281 6.1875 3.9688 187
14.9844 3.6601999999999997 -0.1794 230
25.2969 6.1797 4.5859 222
8.8281 2.125 -1.5937999999999999 39
25.3125 6.0898 0.3035 69
9.9375 2.3906 -1.5518 195
25.2812 6.0859000000000005 0.9062 183
11.468800000000002 2.7598000000000003 -1.5116999999999998 60
25.3125 6.0898 1.5116999999999998 53
14.226600000000001 3.4219 -1.5332 241
25.2812 6.0859000000000005 2.1211 140
19.5938 4.7148 -1.6425999999999998 196
25.2969 6.0859000000000005 2.7305 48
25.375 6.105499999999999 -1.5156 160
25.2812 6.082000000000001 3.3398000000000003 215
14.976600000000001 3.6035000000000004 -0.5361 2
25.2969 6.0859000000000005 3.9608999999999996 59
25.3125 6.0898 -0.3035 107
25.2969 6.0859000000000005 4.582 5
8.8516 2.0977 -1.5966999999999998 13
25.3438 6.0078 0.3037 112
9.9531 2.3594 -1.5537 35
25.2969 5.9922 0.9062 142
11.476600000000001 2.7207 -1.5116999999999998 17
25.3281 6.0 1.5116999999999998 169
14.25 3.377 -1.5341999999999998 232
25.2969 5.9961 2.1211 6
19.6562 4.6602 -1.6465 122
25.2969 5.9961 2.7285000000000004 122
25.2969 5.9961 3.3398000000000003 180
25.4688 6.0352 -0.9120999999999999 180
25.3125 5.9961 3.9589999999999996 198
25.375 6.011699999999999 -0.304 36
25.3125 6.0 4.582 76
8.8594 2.0664 -1.5966999999999998 175
9.9688 2.3262 -1.5547 61
25.3906 5.921900000000001 0.9087000000000001 167
11.4844 2.6776999999999997 -1.5107 56
25.3906 5.925800000000001 1.5146000000000002 171
12.6875 2.9608999999999996 -1.3652000000000002 77
25.375 5.917999999999999 2.125 98
12.6797 2.957 -1.0595999999999999 130
12.5625 2.9297000000000004 1.3516 125
12.656199999999998 2.9531 -0.7539 17
12.5781 2.9355 1.6562000000000001 251
25.4844 5.9453 3.9844 8
25.4219 5.9297 4.5938 24
8.8672 2.0371 -1.5966999999999998 150
10.0 2.2969 -1.5586000000000002 49
11.5 2.6406 -1.5127000000000002 236
12.6797 2.9120999999999997 -1.3633000000000002 224
12.6797 2.9120999999999997 -1.0595999999999999 193
12.601600000000001 2.8945 1.3544999999999998 39
12.6797 2.9101999999999997 -0.7544 88
12.5703 2.8867000000000003 1.6543 83
