# .PCD v0.7 - Point Cloud Data file format
VERSION 0.7
FIELDS x y z intensity
SIZE 4 4 4 4
TYPE F F F F
COUNT 1 1 1 1
WIDTH 1335
HEIGHT 1
VIEWPOINT 0 0 0 1 0 0 0
POINTS 1335
DATA ascii
-26.9062 25.5 2.1543 173
-3.8887 3.6855 -0.5586 136
-28.5938 27.1094 3.2148000000000003 253
-3.8358999999999996 3.6367000000000003 -0.4282 3
-26.4688 25.0938 3.8281 130
-3.8983999999999996 3.6973000000000003 -0.3098 163
-25.7812 24.4531 4.5664 123
-26.1562 24.7969 5.488300000000001 225
-0.5571 0.5317000000000001 -0.1284 6
-0.6509 0.6211 -0.1307 246
-4.082 3.8945 0.19519999999999998 79
-3.8105 3.6367000000000003 -0.6718999999999999 181
-42.4688 40.5312 3.4141000000000004 205
-3.8672000000000004 3.6895 -0.5571 16
-28.4062 27.1094 3.2051 240
-3.8223000000000003 3.6483999999999996 -0.428 104
-26.3438 25.1406 3.8223000000000003 185
-3.873 3.6952999999999996 -0.30879999999999996 112
-25.5312 24.3594 4.5352 244
-25.9219 24.7344 5.457000000000001 106
-0.5693 0.5474 -0.1318 133
-4.043 3.8887 0.1941 115
-3.8026999999999997 3.6562 -0.6729 204
-42.5 40.8438 3.4276999999999997 194
-3.8281 3.6797000000000004 -0.5537 131
-26.6719 25.6406 3.0176 170
-3.8066000000000004 3.6601999999999997 -0.4277 193
-28.2344 27.1406 4.1094 35
-3.8651999999999997 3.7148000000000003 -0.3093 28
-25.5938 24.5938 4.5625 5
-25.875 24.8594 5.4648 251
-0.5761999999999999 0.5576 -0.13390000000000002 110
-4.0273 3.8964999999999996 0.1938 81
-42.5312 41.1875 3.4414 85
-25.9844 25.1562 2.9512 164
-3.7754000000000003 3.6543 -0.4255 244
-27.9688 27.0781 4.0859 249
-3.8555 3.7324 -0.3096 76
-26.0 25.1719 4.6484 19
-25.7656 24.9531 5.4648 203
-0.5513 0.5376 -0.1284 246
-3.998 3.8964999999999996 0.1931 154
-42.6562 41.5938 3.4648000000000003 38
-26.7969 26.125 3.0526999999999997 121
-3.752 3.6582 -0.4243 166
-26.3594 25.7031 3.8651999999999997 238
-3.8125 3.7168 -0.3071 209
-26.2031 25.5312 4.6992 200
-0.5722999999999999 0.5615 -0.13390000000000002 40
-3.9688 3.8964999999999996 0.1925 38
-3.7324 3.6641000000000004 -0.6675 96
-3.7832 3.7148000000000003 -0.5527000000000001 1
-26.6875 26.2031 3.0507999999999997 128
-3.7382999999999997 3.6699 -0.4243 189
-26.1562 25.6719 3.8457 3
-3.8007999999999997 3.7305 -0.3071 61
-26.0 25.5156 4.6797 181
-0.5532 0.5468999999999999 -0.1298 241
-3.9414 3.8964999999999996 0.1918 14
-3.7245999999999997 3.6816000000000004 -0.6679999999999999 181
-60.5 59.8438 4.9492 255
-3.7539 3.7108999999999996 -0.5503 227
-26.0312 25.75 2.9863 236
-3.7285000000000004 3.6875 -0.42479999999999996 169
-25.9688 25.6875 3.8339999999999996 202
-3.7812 3.7382999999999997 -0.3066 46
-25.7656 25.4844 4.6562 139
-0.5820000000000001 0.5796 -0.1375 167
-3.9160000000000004 3.9004000000000003 0.1912 70
-3.707 3.6933999999999996 -0.6675 222
-60.0625 59.8125 4.9297 127
-3.7344 3.7188 -0.5493 86
-25.8125 25.7031 2.9726999999999997 104
-3.7108999999999996 3.6952999999999996 -0.4241 163
-25.8281 25.7344 3.8281 6
-3.7656 3.748 -0.3064 192
-25.6719 25.5625 4.6562 177
-4.4531 4.4336 -0.0726 124
-0.5801 0.5815 -0.1375 62
-3.7051 3.7129000000000003 -0.7935 58
-3.8926 3.9004000000000003 0.1907 41
-3.6914 3.6992000000000003 -0.6665000000000001 31
-59.6562 59.7812 4.9102 179
-3.7129000000000003 3.7207 -0.5478999999999999 194
-25.8125 25.875 2.9824 71
-3.6855 3.6933999999999996 -0.4224 130
-25.7656 25.8125 3.8281 31
-3.7441000000000004 3.752 -0.3057 133
-25.1406 25.2031 4.5742 168
-0.5698 0.5747 -0.1354 3
-3.7207 3.7539 -0.7993000000000001 224
-3.8535000000000004 3.8887 0.1893 85
-3.668 3.7012 -0.665 254
-59.25 59.7812 4.8945 247
-3.7031 3.7363 -0.5483 76
-25.9844 26.2188 3.0117000000000003 83
-3.6641000000000004 3.6952999999999996 -0.4214 222
-27.375 27.6094 4.082 54
-3.7207 3.7539 -0.3049 171
-25.0469 25.2656 4.5703 195
-0.5513 0.5600999999999999 -0.13119999999999998 206
-3.6562 3.7168 -0.7886 55
-3.8555 3.918 0.1902 81
-3.623 3.6816000000000004 -0.6592 157
-58.8125 59.7812 4.875 195
-3.6757999999999997 3.7363 -0.5464 207
-25.5 25.9219 2.9668 198
-3.6445 3.7031 -0.42090000000000005 100
-26.5625 26.9844 3.9745999999999997 28
-3.7129000000000003 3.7733999999999996 -0.30519999999999997 134
-26.0469 26.4688 4.7695 92
-4.4102 4.4805 -0.0726 241
-0.5493 0.562 -0.13119999999999998 37
-3.6406 3.7266000000000004 -0.7881 28
-3.8242000000000003 3.9141000000000004 0.1893 1
-3.6113 3.6952999999999996 -0.6592 112
-58.4062 59.7812 4.8594 30
-3.6562 3.7422000000000004 -0.5454 20
-3.6348000000000003 3.7188 -0.4211 191
-26.7344 27.3594 4.0156 41
-3.6855 3.7714999999999996 -0.3042 78
-26.4219 27.0312 4.8555 75
-4.375 4.4766 -0.0723 112
-0.5498 0.5669 -0.1318 104
-3.6055 3.7168 -0.7831999999999999 183
-3.8105 3.9276999999999997 0.1893 39
-3.5839999999999996 3.6933999999999996 -0.6562 99
-57.9688 59.75 4.8398 170
-3.6094 3.7188 -0.54 103
-3.6191000000000004 3.7285000000000004 -0.42090000000000005 250
-25.7344 26.5156 3.8808999999999996 44
-3.6660000000000004 3.7793 -0.3037 169
-25.7031 26.4844 4.7422 69
-4.3789 4.5117 -0.0726 3
-0.5674 0.5884 -0.1367 233
-3.5547000000000004 3.6895 -0.7744 20
-3.7773000000000003 3.9199 0.1884 64
-3.5742000000000003 3.7089999999999996 -0.6567000000000001 237
-57.5938 59.75 4.8242 242
-3.5976999999999997 3.7324 -0.54 187
-3.5918 3.7285000000000004 -0.4192 170
-25.75 26.7188 3.8945 193
-3.6582 3.7969 -0.3042 250
-24.9375 25.8906 4.6172 112
-0.5649000000000001 0.5903 -0.1367 190
-3.5664 3.7266000000000004 -0.7803 185
-3.7558999999999996 3.9257999999999997 0.18789999999999998 141
-3.5526999999999997 3.7108999999999996 -0.6553 54
-57.1875 59.75 4.8086 179
-3.5879000000000003 3.75 -0.541 194
-26.9531 28.1719 3.1816000000000004 219
-3.5702999999999996 3.7305 -0.418 51
-25.6406 26.7969 3.8926 175
-3.6367000000000003 3.8007999999999997 -0.3035 220
-24.9688 26.0938 4.6406 160
-0.5439 0.5728 -0.1318 112
-3.5664 3.7539 -0.7831999999999999 12
-3.748 3.9433999999999996 0.1882 214
-3.5293 3.7148000000000003 -0.6537999999999999 0
-56.75 59.7188 4.793 235
-3.5645 3.752 -0.5396 37
-26.6875 28.0781 3.1601999999999997 136
-3.5566000000000004 3.7422000000000004 -0.418 145
-25.6719 27.0156 3.9141000000000004 205
-3.6113 3.7988 -0.30219999999999997 234
-24.875 26.1719 4.6367 127
-0.561 0.5947 -0.1367 21
-3.5312 3.7422000000000004 -0.7783 216
-3.7285000000000004 3.9512 0.18789999999999998 79
-3.5156 3.7266000000000004 -0.6537999999999999 179
-56.375 59.75 4.7773 25
-3.5391000000000004 3.75 -0.5371 123
-26.6094 28.2031 3.1641000000000004 67
-3.5410000000000004 3.752 -0.4177 135
-25.5312 27.0625 3.9062 240
-3.5898000000000003 3.8026999999999997 -0.3015 13
-24.875 26.3594 4.6562 255
-0.5722999999999999 0.6108 -0.14029999999999998 95
-3.5117000000000003 3.748 -0.7768999999999999 141
-3.7129000000000003 3.9608999999999996 0.1877 68
-3.5058999999999996 3.7422000000000004 -0.6543000000000001 186
-55.9375 59.6875 4.7578 75
-3.5176 3.7539 -0.5361 12
-26.4688 28.2344 3.1582 10
-3.5391000000000004 3.7754000000000003 -0.4189 133
-25.4844 27.1875 3.9120999999999997 106
-3.582 3.8223000000000003 -0.302 10
-24.7812 26.4531 4.6562 177
-0.5596 0.6011 -0.1375 57
-3.4844 3.7441000000000004 -0.7734000000000001 84
-3.6933999999999996 3.9688 0.1875 174
-3.4863 3.7461 -0.6528 70
-55.5625 59.7188 4.7422 133
-3.498 3.7577999999999996 -0.5352 78
-26.4062 28.375 3.1620999999999997 46
-3.5058999999999996 3.7676 -0.4167 223
-25.2812 27.1719 3.8964999999999996 96
-3.5625 3.8281 -0.3015 192
-0.5679 0.6147 -0.14029999999999998 177
-3.4707 3.7558999999999996 -0.7734000000000001 113
-3.6641000000000004 3.9648000000000003 0.1868 132
-3.4648000000000003 3.75 -0.6514 23
-55.125 59.6562 4.7227 168
-3.4941000000000004 3.7812 -0.5366 41
-3.4863 3.7733999999999996 -0.41600000000000004 45
-25.0938 27.1562 3.8827999999999996 7
-3.5469 3.8379000000000003 -0.3013 202
-3.5195 3.8358999999999996 -0.9106000000000001 32
-3.457 3.7676 -0.7729 17
-3.6562 3.9844 0.18710000000000002 131
-3.4512 3.7598000000000003 -0.6509 180
-54.7812 59.6875 4.7109 110
-3.4745999999999997 3.7870999999999997 -0.5356000000000001 180
-3.4726999999999997 3.7851999999999997 -0.41600000000000004 97
-25.8125 28.125 4.0078 118
-3.5273000000000003 3.8438 -0.30079999999999996 191
-3.4608999999999996 3.7988 -0.8989 95
-3.4414 3.7773000000000003 -0.7729 144
-3.6504000000000003 4.0078 0.1875 80
-3.4355 3.7714999999999996 -0.6509 154
-54.375 59.6875 4.6953 77
-3.4531 3.7891000000000004 -0.5342 234
-3.4648000000000003 3.8007999999999997 -0.4165 173
-24.9375 27.375 3.8867000000000003 209
-3.5039 3.8438 -0.3 1
-3.4336 3.7949 -0.895 241
-3.4160000000000004 3.7754000000000003 -0.77 128
-3.6289 4.0117 0.18710000000000002 81
-3.4199 3.7793 -0.6504000000000001 255
-53.9688 59.6562 4.6797 18
-3.4316000000000004 3.7910000000000004 -0.5327000000000001 107
-53.9062 59.5625 6.5586 175
-3.4473000000000003 3.8105 -0.41600000000000004 80
-25.75 28.4688 4.0312 146
-3.4863 3.8535000000000004 -0.2998 84
-3.4160000000000004 3.8026999999999997 -0.894 70
-3.3926 3.7773000000000003 -0.7676000000000001 17
-3.6016000000000004 4.0078 0.1864 34
-3.4023000000000003 3.7870999999999997 -0.6494 36
-53.5938 59.6562 4.6641 151
-3.4219 3.8086 -0.5337 198
-53.5 59.5625 6.5352 124
-3.4297000000000004 3.8164 -0.4155 137
-25.6719 28.5625 4.0312 142
-3.4844 3.877 -0.3005 69
-3.4082 3.8183999999999996 -0.895 63
-3.3848000000000003 3.793 -0.7686 133
-3.582 4.0117 0.18600000000000003 61
-3.3848000000000003 3.7910000000000004 -0.6484000000000001 226
-53.25 59.6562 4.6484 21
-3.4004000000000003 3.8105 -0.5322 210
-53.125 59.5312 6.515599999999999 236
-3.4101999999999997 3.8202999999999996 -0.4146 192
-3.4745999999999997 3.8926 -0.30079999999999996 82
-3.377 3.8105 -0.8901 106
-3.3691000000000004 3.7988 -0.7676000000000001 94
-3.582 4.0391 0.1868 170
-3.3613 3.7910000000000004 -0.6459999999999999 118
-52.8438 59.5938 4.6328 56
-3.3945 3.8281 -0.5332 247
-52.75 59.5 6.4922 88
-3.3926 3.8281 -0.41409999999999997 250
-3.4589999999999996 3.9004000000000003 -0.3005 9
-3.3555 3.8125 -0.8876999999999999 95
-3.3535000000000004 3.8105 -0.7676000000000001 90
-3.5702999999999996 4.0547 0.1869 107
-3.3516000000000004 3.8086 -0.6475 30
-52.4688 59.625 4.6172 31
-3.3789 3.8398000000000003 -0.5327000000000001 133
-52.375 59.5 6.4727 163
-3.3808999999999996 3.8418 -0.4143 26
-3.4414 3.9101999999999997 -0.3003 110
-3.5586 4.043 -0.0621 49
-3.3495999999999997 3.832 -0.8901 185
-3.3379000000000003 3.8202999999999996 -0.7670999999999999 80
-3.5469 4.0586 0.1864 219
-3.3398000000000003 3.8223000000000003 -0.6475 42
-52.0938 59.625 4.6055 148
-3.3476999999999997 3.832 -0.5303 157
-52.0 59.5 6.453099999999999 201
-3.3651999999999997 3.8495999999999997 -0.41409999999999997 242
-3.4199 3.9141000000000004 -0.2998 34
-3.3398000000000003 3.8476999999999997 -0.8911 39
-3.3145 3.8202999999999996 -0.7646 44
-3.5332 4.0703 0.1864 131
-3.3262 3.832 -0.6475 233
-51.7188 59.5938 4.5898 9
-3.3418 3.8495999999999997 -0.5312 156
-51.6562 59.5312 6.4336 189
-3.3516000000000004 3.8613 -0.41409999999999997 243
-3.4120999999999997 3.9316000000000004 -0.3 200
-3.3164 3.8495999999999997 -0.8887 109
-3.3026999999999997 3.832 -0.7651 241
-3.5233999999999996 4.0898 0.1868 58
-3.3066000000000004 3.8379000000000003 -0.6459999999999999 57
-51.3438 59.5938 4.5742 253
-3.3281 3.8613 -0.5312 170
-51.2812 59.5312 6.4140999999999995 167
-3.3301 3.8651999999999997 -0.4131 24
-3.3945 3.9395 -0.3 166
-3.5156 4.0781 -0.0621 99
-3.2617000000000003 3.8125 -0.8774 163
-3.293 3.8495999999999997 -0.7661 204
-3.5195 4.1133 0.1873 116
-3.2851999999999997 3.8398000000000003 -0.6445000000000001 168
-50.9688 59.5938 4.5586 214
-3.3145 3.873 -0.5312 42
-50.9062 59.5 6.390599999999999 94
-3.3164 3.875 -0.4131 119
-3.3651999999999997 3.9336 -0.2986 246
-3.2285000000000004 3.8007999999999997 -0.8721 69
-3.2851999999999997 3.8672000000000004 -0.7676000000000001 222
-3.5058999999999996 4.125 0.1873 92
-3.2695 3.8495999999999997 -0.644 136
-50.625 59.5938 4.5469 22
-3.2891000000000004 3.8711 -0.5293 224
-50.5312 59.4688 6.3711 67
-3.3086 3.8945 -0.41359999999999997 27
-3.3594 3.9551 -0.2993 161
-3.2089999999999996 3.8007999999999997 -0.8695999999999999 187
-3.2558999999999996 3.8574 -0.7631999999999999 242
-3.4961 4.1406 0.18739999999999998 29
-50.25 59.5312 4.5312 207
-50.2188 59.4688 6.355499999999999 0
-3.3105 3.9199 -0.4155 166
-3.3242000000000003 3.9375 -0.29710000000000003 200
-3.375 3.9961 -0.1809 34
-3.4141000000000004 4.0469 -0.061 26
-3.2031 3.8202999999999996 -0.8715999999999999 112
-3.2382999999999997 3.8613 -0.7622 100
-3.4745999999999997 4.1445 0.187 223
-3.2793 3.9101999999999997 -0.6509 73
-49.9062 59.5312 4.5156 122
-49.8438 59.4375 6.332000000000001 91
-3.3281 3.9707 -0.2988 131
-3.3398000000000003 3.9844 -0.1797 85
-3.3691000000000004 4.0195 -0.0604 102
-3.1895 3.832 -0.8715999999999999 112
-3.4316000000000004 4.125 0.061900000000000004 214
-3.2245999999999997 3.873 -0.7622 219
-3.4688 4.168 0.18760000000000002 143
-49.5312 59.5312 4.5039 45
-3.2733999999999996 3.9316000000000004 -0.5332 166
-49.4375 59.4062 6.3125 58
-3.2988 3.9629000000000003 -0.2974 70
-3.3301 4.0 -0.17989999999999998 234
-3.3476999999999997 4.0234 -0.0603 248
-3.1738 3.8418 -0.8711 45
-3.4101999999999997 4.125 0.0617 223
-3.2148000000000003 3.8906 -0.7631999999999999 176
-3.4745999999999997 4.2031 0.1887 239
-3.2344 3.9141000000000004 -0.6479 5
-49.1875 59.5 4.4883 191
-49.125 59.4375 6.296900000000001 62
-3.2695 3.9551 -0.2959 66
-3.3164 4.0117 -0.17989999999999998 195
-3.3242000000000003 4.0234 -0.0602 111
-3.1601999999999997 3.8535000000000004 -0.8711 72
-3.3964999999999996 4.1406 0.0617 227
-3.2031 3.9062 -0.7637 170
-3.457 4.2148 0.1886 83
-3.2539 3.9668 -0.6543000000000001 75
-48.8125 59.5 4.4766 194
-3.2441000000000004 3.9551 -0.5332 22
-48.7188 59.4062 6.2734000000000005 232
-3.2461 3.957 -0.4146 240
-3.25 3.9629000000000003 -0.2954 9
-3.3105 4.0352 -0.1804 157
-3.3262 4.0547 -0.0605 247
-3.1543 3.873 -0.8734999999999999 11
-3.3711 4.1406 0.061500000000000006 94
-3.1933999999999996 3.9199 -0.7642 199
-3.4452999999999996 4.2305 0.1887 35
-3.25 3.9922000000000004 -0.6567000000000001 213
-48.4375 59.5 4.4609 182
-3.2188 3.9512 -0.5307999999999999 222
-48.4062 59.4375 6.2578 85
-3.2305 3.9668 -0.41409999999999997 71
-3.2558999999999996 3.998 -0.2974 228
-3.2870999999999997 4.0391 -0.1801 84
-3.3242000000000003 4.082 -0.060700000000000004 198
-3.1601999999999997 3.9082 -0.8789 87
-3.3789 4.1797 0.062 124
-3.1816000000000004 3.9336 -0.7651 80
-3.4297000000000004 4.2422 0.1887 178
-3.2461 4.0117 -0.6581999999999999 78
-48.0938 59.4688 4.4492 179
-3.1933999999999996 3.9492000000000003 -0.5293 133
-48.0312 59.4062 6.238300000000001 236
-3.207 3.9668 -0.4131 136
-20.2812 25.0938 3.3867000000000003 203
-3.2461 4.0117 -0.29760000000000003 179
-3.2773000000000003 4.0508 -0.1802 202
-3.3125 4.0977 -0.060700000000000004 241
-3.1562 3.9316000000000004 -0.8818 212
-3.377 4.207 0.0622 190
-3.1816000000000004 3.9629000000000003 -0.7686 76
-3.4199 4.2578 0.18899999999999997 114
-3.2089999999999996 3.9961 -0.6537999999999999 43
-47.75 59.5 4.4375 156
-47.6875 59.4062 6.2188 43
-20.2188 25.1719 3.3887 168
-3.2422000000000004 4.0352 -0.2986 110
-3.2754000000000003 4.0781 -0.1809 216
-3.3026999999999997 4.1133 -0.0608 251
-3.1406 3.9375 -0.8809 75
-3.3672000000000004 4.2227 0.0623 55
-3.1719 3.9766000000000004 -0.769 197
-3.4551 4.332 0.1918 247
-47.4062 59.4688 4.4219 42
-47.3438 59.375 6.203099999999999 157
-20.2344 25.375 3.4062 142
-3.2344 4.0547 -0.2991 169
-3.2656 4.0977 -0.1812 192
-18.9219 23.7344 4.625 94
-3.2870999999999997 4.125 -0.0608 159
-3.1445 3.9707 -0.8856999999999999 5
-3.3613 4.2422 0.062400000000000004 189
-3.1855 4.0234 -0.7759 143
-3.4414 4.3438 0.1918 70
-3.1992000000000003 4.0391 -0.6572 104
-47.0625 59.4375 4.4062 221
-3.2324 4.082 -0.5425 121
-18.5938 23.4844 2.4434 212
-19.75 24.9219 3.3379000000000003 136
-3.2266000000000004 4.0742 -0.2998 50
-3.2754000000000003 4.1367 -0.18239999999999998 48
-18.8438 23.7812 4.6211 106
-3.3007999999999997 4.168 -0.0613 221
-3.1523000000000003 4.0117 -0.8920999999999999 89
-3.3983999999999996 4.3242 0.0634 112
-3.1699 4.0352 -0.7759 86
-3.4433999999999996 4.3828 0.1929 28
-3.1719 4.0352 -0.6548 21
-46.7188 59.4375 4.3945 20
-3.1973000000000003 4.0664 -0.5390999999999999 163
-18.5312 23.5781 2.4453 239
-3.2108999999999996 4.0859 -0.42090000000000005 189
-19.7656 25.1406 3.3555 86
-3.2207 4.0977 -0.3005 73
-3.2558999999999996 4.1445 -0.18230000000000002 188
-18.8906 24.0312 4.6562 158
-3.293 4.1914 -0.061399999999999996 227
-3.1601999999999997 4.0508 -0.8989 240
-3.4336 4.4023 0.0644 239
-3.1757999999999997 4.0703 -0.7807999999999999 73
-3.4805 4.4609 0.19579999999999997 15
-3.1738 4.0664 -0.6581999999999999 95
-46.375 59.4375 4.3828 236
-3.2012 4.1016 -0.5425 151
-18.4375 23.625 2.4434 160
-3.2051 4.1094 -0.4219 220
-19.4844 24.9844 3.3262 204
-3.2148000000000003 4.1211 -0.3013 230
-18.8594 24.1719 3.9375 129
-3.2812 4.207 -0.1844 145
-18.7812 24.0625 4.6484 231
-3.3202999999999996 4.2539 -0.0622 163
-3.1641000000000004 4.0859 -0.9033 76
-3.1620999999999997 4.082 -0.7807999999999999 64
-3.4648000000000003 4.4727 0.19579999999999997 251
-3.168 4.0898 -0.6602 58
-46.0625 59.4688 4.375 244
-3.1914 4.1211 -0.5435 115
-18.75 24.2031 2.498 192
-3.1875 4.1172 -0.4216 3
-19.5312 25.2188 3.3476999999999997 202
-3.2441000000000004 4.1875 -0.3054 75
-18.75 24.2031 3.9336 203
-3.3125 4.2773 -0.18710000000000002 28
-3.1719 4.125 -0.9097 14
-3.1933999999999996 4.1523 -0.792 158
-3.4766000000000004 4.5195 0.1974 117
-3.1601999999999997 4.1094 -0.6611 150
-45.7188 59.4375 4.3594 172
-3.1836 4.1406 -0.5439 185
-18.625 24.2188 2.4922 208
-19.2812 25.0781 3.3202999999999996 154
-3.2539 4.2305 -0.3079 0
-18.6875 24.3125 3.9395 115
-17.8281 23.1719 4.4531 62
-3.1699 4.1484 -0.9131 38
-3.1992000000000003 4.1875 -0.7968999999999999 97
-3.4863 4.5625 0.19870000000000002 35
-3.1620999999999997 4.1406 -0.6646 250
-45.375 59.4062 4.3477 54
-3.2245999999999997 4.2188 -0.5537 252
-18.5625 24.2969 2.4941 98
-3.2148000000000003 4.207 -0.42869999999999997 13
-19.1094 25.0156 3.3047000000000004 154
-3.2733999999999996 4.2852 -0.311 107
-17.5938 23.0312 3.7226999999999997 169
-17.6719 23.125 4.4297 206
-3.1875 4.1992 -0.9224 61
-3.2108999999999996 4.2305 -0.8037000000000001 0
-3.5077999999999996 4.6211 0.20079999999999998 254
-3.1855 4.1953 -0.6724 139
-45.0312 59.375 4.332 75
-3.2266000000000004 4.2539 -0.5566 114
-18.3594 24.1875 2.4766 229
-3.2188 4.2422 -0.4314 121
-18.9219 24.9375 3.2851999999999997 120
-3.2363 4.2656 -0.30879999999999996 121
-17.5469 23.125 3.7285000000000004 203
-17.5781 23.1719 4.4297 50
-3.1973000000000003 4.2461 -0.9301999999999999 85
-3.2012 4.25 -0.8047 195
-3.498 4.6445 0.20129999999999998 163
-3.207 4.2578 -0.6801999999999999 65
-44.7188 59.4062 4.3242 17
-3.2108999999999996 4.2656 -0.5566 241
-18.1875 24.1406 2.4648 36
-3.2168 4.2695 -0.43310000000000004 132
-19.1875 25.4844 3.3476999999999997 35
-3.2656 4.3359 -0.3132 218
-17.8125 23.6406 3.8026999999999997 247
-17.5938 23.3594 4.4531 107
-3.207 4.2891 -0.937 129
-3.2207 4.3086 -0.8140000000000001 106
-3.5273000000000003 4.7188 0.2039 145
-3.2168 4.3008 -0.6855 30
-44.4062 59.4062 4.3125 61
-3.2148000000000003 4.3008 -0.5600999999999999 44
-44.3125 59.2812 6.042999999999999 72
-3.2129000000000003 4.2969 -0.4346 249
-17.4375 23.3281 3.0566000000000004 76
-3.2714999999999996 4.375 -0.3152 205
-17.7812 23.7969 3.8164 156
-17.8906 23.9219 4.5508 49
-3.2012 4.3125 -0.9395 224
-3.2305 4.3516 -0.8198000000000001 187
-3.5410000000000004 4.7734 0.2057 128
-3.2089999999999996 4.3242 -0.687 188
-44.0938 59.4062 4.3008 55
-3.2558999999999996 4.3867 -0.5693 181
-44.0 59.2812 6.0273 115
-3.2168 4.3359 -0.43729999999999997 220
-17.7656 23.9531 3.1289 11
-3.2637 4.3984 -0.3159 245
-17.75 23.9219 3.8281 248
-3.1992000000000003 4.3398 -0.9434 71
-3.2245999999999997 4.375 -0.8223 130
-3.2012 4.3438 -0.6884999999999999 1
-43.75 59.375 4.2891 126
-3.252 4.4141 -0.5718 159
-43.6562 59.25 6.0078 220
-3.2422000000000004 4.4023 -0.4429 191
-17.3906 23.6094 3.0762 238
-3.2656 4.4336 -0.3176 224
-18.2969 24.8438 3.9648000000000003 157
-3.1973000000000003 4.3711 -0.9478 90
-3.2188 4.3984 -0.8247 31
-3.2226999999999997 4.4062 -0.6968000000000001 40
-43.4062 59.3438 4.2773 175
-3.2441000000000004 4.4336 -0.5728 63
-43.375 59.2812 5.9961 150
-3.2441000000000004 4.4336 -0.4451 251
-17.2969 23.6406 3.0742000000000003 37
-3.2695 4.4688 -0.3193 243
-18.2344 24.9375 3.9688 210
-17.8906 24.4531 4.6133 24
-3.1992000000000003 4.4062 -0.9526 70
-3.207 4.4141 -0.8251999999999999 46
-3.2207 4.4336 -0.6992 150
-43.125 59.375 4.2656 49
-3.2363 4.4531 -0.5742 218
-17.8281 24.5312 2.4746 157
-3.2577999999999996 4.4844 -0.449 207
-17.25 23.7344 3.0801 200
-3.2870999999999997 4.5234 -0.32280000000000003 169
-18.125 24.9531 3.9608999999999996 234
-17.8594 24.5781 4.625 113
-3.2207 4.4688 -0.9639 218
-3.2108999999999996 4.4531 -0.8306 59
-3.2129000000000003 4.4609 -0.7017 191
-42.75 59.3438 4.2539 82
-3.2656 4.5312 -0.5825 55
-17.7344 24.6094 2.4746 193
-3.2577999999999996 4.5234 -0.4517 101
-17.1875 23.8438 3.0839999999999996 202
-3.2891000000000004 4.5625 -0.3245 194
-18.3281 25.4219 4.0273 146
-17.7344 24.6094 4.6211 134
-3.2266000000000004 4.5078 -0.9702 162
-3.207 4.4805 -0.8340000000000001 48
-3.207 4.4844 -0.7036 181
-42.4688 59.3438 4.2422 159
-3.2714999999999996 4.5703 -0.5864 44
-18.625 26.0312 2.6113 66
-3.2598000000000003 4.5547 -0.4539 249
-17.0781 23.875 3.082 192
-3.2793 4.5859 -0.32520000000000004 47
-17.375 24.2812 3.8339999999999996 52
-17.6562 24.6875 4.6211 167
-3.2207 4.5312 -0.9731000000000001 220
-3.2832 4.6211 -0.8579000000000001 91
-3.2031 4.5117 -0.7061 207
-42.125 59.3125 4.2305 90
-3.2870999999999997 4.6289 -0.5922999999999999 51
-18.5312 26.0781 2.6094 135
-3.25 4.5742 -0.4548 117
-17.4062 24.5 3.1543 25
-3.2988 4.6445 -0.3289 162
-17.0938 24.0625 3.7910000000000004 30
-17.2969 24.3438 4.5469 234
-3.2344 4.5859 -0.9819 177
-3.2793 4.6484 -0.8608 111
-3.2168 4.5625 -0.7123999999999999 10
-41.8438 59.3125 4.2188 193
-3.2637 4.625 -0.5903 12
-41.75 59.1875 5.9140999999999995 54
-3.293 4.668 -0.4629 184
-17.2031 24.3906 3.1327999999999996 229
-3.3242000000000003 4.7148 -0.33299999999999996 106
-17.0781 24.2188 3.8066000000000004 245
-17.125 24.2812 4.5234 113
-3.2832 4.6914 -1.002 157
-3.2793 4.6875 -0.8656999999999999 81
-3.207 4.582 -0.7139 102
-41.5312 59.3125 4.2109 101
-3.2617000000000003 4.6602 -0.5932999999999999 198
-18.6719 26.6719 2.6562 86
-3.2870999999999997 4.6953 -0.4646 8
-17.0938 24.4219 3.1289 189
-3.3301 4.7578 -0.33520000000000005 99
-16.7969 23.9844 3.7617000000000003 120
-17.0 24.2969 4.5156 102
-3.2969 4.7461 -1.0107 5
-3.3105 4.7656 -0.8779 106
-3.293 4.7422 -0.7368000000000001 125
-41.2188 59.3438 4.1992 215
-3.2793 4.7227 -0.5996 46
-18.5625 26.7188 2.6543 217
-3.3047000000000004 4.7578 -0.46950000000000003 222
-17.0 24.4688 3.127 120
-3.3555 4.8281 -0.3394 145
-16.3281 23.5 3.6757999999999997 51
-16.8906 24.3125 4.5078 6
-3.3026999999999997 4.7891 -1.0186 175
-3.3379000000000003 4.8398 -0.8896 199
-3.3105 4.8008 -0.7445999999999999 133
-40.9062 59.3125 4.1914 152
-3.2910000000000004 4.7734 -0.6045 130
-17.8594 25.9062 2.5664 28
-3.3047000000000004 4.793 -0.4717 32
-16.9688 24.625 3.1387 8
-3.3358999999999996 4.8359 -0.33909999999999996 243
-16.4219 23.8281 3.7168 95
-16.875 24.4688 4.5273 73
-16.4844 23.9219 5.1133 42
-3.3301 4.8633 -1.0322 148
-3.3945 4.957 -0.9097 128
-3.3047000000000004 4.8281 -0.7471 79
-3.3007999999999997 4.8242 -0.6093999999999999 65
-17.7656 25.9531 2.5645 57
-3.3281 4.8633 -0.4775 229
-16.9531 24.7656 3.1504000000000003 251
-3.3535000000000004 4.8984 -0.3428 134
-16.3281 23.8594 3.7129000000000003 199
-16.4531 24.0469 4.4375 63
-16.3594 23.9062 5.0977 14
-3.3848000000000003 4.9844 -0.9120999999999999 46
-3.3535000000000004 4.9375 -0.7622 204
-40.3125 59.3438 4.1719 128
-3.3145 4.8789 -0.6152000000000001 255
-17.7031 26.0625 2.5702999999999996 32
-3.3398000000000003 4.918 -0.4819 169
-16.8594 24.8125 3.1483999999999996 91
-3.3808999999999996 4.9766 -0.34740000000000004 171
-16.125 23.7344 3.6836 25
-16.5938 24.4219 4.4961 127
-16.3125 24.0156 5.1094 98
-3.3711 5.0 -0.9126000000000001 142
-3.4160000000000004 5.0664 -0.7803 164
-16.7812 24.8906 1.7441 198
-3.3202999999999996 4.9258 -0.6196 25
-17.625 26.1406 2.5723000000000003 228
-3.3418 4.9531 -0.4844 137
-16.7031 24.7812 3.1367000000000003 137
-3.3926 5.0312 -0.3503 138
-15.898399999999999 23.5781 3.6523000000000003 95
-15.773399999999999 23.3906 4.2969 186
-16.2969 24.1719 5.1328 64
-3.3632999999999997 5.0234 -1.0586 87
-3.3691000000000004 5.0312 -0.917 122
-3.4766000000000004 5.1914 -0.7983 19
-16.6875 24.9219 1.7431999999999999 8
-3.3711 5.0352 -0.6323 79
-17.4688 26.0938 2.5625 65
-3.3555 5.0117 -0.489 87
-15.4219 23.0312 2.9082 53
-3.4141000000000004 5.0977 -0.3542 158
-15.835899999999999 23.6562 3.6562 153
-15.6875 23.4375 4.293 213
-16.2969 24.3438 5.1562 4
-3.3516000000000004 5.043 -1.0605 40
-3.3789 5.082 -0.9243000000000001 195
-3.4512 5.1914 -0.7964 178
-16.5938 24.9531 1.7412 135
-3.3535000000000004 5.0469 -0.6323 168
-17.4062 26.1875 2.5645 30
-3.3574 5.0508 -0.4917 121
-15.3281 23.0625 2.9062 190
-3.4101999999999997 5.1289 -0.3557 177
-16.1406 24.2656 3.7441000000000004 85
-15.593800000000002 23.4531 4.2891 113
-14.9453 22.4844 4.7539 34
-3.3651999999999997 5.1055 -1.0703 112
-3.4531 5.238300000000001 -0.9501999999999999 49
-3.4316000000000004 5.207000000000001 -0.7964 235
-16.5 25.0469 1.7422 57
-17.3281 26.2969 2.5683999999999996 188
-3.4004000000000003 5.1602 -0.501 194
-15.273399999999999 23.1719 2.9120999999999997 52
-3.3926 5.144500000000001 -0.35600000000000004 95
-16.75 25.4219 3.9101999999999997 70
-15.3906 23.3594 4.2578 7
-14.8828 22.5781 4.7617 172
-3.4297000000000004 5.2422 -1.0977 147
-3.4336 5.25 -0.9497 230
-3.3827999999999996 5.171900000000001 -0.7896 179
-38.8438 59.375 4.125 231
-16.3438 24.9688 2.4336 67
-3.3848000000000003 5.175800000000001 -0.5015 228
-15.218800000000002 23.2656 2.918 121
-3.3964999999999996 5.1914 -0.35840000000000005 116
-16.7188 25.5625 3.9238 8
-15.3281 23.4375 4.2656 220
-16.1875 24.75 5.207000000000001 234
-3.3827999999999996 5.207000000000001 -0.9404 93
-3.3574 5.171900000000001 -0.7876000000000001 49
-16.1719 24.9062 1.7256 153
-3.4082 5.2461 -0.6533 6
-16.2344 25.0 2.4316 181
-3.3848000000000003 5.2109000000000005 -0.5039 224
-15.093800000000002 23.25 2.9082 236
-3.4512 5.3125 -0.366 45
-16.9688 26.1406 4.0039 113
-14.6719 22.5938 4.1016 191
-16.2031 24.9375 5.238300000000001 51
-3.4492000000000003 5.3477 -1.1143 40
-3.4414 5.3398 -0.9623999999999999 120
-3.4336 5.324199999999999 -0.8096 187
-16.1094 24.9844 1.7266 245
-3.4316000000000004 5.324199999999999 -0.6611 212
-17.0312 26.4219 2.5645 45
-3.4082 5.2890999999999995 -0.5103 101
-15.875 24.625 3.0742000000000003 83
-3.4336 5.324199999999999 -0.366 151
-15.1172 23.4375 3.582 26
-15.101600000000001 23.4219 4.2422 71
-14.6406 22.7031 4.7578 76
-3.4589999999999996 5.4062 -1.124 20
-3.4336 5.3672 -0.9653 57
-3.4219 5.3515999999999995 -0.8115000000000001 16
-37.9062 59.2812 4.0898 252
-3.4785000000000004 5.4375 -0.6738 223
-15.3125 23.9531 2.3184 187
-3.4375 5.375 -0.5176 179
-15.0078 23.4688 2.9238 93
-3.4452999999999996 5.386699999999999 -0.36939999999999995 65
-15.1172 23.6406 3.6035000000000004 43
-15.031199999999998 23.5156 4.25 193
-14.585899999999999 22.7969 4.7656 19
-3.4688 5.4648 -1.1338 245
-3.4668 5.4648 -0.9804999999999999 13
-3.4395 5.417999999999999 -0.8203 198
-15.6094 24.5938 1.6924000000000001 94
-17.4688 27.5156 2.6582 102
-3.4629000000000003 5.457000000000001 -0.5244 212
-16.3594 25.7656 3.2031 243
-3.502 5.519500000000001 -0.3774 59
-14.9297 23.5156 3.5781 175
-14.75 23.2344 4.1914 76
-14.468800000000002 22.7969 4.7539 71
-3.502 5.5625 -1.1514 32
-3.4805 5.5273 -0.9893000000000001 20
-3.4844 5.5312 -0.8354 114
-15.5078 24.625 1.6904 107
-14.7969 23.5 2.2656 241
-3.4492000000000003 5.480499999999999 -0.5254 245
-14.6953 23.3438 2.8945 171
-3.4824 5.5312 -0.3774 73
-14.976600000000001 23.7812 3.6094 82
-14.164100000000001 22.4844 4.0469 55
-14.4531 22.9531 4.7773 68
-4.0234 6.4414 -1.3319999999999999 233
-3.5137 5.6211 -1.0039 226
-3.8906 6.2265999999999995 0.2546 161
-3.4882999999999997 5.582000000000001 -0.8412999999999999 68
-37.0312 59.25 4.0625 66
-14.7031 23.5312 2.2637 242
-3.4824 5.5703 -0.5332 12
-14.6172 23.3906 2.8945 107
-3.4901999999999997 5.5859000000000005 -0.38060000000000005 92
-14.031199999999998 22.4531 3.4004000000000003 54
-14.210899999999999 22.7344 4.082 54
-14.4297 23.0938 4.793 184
-4.0 6.453099999999999 -1.3311000000000002 154
-3.5195 5.6797 -1.0127 30
-3.8691000000000004 6.238300000000001 0.2546 101
-3.4941000000000004 5.6328 -0.8472 10
-36.75 59.2812 4.0547 100
-3.5077999999999996 5.6562 -0.6948000000000001 126
-14.6875 23.6875 2.2734 84
-3.4941000000000004 5.6328 -0.5381 42
-14.6406 23.6094 2.9160000000000004 68
-3.5488 5.7227 -0.3892 118
-15.601600000000001 25.1562 3.8026999999999997 249
-14.1797 22.8594 4.0977 79
-14.375 23.1875 4.8047 0
-3.9688 6.453099999999999 -1.3281 68
-3.5781 5.8164 -1.0342 146
-3.4922000000000004 5.675800000000001 -0.8521 16
-36.4375 59.25 4.043 8
-14.664100000000001 23.8438 2.2832 31
-3.5254000000000003 5.730499999999999 -0.5459 13
-16.6875 27.125 3.3418 196
-3.5293 5.734400000000001 -0.3892 175
-15.4922 25.1719 3.7969 51
-13.914100000000001 22.625 4.043 143
-14.2031 23.0781 4.7695 76
-3.9395 6.453099999999999 -1.3262 22
-3.8145 6.25 0.08470000000000001 120
-3.5781 5.859400000000001 -1.041 148
-3.5332 5.7890999999999995 -0.8667 21
-36.125 59.1875 4.0312 122
-3.5702999999999996 5.8515999999999995 -0.7158 87
-16.6562 27.2969 2.6094 114
-3.5449 5.8086 -0.5522 86
-14.5781 23.8906 2.9355 115
-15.5547 25.4844 3.8358999999999996 56
-14.023399999999999 22.9844 4.0977 148
-14.335899999999999 23.4844 4.8438 68
-3.9199 6.4727 -1.3262 56
-3.6016000000000004 5.949199999999999 -1.0537 8
-3.5469 5.855499999999999 -0.8755 16
-15.273399999999999 25.2188 1.7128999999999999 17
-16.4844 27.2188 2.5957 172
-3.5254000000000003 5.8203 -0.5522 36
-14.2656 23.5469 2.8887 230
-3.5918 5.9297 -0.40090000000000003 126
-15.2656 25.2031 3.7851999999999997 105
-13.875 22.9062 4.0781 144
-3.7422000000000004 6.1797 -0.0836 205
-14.156199999999998 23.375 4.8125 239
-3.8964999999999996 6.480499999999999 -1.3262 127
-3.6191000000000004 6.019500000000001 -1.0645 227
-3.582 5.9609000000000005 -0.8892 124
-15.156199999999998 25.2188 1.709 229
-16.5938 27.6094 2.6289 222
-3.5410000000000004 5.890599999999999 -0.5576 226
-14.164100000000001 23.5625 2.8848000000000003 233
-3.5723000000000003 5.9414 -0.40090000000000003 101
-14.210899999999999 23.6406 3.543 226
-13.8047 22.9688 4.082 220
-3.7305 6.203099999999999 -0.0837 79
-14.0 23.2812 4.7852 27
-3.8789 6.5 -1.3271000000000002 164
-3.5938 6.0234000000000005 -0.897 138
-3.6132999999999997 6.0586 -0.7368000000000001 107
-3.5762 5.9961 -0.5664 101
-14.3047 23.9844 2.9297000000000004 176
-3.5702999999999996 5.984400000000001 -0.4028 185
-15.125 25.3438 3.7910000000000004 245
-3.7089999999999996 6.2148 -0.251 217
-13.718800000000002 23.0 4.0781 178
-13.960899999999999 23.4062 4.7969 161
-3.8476999999999997 6.5039 -1.3252000000000002 18
-3.6776999999999997 6.2148 -1.0947 0
-3.625 6.125 -0.9102 21
-14.0703 23.7812 1.6055000000000001 68
-3.6426 6.1562 -0.7471 242
-3.5976999999999997 6.078099999999999 -0.5732 99
-15.539100000000001 26.2656 3.2031 94
-3.5664 6.0273 -0.4048 221
-15.460899999999999 26.125 3.9004000000000003 208
-3.7305 6.3047 -0.2539 46
-13.468800000000002 22.7656 4.0273 255
-15.085899999999999 25.5 5.2148 158
-3.8164 6.5039 -1.3222999999999998 122
-3.6172000000000004 6.1640999999999995 -0.9136 79
-14.0703 23.9688 1.6143 175
-3.6055 6.144500000000001 -0.7441 41
-14.093800000000002 24.0 2.2695 100
-3.6445 6.2109000000000005 -0.5845 209
-15.4375 26.2969 3.2012 126
-3.6016000000000004 6.136699999999999 -0.4111 252
-13.789100000000001 23.4844 3.498 240
-3.7891000000000004 6.457000000000001 -0.2595 115
-13.4844 22.9688 4.0547 145
-13.460899999999999 22.9375 4.6836 172
-3.7949 6.519500000000001 -1.3222999999999998 78
-3.6367000000000003 6.2461 -0.9243000000000001 185
-14.0703 24.1562 1.624 31
-3.6483999999999996 6.265599999999999 -0.7578 3
-14.0781 24.1719 2.2812 114
-3.625 6.2265999999999995 -0.585 192
-15.3672 26.3906 3.2051 197
-3.6543 6.2773 -0.4199 3
-13.6875 23.5156 3.4941000000000004 212
-3.7656 6.4688 -0.2595 39
-13.343800000000002 22.9219 4.0391 63
-13.4219 23.0469 4.6953 228
-3.7695 6.5273 -1.3213 39
-4.293 7.4375 -1.3027000000000002 237
-3.6543 6.328099999999999 -0.9340999999999999 124
-14.0703 24.3594 1.6338 58
-3.6504000000000003 6.3203 -0.7626999999999999 157
-3.6464999999999996 6.3125 -0.5918 108
-15.476600000000001 26.7969 3.248 138
-3.6601999999999997 6.3359000000000005 -0.42310000000000003 9
-14.625 25.3281 3.7558999999999996 108
-13.25 22.9375 4.0312 235
-13.101600000000001 22.6875 4.6133 104
-3.75 6.542999999999999 -1.3222999999999998 246
-4.2734 7.457000000000001 -1.3037 46
-3.6933999999999996 6.449199999999999 -0.9501999999999999 208
-3.7031 6.4648 -0.7783 10
-3.6895 6.4414 -0.6025 191
-15.4531 26.9844 3.2637 189
-3.7051 6.4688 -0.43090000000000006 79
-14.531199999999998 25.3594 3.7539 212
-13.625 23.7812 4.1719 149
-13.031199999999998 22.75 4.6172 185
-3.7168 6.542999999999999 -1.3193000000000001 234
-4.2539 7.484400000000001 -1.3056999999999999 26
-3.7168 6.5390999999999995 -0.9619 203
-14.6328 25.75 2.416 140
-3.7168 6.5390999999999995 -0.6108 61
-14.960899999999999 26.3281 3.1776999999999997 158
-3.7422000000000004 6.5859000000000005 -0.43799999999999994 213
-14.4219 25.375 3.75 153
-13.539100000000001 23.8281 4.1719 176
-13.4922 23.75 4.8086 151
-3.6933999999999996 6.550800000000001 -1.3193000000000001 171
-4.2266 7.4961 -1.3056999999999999 139
-3.75 6.6523 -0.9765999999999999 226
-33.3125 59.0938 3.9452999999999996 129
-14.5547 25.8125 2.418 124
-3.7207 6.6015999999999995 -0.6152000000000001 151
-14.8594 26.3594 3.1757999999999997 18
-14.398399999999999 25.5469 3.7656 34
-13.4375 23.8438 4.168 117
-12.914100000000001 22.9062 4.6289 246
-3.6660000000000004 6.5586 -1.3174000000000001 250
-4.1914 7.4961 -1.3027000000000002 24
-3.7714999999999996 6.7422 -0.9883 167
-33.0625 59.1562 3.9395 121
-14.335899999999999 25.6406 3.7733999999999996 62
-13.2422 23.6875 4.1328 129
-4.0117 7.171900000000001 -0.09519999999999999 54
-12.851600000000001 22.9844 4.6367 235
-3.6543 6.5859000000000005 -1.3203 15
-4.1641 7.5 -1.3018 228
-3.8358999999999996 6.9102 -1.0117 184
-32.7812 59.0625 3.9276999999999997 160
-14.5469 26.2031 2.4453 94
-3.8086 6.863300000000001 -0.6377 24
-14.2031 25.5938 3.0723000000000003 214
-14.156199999999998 25.5156 3.748 115
-13.2578 23.8906 4.1602 239
-4.043 7.2812 -0.0965 174
-12.789100000000001 23.0469 4.6406 117
-3.6348000000000003 6.6015999999999995 -1.3213 160
-4.125 7.4922 -1.2978999999999998 196
-3.8672000000000004 7.0234000000000005 -1.0254 223
-32.5312 59.0938 3.9219 52
-14.4922 26.3125 2.4492 119
-3.8691000000000004 7.0273 -0.6514 39
-14.1328 25.6562 3.0742000000000003 219
-13.6406 24.7656 3.6327999999999996 37
-13.0781 23.75 4.125 180
-13.1406 23.8594 4.7969 41
-3.6016000000000004 6.5977 -1.3184 126
-4.1172 7.542999999999999 -1.3037 249
-3.9199 7.1836 -1.0469 110
-32.2812 59.125 3.9160000000000004 243
-3.8535000000000004 7.0586 -0.6533 59
-14.125 25.875 3.0938 232
-13.843800000000002 25.3594 3.7108999999999996 105
-13.031199999999998 23.875 4.1406 14
-13.0703 23.9375 4.8008 72
-3.5742000000000003 6.6015999999999995 -1.3163999999999998 40
-4.082 7.5390999999999995 -1.3008000000000002 98
-3.9512 7.296900000000001 -1.0625 199
-31.9688 59.0625 3.9043 51
-3.9589999999999996 7.3125 -0.8691 190
-14.1953 26.2188 3.1289 107
-13.75 25.4062 3.7108999999999996 195
-12.960899999999999 23.9375 4.793 144
-3.5507999999999997 6.6172 -1.3163999999999998 18
-4.0469 7.542999999999999 -1.2988 144
-4.043 7.5352 -1.0947 135
-31.7188 59.0938 3.9004000000000003 49
-3.9414 7.3438 -0.8715999999999999 101
-14.664100000000001 27.3281 2.5293 41
-3.9316000000000004 7.328099999999999 -0.6758 215
-13.601600000000001 25.3438 3.0176 138
-13.6953 25.5156 3.7207 36
-12.906199999999998 24.0469 4.1562 125
-12.898399999999999 24.0312 4.8008 77
-3.5312 6.636699999999999 -1.3184 250
-4.0078 7.5312 -1.2938999999999998 222
-4.0234 7.5625 -1.0967 188
-31.4375 59.0625 3.8906 192
-4.0273 7.5625 -0.8959999999999999 151
-14.625 27.4844 2.5391 3
-3.9551 7.4336 -0.6840999999999999 253
-13.5703 25.5 3.0312 102
-13.835899999999999 26.0 3.7832 81
-13.648399999999999 25.6406 4.4219 93
-3.5077999999999996 6.6484000000000005 -1.3184 25
-3.9844 7.550800000000001 -1.2959 84
-3.9863 7.5547 -1.0937999999999999 144
-31.1875 59.125 3.8867000000000003 189
-4.0039 7.5898 -0.8975 156
-4.0 7.582000000000001 -0.6962999999999999 238
-13.476600000000001 25.5469 3.0312 215
-13.6328 25.8281 3.752 98
-13.5 25.5781 4.4062 200
-3.4844 6.6562 -1.3174000000000001 158
-3.9551 7.5586 -1.2938999999999998 116
-3.9707 7.5859000000000005 -1.0957 93
-30.8906 59.0312 3.873 44
-3.9863 7.6211 -0.8994 52
-4.0234 7.6914 -0.7051000000000001 122
-13.843800000000002 26.4531 3.1348000000000003 159
-13.601600000000001 26.0 3.7695 16
-13.3047 25.4219 4.3672 72
-3.4531 6.6562 -1.3154 115
-3.9297000000000004 7.578099999999999 -1.2949000000000002 67
-3.9531 7.6172 -1.0986 242
-30.6406 59.0625 3.8691000000000004 250
-3.9688 7.6484000000000005 -0.9009 87
-4.0469 7.800800000000001 -0.7139 192
-13.7031 26.4219 3.123 106
-13.4922 26.0156 3.7637 174
-12.9297 24.9219 4.2734 215
-12.6172 24.3281 -0.3196 25
-13.406199999999998 25.8281 5.125 146
-3.4316000000000004 6.671900000000001 -1.3154 206
-3.8906 7.5625 -1.29 29
-3.9531 7.6875 -1.1064 185
-30.3906 59.0938 3.8632999999999997 29
-4.2148 8.1953 -0.9643999999999999 10
-4.207 8.1797 -0.748 152
-13.648399999999999 26.5312 3.1308999999999996 56
-8.3125 16.1719 -1.0547 50
-13.414100000000001 26.0781 3.7676 54
-13.0 25.2812 4.3281 14
-12.5547 24.4062 -0.3201 82
-13.3047 25.8594 5.1211 84
-3.4141000000000004 6.6875 -1.3163999999999998 143
-3.8711 7.5859000000000005 -1.2919999999999998 216
-4.4453 8.7109 -1.2529000000000001 93
-30.1719 59.125 3.8594 174
-4.1992 8.2266 -0.9658 255
-4.168 8.1641 -0.7451000000000001 77
-12.835899999999999 25.1406 2.9629000000000003 185
-8.2344 16.1406 -1.0518 152
-13.125 25.7188 3.7089999999999996 204
-12.8125 25.0938 4.2891 78
-13.210899999999999 25.8906 5.1172 153
-3.3867000000000003 6.6914 -1.3144999999999998 239
-3.8398000000000003 7.5859000000000005 -1.29 252
-4.4141 8.7188 -1.252 206
-29.8906 59.0312 3.8476999999999997 18
-5.261699999999999 10.398399999999999 -1.2197 133
-6.421900000000001 12.6875 -1.1572 45
-12.7969 25.2812 2.9726999999999997 209
-8.1719 16.1406 -1.0498 238
-13.25 26.1719 3.7676 183
-12.8125 25.3125 4.3203 19
-12.4844 24.6562 -0.3223 19
-13.1875 26.0625 5.140599999999999 169
-3.3574 6.6953 -1.3135 159
-3.8105 7.5977 -1.29 79
-4.3789 8.7344 -1.251 93
-29.6094 59.0312 3.8398000000000003 201
-5.2265999999999995 10.4219 -1.2207 210
-6.3672 12.6875 -1.1562000000000001 60
-13.476600000000001 26.8594 3.1543 95
-8.1172 16.1719 -1.0498 150
-12.656199999999998 25.2344 3.625 141
-12.710899999999999 25.3438 4.3164 169
-13.0078 25.9375 5.1094 28
-3.332 6.703099999999999 -1.3125 246
-3.7910000000000004 7.625 -1.2919999999999998 97
-4.3516 8.75 -1.252 162
-29.3438 59.0 3.8301 218
-5.175800000000001 10.406199999999998 -1.2168 36
-6.332000000000001 12.7344 -1.1582 122
-12.4531 25.0469 2.9355 216
-8.0547 16.2031 -1.0498 43
-12.75 25.6406 3.6776999999999997 28
-11.5156 23.1562 -0.9009 224
-12.726600000000001 25.5938 4.3516 103
-12.9375 26.0156 5.1133 84
-3.3105 6.7227 -1.3135 159
-3.75 7.609400000000001 -1.2871000000000001 124
-4.3242 8.7734 -1.2529000000000001 218
-29.0781 59.0312 3.8262 67
-5.1289 10.406199999999998 -1.2148 242
-6.269500000000001 12.726600000000001 -1.1553 40
-12.6797 25.7344 3.0098000000000003 228
-7.9922 16.2188 -1.0488 87
-12.476600000000001 25.3281 3.627 18
-11.6719 23.6875 -0.9204000000000001 28
-12.460899999999999 25.2969 4.293 116
-3.293 6.7422 -1.3154 42
-3.7245999999999997 7.625 -1.2881 132
-4.2891 8.7812 -1.251 124
-28.8438 59.0625 3.8223000000000003 240
-5.0938 10.4297 -1.2148 105
-6.2188 12.7344 -1.1533 94
-12.593800000000002 25.7969 3.0117000000000003 204
-7.949199999999999 16.2812 -1.0508 219
-12.539100000000001 25.6719 3.668 137
-12.1172 24.8125 4.2031 147
-3.2695 6.75 -1.3154 197
-3.7051 7.6484000000000005 -1.29 25
-4.2695 8.8125 -1.2539 143
-28.5781 59.0 3.8125 22
-5.0586 10.4453 -1.2158 170
-6.175800000000001 12.75 -1.1533 18
-12.468800000000002 25.75 3.002 189
-7.8789 16.2656 -1.0488 124
-12.3672 25.5469 3.6445 29
-12.0625 24.9062 4.2148 76
-12.273399999999999 25.3438 4.9609 18
-3.2401999999999997 6.7461 -1.3125 111
-3.6738 7.6523 -1.2881 90
-4.2305 8.8125 -1.252 128
-28.3125 58.9688 3.8047000000000004 172
-5.0195 10.4531 -1.2139 20
-12.101600000000001 25.2031 2.2812 118
-6.125 12.7578 -1.1523 123
-13.039100000000001 27.1562 3.1620999999999997 236
-7.8164 16.2812 -1.0479 31
-12.2969 25.6094 3.6483999999999996 53
-12.4453 25.9219 4.3789 171
-12.2031 25.4219 4.9648 101
-3.2089999999999996 6.7461 -1.3096 20
-3.6426 7.6562 -1.2861000000000002 41
-4.1992 8.8281 -1.252 245
-28.0469 58.9688 3.7969 121
-4.9883 10.4844 -1.2158 192
-12.0156 25.2656 2.2812 196
-6.0859000000000005 12.7969 -1.1533 18
-12.9297 27.1719 3.1582 24
-7.7578 16.3125 -1.0479 176
-12.148399999999999 25.5312 3.6308999999999996 187
-12.093800000000002 25.4219 4.957 74
-3.1914 6.769500000000001 -1.3115 42
-3.6113 7.6602 -1.2852000000000001 249
-4.168 8.8359 -1.251 67
-27.7969 58.9688 3.7910000000000004 49
-4.9375 10.476600000000001 -1.2129 2
-11.8672 25.1719 2.2695 7
-6.0352 12.7969 -1.1523 151
-12.156199999999998 25.7969 2.9922000000000004 93
-7.699199999999999 16.3281 -1.0479 132
-12.0156 25.4844 3.6172000000000004 128
-11.164100000000001 23.6875 -0.9126000000000001 212
-12.2422 25.9688 4.3711 19
-12.093800000000002 25.6562 4.9922 217
-3.168 6.7852 -1.3125 165
-3.5839999999999996 7.675800000000001 -1.2852000000000001 27
-4.1367 8.8594 -1.252 176
-27.5469 58.9688 3.7851999999999997 156
-4.8906 10.468800000000002 -1.21 200
-5.984400000000001 12.8125 -1.1514 241
-12.085899999999999 25.8906 2.998 14
-7.644500000000001 16.375 -1.0488 242
-11.8906 25.4531 3.6094 23
-11.0625 23.7031 -0.9116 231
-12.085899999999999 25.875 4.3477 199
-3.1426 6.792999999999999 -1.3125 248
-3.5605 7.6953 -1.2861000000000002 167
-4.0938 8.8516 -1.249 9
-27.2812 58.9688 3.7773000000000003 245
-4.8516 10.4844 -1.21 68
-5.917999999999999 12.7969 -1.1475 123
-7.578099999999999 16.375 -1.0469 107
-11.773399999999999 25.4375 3.5995999999999997 161
-10.960899999999999 23.6875 -0.9097 139
-12.085899999999999 26.125 4.3828 123
-3.1172000000000004 6.796900000000001 -1.3105000000000002 80
-3.5410000000000004 7.7188 -1.2881 7
-4.0586 8.8516 -1.2470999999999999 111
-27.0312 58.9375 3.7714999999999996 39
-4.8164 10.5 -1.21 19
-5.875 12.8047 -1.1475 143
-11.8203 25.7812 2.9766000000000004 84
-7.5078 16.375 -1.0449 119
-11.835899999999999 25.8125 3.6464999999999996 202
-10.8828 23.7188 -0.9097 104
-11.976600000000001 26.1094 4.375 94
-3.0938 6.800800000000001 -1.3105000000000002 41
-3.5058999999999996 7.7109000000000005 -1.2852000000000001 115
-4.0352 8.875 -1.248 127
-12.9219 28.4219 1.8144999999999998 173
-4.7734 10.4922 -1.207 104
-5.8359000000000005 12.835899999999999 -1.1475 189
-7.453099999999999 16.3906 -1.0449 81
-11.726600000000001 25.7812 3.6387 207
-10.781199999999998 23.7188 -0.9081999999999999 74
-11.898399999999999 26.1719 4.3789 172
-3.0683999999999996 6.8164 -1.3105000000000002 87
-12.773399999999999 28.3594 0.3628 22
-3.4824 7.730499999999999 -1.2861000000000002 99
-12.7422 28.2969 1.082 57
-3.9961 8.875 -1.2470999999999999 88
-12.7422 28.2969 1.8027000000000002 220
-4.7305 10.5078 -1.207 251
-5.7773 12.8281 -1.1455 53
-7.3828 16.3906 -1.0439 211
-10.6719 23.7031 -0.9062 35
-11.7578 26.1094 4.3594 186
-12.7656 28.3438 -0.3628 84
-3.043 6.824199999999999 -1.3096 115
-3.4414 7.7148 -1.2822 236
-12.6719 28.4062 1.084 20
-3.9707 8.8984 -1.248 74
-4.6953 10.531199999999998 -1.207 30
-5.7265999999999995 12.835899999999999 -1.1445 14
-7.3359000000000005 16.4375 -1.0449 209
-11.718800000000002 26.2656 3.6933999999999996 171
-10.5703 23.6875 -0.9037999999999999 214
-11.6172 26.0469 4.3438 9
-10.351600000000001 23.2031 4.4727 3
-3.0273000000000003 6.8477 -1.3135 169
-3.4141000000000004 7.7227 -1.2812000000000001 156
-3.9375 8.9062 -1.2470999999999999 92
-26.0625 58.9375 3.748 15
-4.6562 10.531199999999998 -1.2061 44
-5.675800000000001 12.835899999999999 -1.1426 166
-7.269500000000001 16.4375 -1.043 198
-10.5 23.75 -0.9053 91
-11.5078 26.0312 4.332 138
-2.998 6.8438 -1.3096 210
-3.3983999999999996 7.7578 -1.2852000000000001 206
-3.8983999999999996 8.8984 -1.2441 177
-25.8281 58.9688 3.7422000000000004 217
-4.6211 10.5469 -1.2051 154
-5.625 12.835899999999999 -1.1406 142
-7.207000000000001 16.4531 -1.042 101
-35.75 81.625 11.4531 145
-10.406199999999998 23.7656 -0.9037999999999999 142
-11.4531 26.1406 4.3477 115
-2.9688 6.8438 -1.3075999999999999 113
-3.3632999999999997 7.7539 -1.2822 78
-3.8651999999999997 8.9062 -1.2441 230
-25.5469 58.9062 3.7324 89
-4.582 10.5625 -1.2061 72
-5.574199999999999 12.851600000000001 -1.1406 193
-7.1484000000000005 16.4688 -1.042 42
-10.3047 23.75 -0.9023 1
-2.9452999999999996 6.855499999999999 -1.3086000000000002 188
-3.3358999999999996 7.765599999999999 -1.2822 163
-3.832 8.9141 -1.2431999999999999 168
-10.460899999999999 24.3594 1.54 252
-4.5273 10.539100000000001 -1.2012 253
-5.5273 12.8672 -1.1406 232
-7.078099999999999 16.4844 -1.041 236
-10.414100000000001 24.2344 3.3867000000000003 232
-10.2188 23.7812 -0.9023 20
-10.3672 24.1406 4.0 75
-10.468800000000002 24.3594 -0.3093 73
-2.9219 6.8672 -1.3086000000000002 103
-10.375 24.3906 0.3091 44
-3.3066000000000004 7.769500000000001 -1.2812000000000001 197
-10.343800000000002 24.3125 0.9209 206
-3.7949 8.9219 -1.2412 209
-10.351600000000001 24.3281 1.5352000000000001 221
-4.5 10.5703 -1.2031 25
-5.480499999999999 12.8828 -1.1396 109
-6.9922 16.4375 -1.0361 27
-10.351600000000001 24.3281 3.3964999999999996 28
-10.125 23.7969 -0.9009 114
-10.3672 24.375 -0.30879999999999996 184
-2.9004000000000003 6.8789 -1.3096 168
-3.2812 7.7852 -1.2822 203
-10.273399999999999 24.375 0.9224 68
-3.7676 8.9453 -1.2431999999999999 191
-10.281199999999998 24.3906 1.5381 1
-4.4688 10.601600000000001 -1.2041 40
-5.425800000000001 12.8828 -1.1377 74
-6.949199999999999 16.4844 -1.0381 209
-10.0234 23.7812 -0.8994 210
-10.289100000000001 24.4219 -0.3091 214
-10.25 24.3125 4.6445 219
-2.8789 6.8984000000000005 -1.3105000000000002 65
-3.2558999999999996 7.800800000000001 -1.2822 233
-3.7305 8.9375 -1.2402 254
-24.5781 58.875 3.7108999999999996 116
-4.4297 10.6094 -1.2041 154
-5.3828 12.8906 -1.1377 131
-6.890599999999999 16.5 -1.0381 151
-9.9375 23.7969 -0.8989 120
-11.781199999999998 28.2188 4.6562 81
-10.2422 24.5312 4.6797 17
-2.8516000000000004 6.894500000000001 -1.3075999999999999 112
-3.2324 7.8125 -1.2832 146
-3.6992000000000003 8.9453 -1.2393 141
-11.7578 28.4375 1.7871000000000001 7
-4.3906 10.6094 -1.2021 60
-11.718800000000002 28.3281 2.5 194
-5.3359000000000005 12.898399999999999 -1.1367 223
-6.8515999999999995 16.5625 -1.04 119
-11.6875 28.25 3.9276999999999997 196
-9.8516 23.8281 -0.8984000000000001 16
-11.6719 28.2344 4.6523 99
-2.8242000000000003 6.9023 -1.3075999999999999 51
-3.1952999999999996 7.8086 -1.2803 254
-3.6660000000000004 8.9609 -1.2393 195
-11.6875 28.5625 1.7930000000000001 239
-4.3438 10.625 -1.2012 130
-11.601600000000001 28.3438 2.498 33
-5.2852 12.9219 -1.1367 7
-6.792999999999999 16.6094 -1.041 56
-9.7422 23.8281 -0.897 224
-11.5703 28.2812 4.6523 84
-2.8007999999999997 6.917999999999999 -1.3086000000000002 27
-3.1641000000000004 7.8125 -1.2783 176
-23.8906 59.0 2.2207 228
-3.6289 8.9609 -1.2383 57
-9.9375 24.5312 1.5371000000000001 12
-4.2969 10.601600000000001 -1.1982 92
-11.5078 28.4062 2.5 218
-5.2265999999999995 12.906199999999998 -1.1338 7
-6.7227 16.5938 -1.0391 59
-9.6641 23.8594 -0.897 217
-11.468800000000002 28.3281 4.6523 77
