# .PCD v0.7 - Point Cloud Data file format
VERSION 0.7
FIELDS x y z intensity
SIZE 4 4 4 4
TYPE F F F F
COUNT 1 1 1 1
WIDTH 1294
HEIGHT 1
VIEWPOINT 0 0 0 1 0 0 0
POINTS 1294
DATA ascii
11.9375 6.5664 1.1094 42
12.1094 6.6562 -1.125 90
12.1797 6.6953 -0.8057 175
12.1953 6.703099999999999 -0.4841 200
12.1719 6.6914 -0.1616 127
7.7773 4.2422 -1.5547 80
12.218800000000002 6.6602 0.1617 96
8.6875 4.7344 -1.5019999999999998 52
12.1719 6.636699999999999 0.4824 3
10.1953 5.5625 -1.4883000000000002 136
11.835899999999999 6.453099999999999 0.7817000000000001 224
11.960899999999999 6.5234000000000005 -1.4277000000000002 87
11.898399999999999 6.488300000000001 1.1035 210
12.125 6.613300000000001 -1.125 37
12.2031 6.6562 -0.8062 121
12.210899999999999 6.6562 -0.4839 241
12.1875 6.644500000000001 -0.16140000000000002 23
12.2031 6.6523 2.4434 96
7.792999999999999 4.2109 -1.5547 3
12.273399999999999 6.636699999999999 0.1624 146
8.7031 4.707 -1.5029 124
12.1953 6.5938 0.4824 231
10.2109 5.519500000000001 -1.4872999999999998 251
11.8203 6.394500000000001 0.7793000000000001 167
12.0 6.488300000000001 -1.4287 44
11.9219 6.4453 1.1035 93
12.1719 6.578099999999999 -1.126 38
12.2969 6.6484000000000005 1.4647999999999999 114
12.2656 6.6328 -0.8086 115
12.210899999999999 6.6015999999999995 1.7793 181
12.25 6.625 -0.48460000000000003 207
12.25 6.625 2.1172 154
12.226600000000001 6.613300000000001 -0.1617 60
12.1875 6.5898 2.4355 193
7.7734000000000005 4.168 -1.5478999999999998 143
12.3125 6.6015999999999995 0.1625 25
8.7266 4.6797 -1.5029 177
12.2422 6.5625 0.4832 136
10.2031 5.4727 -1.4844 160
11.8203 6.3359000000000005 0.7773 40
12.023399999999999 6.449199999999999 -1.4297 98
12.281199999999998 6.5859000000000005 -1.1348 169
21.3125 11.4297 -1.4043 116
12.2422 6.5625 1.7812000000000001 180
12.1953 6.5390999999999995 2.4336 229
7.7773 4.1367 -1.5459 110
49.5938 26.375 0.6557999999999999 94
8.7656 4.6602 -1.5068000000000001 149
44.3125 23.5625 1.751 198
10.2188 5.4336 -1.4834 190
11.8281 6.2890999999999995 0.7768999999999999 172
12.0625 6.4140999999999995 -1.4316 86
12.375 6.582000000000001 -1.1416 105
21.4062 11.375 -1.4072 50
49.9375 26.5625 -0.6606000000000001 96
12.2422 6.511699999999999 2.4375 155
7.7852 4.1055 -1.5449000000000002 172
8.7734 4.625 -1.5059 225
44.4375 23.4375 1.7519999999999998 88
10.25 5.4062 -1.4853999999999998 160
11.843800000000002 6.25 0.7764 93
12.085899999999999 6.375 -1.4316 222
11.9375 6.296900000000001 1.0986 158
16.3281 8.6172 -1.5049000000000001 143
21.5312 11.3594 -1.4131 121
44.4062 23.4219 -1.7519999999999998 190
50.375 26.5781 -0.665 196
7.800800000000001 4.082 -1.5449000000000002 41
8.7891 4.5977 -1.5059 39
44.6562 23.375 1.7588 80
10.2656 5.3711 -1.4844 171
11.8672 6.2109000000000005 0.7768999999999999 133
12.1328 6.3515999999999995 -1.4346 102
16.4375 8.6016 -1.5116999999999998 38
21.6094 11.3125 -1.4169999999999998 42
44.5 23.2812 -1.7519999999999998 252
44.9062 23.5 -0.5918 66
7.828099999999999 4.0586 -1.5469 37
8.8125 4.5703 -1.5078 111
45.0625 23.3594 1.7705000000000002 40
10.273399999999999 5.324199999999999 -1.4824000000000002 9
11.9922 6.2188 0.7831999999999999 59
12.1797 6.3125 -1.4375 123
16.5156 8.5625 -1.5156 30
21.7812 11.2969 -1.4247999999999998 150
44.5625 23.1094 -1.7519999999999998 48
7.8359000000000005 4.0312 -1.5469 24
8.8516 4.5508 -1.5107 239
45.1875 23.2344 1.7725 199
10.281199999999998 5.2852 -1.4813999999999998 43
12.8203 6.5898 0.8359000000000001 156
12.2031 6.2734000000000005 -1.4375 127
16.5781 8.5234 -1.5186000000000002 132
21.8594 11.2422 -1.4277000000000002 119
44.6562 22.9688 -1.7519999999999998 99
7.8398 3.998 -1.5438999999999998 231
8.875 4.5234 -1.5127000000000002 109
46.2188 23.5625 1.8096 187
10.2969 5.25 -1.4813999999999998 251
44.125 22.5 2.8789 134
12.2422 6.2422 -1.4394999999999998 17
16.6719 8.5 -1.5253999999999999 209
22.0 11.226600000000001 -1.4346 116
44.8438 22.875 -1.7559 171
7.859400000000001 3.9745999999999997 -1.5459 60
8.8828 4.4922 -1.5107 25
10.3203 5.2188 -1.4824000000000002 179
12.273399999999999 6.207000000000001 -1.4413999999999998 60
16.7344 8.4609 -1.5272999999999999 142
22.0938 11.1719 -1.4375 90
7.890599999999999 3.9531 -1.5488 203
8.8906 4.4531 -1.5097999999999998 76
45.0312 22.5625 1.7568000000000001 138
10.343800000000002 5.1836 -1.4824000000000002 85
45.5 22.7969 2.9589999999999996 18
12.3125 6.167999999999999 -1.4434 116
100.0 50.125 9.1328 105
16.8438 8.4375 -1.5352000000000001 68
22.2344 11.1328 -1.4434 162
52.8438 26.4688 -0.6899 76
7.9140999999999995 3.9297000000000004 -1.5508000000000002 213
8.9375 4.4375 -1.5146000000000002 147
45.3438 22.5156 1.7656 177
10.351600000000001 5.140599999999999 -1.4813999999999998 121
52.7188 26.1719 3.4219 215
12.3594 6.136699999999999 -1.4453 226
99.9375 49.6562 9.1094 2
16.9062 8.3984 -1.5381 39
22.3594 11.101600000000001 -1.4502000000000002 20
54.125 26.875 -0.7061 204
7.9140999999999995 3.8964999999999996 -1.5478999999999998 231
8.9609 4.4102 -1.5156 143
45.625 22.4531 1.7734 28
10.3672 5.1055 -1.4813999999999998 230
46.3438 22.8125 3.0039 119
12.3828 6.0938 -1.4453 123
16.9844 8.3672 -1.5430000000000001 229
22.4844 11.0625 -1.4550999999999998 36
45.3438 22.3281 -0.5903 146
7.9102 3.8594 -1.5449000000000002 38
8.9844 4.3867 -1.5186000000000002 31
45.8125 22.3594 1.7793 56
10.343800000000002 5.0469 -1.4746000000000001 90
12.3906 6.042999999999999 -1.4443000000000001 169
100.0 48.7812 9.0859 11
17.0781 8.3359 -1.5488 89
22.625 11.039100000000001 -1.4619 80
45.375 22.1406 -0.5893999999999999 251
7.9336 3.8398000000000003 -1.5469 37
8.9922 4.3516 -1.5166 117
47.0625 22.7812 1.8241999999999998 99
10.3672 5.0156 -1.4756 83
100.0 48.375 6.4609000000000005 239
12.414100000000001 6.0078 -1.4443000000000001 85
99.9375 48.3438 9.0625 234
17.1562 8.2969 -1.5527000000000002 38
22.6875 10.976600000000001 -1.4638999999999998 52
45.5 22.0156 -1.7637 40
45.5312 22.0312 -0.5908 23
7.953099999999999 3.8164 -1.5478999999999998 109
9.0078 4.3242 -1.5175999999999998 64
47.0312 22.5625 1.8193000000000001 170
10.3906 4.9844 -1.4766 81
100.0 47.9688 6.449199999999999 185
12.4531 5.9727 -1.4472999999999998 190
99.875 47.9375 9.0469 28
17.2344 8.2734 -1.5586000000000002 241
22.875 10.976600000000001 -1.4736000000000002 165
7.9609000000000005 3.7851999999999997 -1.5469 170
9.0312 4.293 -1.5186000000000002 59
10.406199999999998 4.9453 -1.4766 85
48.0 22.8125 3.0898000000000003 146
12.460899999999999 5.925800000000001 -1.4463 217
99.875 47.5 9.0312 150
17.3281 8.2422 -1.5635 182
22.9688 10.9219 -1.4766 136
7.980499999999999 3.7617000000000003 -1.5478999999999998 112
9.0469 4.2656 -1.5186000000000002 55
55.4062 26.125 2.1367 236
10.4297 4.918 -1.4775 4
12.4844 5.886699999999999 -1.4463 143
99.875 47.0938 9.0156 80
17.3906 8.1953 -1.5663999999999998 52
23.0469 10.8672 -1.4805000000000001 59
46.25 21.8125 -1.7841999999999998 218
7.984400000000001 3.7266000000000004 -1.5469 180
9.0703 4.2344 -1.5194999999999999 102
56.0 26.1406 2.1562 30
10.4453 4.875 -1.4775 221
12.5078 5.8398 -1.4463 56
17.4844 8.1562 -1.5722999999999998 249
23.1875 10.8203 -1.4863 129
46.1875 21.5625 -1.7783000000000002 83
56.4688 26.3594 -0.728 102
8.0 3.7012 -1.5469 239
9.1016 4.2109 -1.5234 78
56.5 26.125 2.1719 86
10.476600000000001 4.8477 -1.4794999999999998 249
12.523399999999999 5.792999999999999 -1.4463 162
17.5781 8.1328 -1.5791 114
23.3594 10.8047 -1.4950999999999999 235
46.1875 21.3594 -1.7753999999999999 177
57.0 26.3594 -0.7334 84
8.0312 3.6797000000000004 -1.5497999999999998 78
9.1016 4.168 -1.5194999999999999 157
57.0625 26.1562 2.1895 84
10.5078 4.8164 -1.4813999999999998 3
12.5547 5.7539 -1.4472999999999998 101
99.8125 45.75 8.9688 54
17.6406 8.0781 -1.5811000000000002 171
23.4844 10.7578 -1.5 195
46.25 21.2031 -1.7753999999999999 9
57.6875 26.4375 -0.7412000000000001 95
8.0469 3.6543 -1.5508000000000002 213
57.8438 26.2656 0.7417 14
9.1328 4.1445 -1.5225 121
10.539100000000001 4.7852 -1.4824000000000002 59
12.5781 5.7109000000000005 -1.4472999999999998 54
99.875 45.3438 8.9609 201
17.7188 8.0391 -1.585 180
19.4375 8.8203 -1.2393 148
46.3438 21.0312 -1.7753999999999999 242
8.0469 3.6211 -1.5488 93
9.1562 4.1172 -1.5244 231
10.5469 4.7461 -1.4824000000000002 227
12.625 5.6797 -1.4502000000000002 168
17.8438 8.0234 -1.5937999999999999 70
46.4375 20.8906 -1.7763999999999998 51
8.0703 3.5957 -1.5508000000000002 235
9.1719 4.0859 -1.5244 218
10.5781 4.7148 -1.4844 235
99.875 44.5 6.359400000000001 95
12.6406 5.6328 -1.4502000000000002 138
99.9375 44.5312 8.9375 204
14.9922 6.6797 -1.3369 174
14.8906 6.636699999999999 -0.9462999999999999 23
60.2188 26.8281 -0.77 241
8.0859 3.5723000000000003 -1.5508000000000002 18
9.1797 4.0547 -1.5234 24
10.593800000000002 4.6797 -1.4844 49
99.875 44.0938 6.3477 6
12.664100000000001 5.5938 -1.4502000000000002 232
99.875 44.125 8.9141 52
14.9531 6.605499999999999 -1.3311000000000002 87
14.9453 6.6015999999999995 -0.9481999999999999 116
8.1094 3.5488 -1.5527000000000002 81
9.1875 4.0195 -1.5225 107
10.625 4.6523 -1.4863 191
99.875 43.7188 6.3398 101
12.6875 5.5547 -1.4512 185
99.875 43.7188 8.8984 146
14.9219 6.5312 -1.3262 63
14.8828 6.515599999999999 -0.9423999999999999 236
14.906199999999998 6.5234000000000005 -0.5664 164
60.1562 26.3281 -0.7670999999999999 144
8.1406 3.5273000000000003 -1.5566 145
9.2031 3.9882999999999997 -1.5234 218
55.5312 24.0625 2.1113 66
10.6406 4.6094 -1.4863 155
100.0625 43.375 6.3438 128
12.718800000000002 5.511699999999999 -1.4531 70
99.875 43.2812 8.8828 40
14.9453 6.4765999999999995 -1.3262 141
14.914100000000001 6.4609000000000005 -0.9429000000000001 235
14.8906 6.453099999999999 -0.5649000000000001 62
61.4688 26.6406 -0.7822 253
8.1406 3.4941000000000004 -1.5547 85
9.2422 3.9668 -1.5272999999999999 78
10.648399999999999 4.5703 -1.4853999999999998 115
12.75 5.4727 -1.4541 92
99.8125 42.8438 8.8672 133
14.8828 6.386699999999999 -1.3193000000000001 44
14.8672 6.3828 -0.9384999999999999 27
14.9219 6.4023 -0.5649000000000001 191
61.375 26.3438 -0.7803 147
8.1484 3.4629000000000003 -1.5537 108
61.4688 26.125 0.7803 218
9.2578 3.9336 -1.5272999999999999 242
55.875 23.75 2.1172 240
10.6797 4.5391 -1.4863 136
12.7969 5.4414 -1.4569999999999999 162
99.75 42.4062 8.8516 47
14.898399999999999 6.332000000000001 -1.3184 131
14.875 6.324199999999999 -0.938 112
14.8828 6.324199999999999 -0.563 106
61.5938 26.1875 -0.7817000000000001 6
8.1797 3.4414 -1.5566 31
9.2422 3.8906 -1.5225 27
57.0 24.0 2.1582 221
10.6953 4.5039 -1.4872999999999998 124
12.8125 5.390599999999999 -1.4561000000000002 16
99.75 42.0 8.8359 99
14.9375 6.2890999999999995 -1.3203 218
14.9297 6.2852 -0.9395 55
14.8906 6.269500000000001 -0.5625 187
8.1953 3.418 -1.5586000000000002 189
9.2656 3.8613 -1.5234 103
10.718800000000002 4.4688 -1.4883000000000002 246
12.843800000000002 5.355499999999999 -1.4580000000000002 16
99.8125 41.5938 8.8281 192
14.9297 6.2227 -1.3174000000000001 28
15.0 6.2539 -0.9429000000000001 103
14.968800000000002 6.238300000000001 -0.5645 173
8.2109 3.3906 -1.5596 189
9.2812 3.832 -1.5253999999999999 235
10.7344 4.4297 -1.4883000000000002 12
12.851600000000001 5.3047 -1.4569999999999999 164
99.75 41.1562 8.8125 155
14.9844 6.1836 -1.3203 71
15.0703 6.2227 -0.9462999999999999 31
15.039100000000001 6.207000000000001 -0.5664 135
8.2344 3.3672000000000004 -1.5615 113
9.3047 3.8047000000000004 -1.5263999999999998 99
56.1562 22.9531 2.1172 8
10.7344 4.3906 -1.4863 126
12.8828 5.265599999999999 -1.4580000000000002 40
99.8125 40.8125 8.8047 98
15.0703 6.1640999999999995 -1.3262 78
15.093800000000002 6.171900000000001 -0.9462999999999999 169
65.125 26.625 -0.8218000000000001 25
8.2344 3.3339999999999996 -1.5586000000000002 239
9.3281 3.7793 -1.5283000000000002 77
10.7578 4.3594 -1.4872999999999998 105
12.906199999999998 5.2265999999999995 -1.459 168
99.75 40.4062 8.7891 57
15.2031 6.1602 -1.3359 87
15.2969 6.1953 -0.9575 71
16.1094 6.5234000000000005 -0.2023 1
8.2422 3.3047000000000004 -1.5586000000000002 25
16.125 6.4648 0.2023 48
9.3359 3.7441000000000004 -1.5272999999999999 114
16.125 6.4688 0.605 143
10.789100000000001 4.3242 -1.4893 217
16.1562 6.480499999999999 1.0107 170
12.9297 5.1875 -1.46 75
16.1562 6.480499999999999 1.4188999999999998 95
16.1094 6.457000000000001 -1.4141 113
13.2422 5.3086 -0.8271 110
16.125 6.4648 -0.605 222
16.0938 6.457000000000001 -0.20190000000000002 154
16.2812 6.5273 3.0858999999999996 161
8.2656 3.2832 -1.5605000000000002 76
16.1094 6.3984000000000005 0.2018 235
9.3359 3.707 -1.5253999999999999 59
16.1094 6.394500000000001 0.6035 107
10.8047 4.2891 -1.4893 37
16.1406 6.4062 1.0068000000000001 109
12.968800000000002 5.1523 -1.4619 105
16.1094 6.3984000000000005 1.4121000000000001 53
16.1094 6.3984000000000005 -1.4131 109
16.1406 6.4102 1.8203 182
13.281199999999998 5.2773 -0.8291 114
16.1094 6.3984000000000005 2.2246 10
13.351600000000001 5.300800000000001 -0.49979999999999997 196
16.1094 6.3984000000000005 2.6367000000000003 223
16.1094 6.4023 -0.20190000000000002 244
16.125 6.4023 3.0507999999999997 161
8.2812 3.252 -1.5615 123
16.1406 6.3359000000000005 0.20190000000000002 88
9.3594 3.6757999999999997 -1.5272999999999999 105
16.1094 6.328099999999999 0.6025 62
10.8281 4.2539 -1.4912 185
16.125 6.332000000000001 1.0049 82
13.0078 5.1094 -1.4647999999999999 109
16.125 6.328099999999999 1.4111000000000002 232
16.1562 6.3438 -1.4141 6
16.1094 6.328099999999999 1.8154 242
13.3047 5.2227 -0.8286 245
16.1094 6.324199999999999 2.2207 236
13.289100000000001 5.2188 -0.4966 26
16.1094 6.324199999999999 2.6308999999999996 82
13.2969 5.2227 -0.1663 156
16.125 6.332000000000001 3.0469 227
8.2891 3.2226999999999997 -1.5605000000000002 31
16.1719 6.2852 0.20190000000000002 239
9.3984 3.6523000000000003 -1.5303 249
16.1406 6.2734000000000005 0.603 18
10.835899999999999 4.2109 -1.4902000000000002 15
16.1406 6.2773 1.0049 49
13.0547 5.0742 -1.4678 218
16.125 6.269500000000001 1.4102000000000001 169
13.406199999999998 5.2109000000000005 -1.1709 218
16.1406 6.269500000000001 1.8144999999999998 162
13.2969 5.167999999999999 -0.8276 90
16.125 6.269500000000001 2.2207 1
13.281199999999998 5.1602 -0.49560000000000004 176
16.125 6.269500000000001 2.6327999999999996 209
13.289100000000001 5.1640999999999995 -0.1659 150
16.1406 6.2773 3.0469 118
8.3047 3.1952999999999996 -1.5605000000000002 134
16.2031 6.238300000000001 0.2021 202
9.4141 3.6211 -1.5312000000000001 190
16.1875 6.2265999999999995 0.6035 53
10.851600000000001 4.1758 -1.4902000000000002 200
16.1719 6.2227 1.0059 150
13.085899999999999 5.0352 -1.4687999999999999 71
16.1719 6.2265999999999995 1.4121000000000001 101
13.3594 5.140599999999999 -1.165 220
16.1719 6.2227 1.8163999999999998 96
13.226600000000001 5.0898 -0.8218000000000001 11
16.1562 6.2188 2.2227 188
13.281199999999998 5.1133 -0.4951 90
16.1875 6.2265999999999995 2.6367000000000003 160
13.273399999999999 5.1094 -0.1654 208
16.1719 6.2227 3.0488 2
8.3281 3.1738 -1.5644999999999998 230
16.3594 6.234400000000001 0.2039 142
9.4219 3.5898000000000003 -1.5303 0
16.25 6.1953 0.6054999999999999 198
10.875 4.1445 -1.4912 238
16.2656 6.199199999999999 1.0098 109
13.101600000000001 4.9922 -1.4687999999999999 51
16.25 6.1953 1.4169999999999998 172
13.281199999999998 5.0625 -1.1572 60
16.2812 6.207000000000001 1.8271000000000002 248
13.218800000000002 5.0391 -0.8203 39
13.2578 5.0508 -0.49369999999999997 107
16.2344 6.1875 2.6426 214
13.273399999999999 5.0586 -0.16519999999999999 116
8.3438 3.1445 -1.5644999999999998 56
9.4219 3.5526999999999997 -1.5293 218
10.898399999999999 4.1055 -1.4922 103
57.8438 21.7969 3.5938 56
13.1406 4.9531 -1.4716999999999998 148
99.9375 37.6875 8.7188 113
13.281199999999998 5.0078 -1.1562000000000001 132
13.1875 4.9688 -0.8173999999999999 236
13.2578 4.9961 -0.4929 46
13.281199999999998 5.0039 -0.165 213
8.375 3.123 -1.5684 252
9.4453 3.5214999999999996 -1.5303 87
58.3438 21.75 2.1719 199
10.914100000000001 4.0703 -1.4922 139
17.9531 6.6914 1.1113 167
13.1797 4.9141 -1.4736000000000002 183
17.7969 6.636699999999999 -1.5478999999999998 224
13.2031 4.9219 -0.8169 96
13.289100000000001 4.957 -0.49340000000000006 29
13.289100000000001 4.957 -0.165 114
8.3828 3.0918 -1.5674000000000001 0
17.9219 6.613300000000001 0.2225 243
9.4688 3.4941000000000004 -1.5332 243
17.8281 6.578099999999999 0.6620999999999999 190
10.914100000000001 4.0273 -1.4912 157
17.9219 6.609400000000001 1.1084 84
13.218800000000002 4.875 -1.4766 23
99.9375 36.875 8.7031 125
17.9062 6.609400000000001 -1.5556999999999999 223
13.2656 4.8945 -0.8203 202
13.335899999999999 4.918 -0.4946 40
13.335899999999999 4.918 -0.1653 211
8.3828 3.0605 -1.5663999999999998 93
9.4844 3.4608999999999996 -1.5332 32
10.9453 3.9961 -1.4931999999999999 127
17.9375 6.542999999999999 1.1084 87
13.2422 4.8359 -1.4775 236
100.0 36.5 8.6875 239
17.9688 6.5547 -1.5586000000000002 183
13.273399999999999 4.8438 -0.8193 69
13.4219 4.8984 -0.49729999999999996 176
8.4062 3.0351999999999997 -1.5684 198
9.4844 3.4257999999999997 -1.5312000000000001 239
10.968800000000002 3.9589999999999996 -1.4941 98
17.9375 6.4765999999999995 1.1074 161
13.289100000000001 4.7969 -1.4805000000000001 23
99.9375 36.0625 8.6719 110
18.0312 6.511699999999999 -1.5625 185
13.3594 4.8242 -0.8237000000000001 120
13.4219 4.8477 -0.4966 233
8.4141 3.0039 -1.5674000000000001 173
9.5078 3.3945 -1.5332 201
10.9844 3.9219 -1.4941 171
13.3203 4.7578 -1.4824000000000002 113
99.875 35.6875 8.6641 18
18.0625 6.449199999999999 -1.5625 21
20.0469 7.1602 -1.2363 187
21.7188 7.7578 -0.2688 231
8.4375 2.9785000000000004 -1.5703 91
9.5312 3.3672000000000004 -1.5352000000000001 216
68.75 24.2812 2.5449 1
11.0 3.8848000000000003 -1.4950999999999999 161
13.3594 4.7188 -1.4844 249
99.9375 35.2812 8.6484 45
18.1094 6.3984000000000005 -1.5654 127
20.2188 7.140599999999999 -1.2451 82
8.4375 2.9452999999999996 -1.5684 79
9.5547 3.3379000000000003 -1.5371000000000001 32
68.5 23.9219 2.5332 48
11.0 3.8418 -1.4931999999999999 11
71.0 24.7969 4.375 243
13.3828 4.6719 -1.4853999999999998 128
99.9375 34.875 8.6406 127
18.1562 6.3398 -1.5663999999999998 5
8.4453 2.9199 -1.5684 171
9.5625 3.3047000000000004 -1.5361000000000002 235
11.023399999999999 3.8105 -1.4950999999999999 125
71.3125 24.6406 4.3867 234
13.406199999999998 4.6367 -1.4863 125
99.9375 34.5312 8.6328 158
18.2188 6.300800000000001 -1.5713 169
20.7031 7.1602 -0.7631999999999999 77
8.4609 2.8945 -1.5703 53
9.5703 3.2714999999999996 -1.5352000000000001 188
11.0469 3.7773000000000003 -1.4961000000000002 239
13.4375 4.5977 -1.4883000000000002 118
99.875 34.1562 8.6172 201
18.2969 6.2539 -1.5752000000000002 105
20.6875 7.078099999999999 -0.7617 72
8.4766 2.8632999999999997 -1.5703 193
9.5859 3.2363 -1.5361000000000002 30
11.0625 3.7363 -1.4971 34
68.4375 23.1094 4.1992 3
13.4844 4.5547 -1.4912 37
99.875 33.7188 8.6094 210
18.3281 6.1914 -1.5771000000000002 16
20.7188 7.0 -0.7622 162
8.5078 2.8398000000000003 -1.5732 190
9.5938 3.2031 -1.5361000000000002 242
67.8125 22.6406 2.4941 29
11.0781 3.6973000000000003 -1.4971 81
70.6875 23.6094 4.3359 77
13.523399999999999 4.5156 -1.4941 221
99.8125 33.3438 8.5938 175
18.3906 6.140599999999999 -1.5800999999999998 124
20.7812 6.9375 -0.7631999999999999 243
8.5078 2.8066000000000004 -1.5713 198
9.6016 3.168 -1.5352000000000001 36
11.085899999999999 3.6582 -1.4961000000000002 237
68.375 22.5625 4.1875 124
13.5625 4.4766 -1.4971 132
99.8125 32.9375 8.5859 230
18.4375 6.082000000000001 -1.5819999999999999 219
12.8047 4.2266 -0.15689999999999998 86
8.5156 2.7773000000000003 -1.5713 93
9.6328 3.1406 -1.5381 104
67.8125 22.1094 2.4902 49
11.125 3.627 -1.499 9
68.375 22.2969 4.1797 205
13.5781 4.4297 -1.4971 228
99.8125 32.5312 8.5703 202
18.4688 6.0234000000000005 -1.584 85
12.851600000000001 4.1914 -0.4702 169
12.7969 4.1719 -0.1565 4
8.5312 2.75 -1.5732 81
9.6328 3.1055 -1.5361000000000002 7
11.1328 3.5898000000000003 -1.499 11
69.8125 22.5156 4.2656 165
12.601600000000001 4.0625 -1.3866999999999998 212
18.5 5.9648 -1.585 116
12.9219 4.168 -0.7876000000000001 134
12.789100000000001 4.1211 -0.4673 154
12.781199999999998 4.1211 -0.1561 118
8.5625 2.7305 -1.5781 191
9.6406 3.0723000000000003 -1.5361000000000002 17
67.5625 21.5469 2.4746 221
11.164100000000001 3.5566000000000004 -1.501 66
12.656199999999998 4.0352 -1.3916 64
101.0 32.1875 8.6562 152
12.6953 4.0469 -1.085 190
12.851600000000001 4.0977 -0.7822 77
12.75 4.0664 -0.4656 223
12.773399999999999 4.0742 -0.1559 109
8.5859 2.7031 -1.5791 191
9.6719 3.0469 -1.54 109
67.875 21.375 2.4824 2
11.1875 3.5233999999999996 -1.5029 128
69.4375 21.875 4.2344 164
12.7031 4.0 -1.3955000000000002 187
12.664100000000001 3.9882999999999997 -1.0811 210
12.8125 4.0352 -0.7787999999999999 63
12.75 4.0156 -0.46509999999999996 124
12.7578 4.0156 -0.1555 201
8.5859 2.6719 -1.5781 152
13.023399999999999 4.0547 0.1586 72
9.6797 3.0117000000000003 -1.5391 52
68.0 21.1719 2.4863 98
11.1953 3.4844 -1.5029 211
100.9375 31.4219 6.1484000000000005 254
13.718800000000002 4.2695 -1.5049000000000001 162
100.9375 31.4219 8.6328 97
12.6875 3.9492000000000003 -1.082 225
12.773399999999999 3.9745999999999997 -0.7754000000000001 85
12.726600000000001 3.9608999999999996 -0.4636 139
12.7578 3.9707 -0.1553 126
8.6016 2.6387 -1.5791 57
12.968800000000002 3.9805 0.1577 36
9.7031 2.9785000000000004 -1.541 197
68.0 20.8594 2.4824 82
11.218800000000002 3.4414 -1.5038999999999998 59
13.2422 4.0664 -1.4521000000000002 186
12.835899999999999 3.9395 -1.0937999999999999 172
12.75 3.9141000000000004 -0.7734000000000001 141
12.6797 3.8926 -0.46140000000000003 58
12.718800000000002 3.9043 -0.1547 136
8.625 2.6113 -1.5811000000000002 101
12.976600000000001 3.9297000000000004 0.1576 189
9.7031 2.9395 -1.5391 83
11.25 3.4062 -1.5068000000000001 225
71.6875 21.7188 4.3555 169
13.289100000000001 4.0234 -1.4550999999999998 65
12.7656 3.8651999999999997 -1.0859 49
12.7656 3.8651999999999997 -0.7734000000000001 67
12.6719 3.8379000000000003 -0.4604 188
12.6719 3.8379000000000003 -0.1539 2
8.6406 2.5879000000000003 -1.5830000000000002 6
13.0156 3.9004000000000003 0.158 204
9.7188 2.9120999999999997 -1.54 150
11.2578 3.373 -1.5068000000000001 173
13.773399999999999 4.1289 -1.5068000000000001 143
18.7656 5.6211 -1.5966999999999998 26
12.8203 3.8418 -0.7764 8
12.6406 3.7870999999999997 -0.45899999999999996 114
12.7031 3.8066000000000004 -0.1542 114
8.6562 2.5625 -1.585 33
9.75 2.8848000000000003 -1.5438999999999998 120
11.281199999999998 3.3398000000000003 -1.5078 82
13.8203 4.0898 -1.5097999999999998 253
18.8281 5.5703 -1.5996000000000001 113
12.8828 3.8145 -0.7793000000000001 162
12.656199999999998 3.748 -0.4592 173
12.726600000000001 3.7676 -0.1543 66
8.6719 2.5332 -1.5859 72
9.7656 2.8516000000000004 -1.5449000000000002 32
11.289100000000001 3.2969 -1.5078 230
107.5625 31.4062 6.515599999999999 43
13.843800000000002 4.043 -1.5116999999999998 109
18.9062 5.5234000000000005 -1.6055000000000001 212
12.7031 3.7089999999999996 -0.46020000000000005 206
12.7422 3.7207 -0.1543 37
8.6641 2.4961 -1.5819999999999999 144
9.7812 2.8202999999999996 -1.5459 169
11.2969 3.2558999999999996 -1.5068000000000001 141
107.6875 31.0469 6.519500000000001 18
13.8672 3.9961 -1.5116999999999998 53
18.9219 5.453099999999999 -1.6044999999999998 143
12.7578 3.6776999999999997 -0.4619 121
12.835899999999999 3.6992000000000003 -0.1553 54
8.6875 2.4707 -1.5859 194
9.7812 2.7812 -1.5438999999999998 101
11.335899999999999 3.2245999999999997 -1.5107 69
13.8906 3.9492000000000003 -1.5137 227
18.9844 5.394500000000001 -1.6084 202
25.7188 7.3125 -0.9320999999999999 35
8.7031 2.4414 -1.5859 102
9.7969 2.75 -1.5459 148
11.351600000000001 3.1855 -1.5107 49
13.914100000000001 3.9043 -1.5146000000000002 186
19.0312 5.3398 -1.6113 166
25.7656 7.2265999999999995 -0.9326000000000001 203
8.7109 2.4121 -1.5869 129
9.8281 2.7207 -1.5488 110
11.343800000000002 3.1406 -1.5088 171
13.960899999999999 3.8632999999999997 -1.5175999999999998 157
19.0625 5.2734000000000005 -1.6113 5
8.7109 2.377 -1.585 226
9.8672 2.6933999999999996 -1.5527000000000002 26
11.3594 3.1016000000000004 -1.5088 11
13.9844 3.8164 -1.5186000000000002 31
19.1406 5.2265999999999995 -1.6172 66
26.3125 7.1836 -1.585 174
8.7188 2.3516 -1.585 78
9.8594 2.6582 -1.5508000000000002 46
11.3594 3.0625 -1.5078 65
14.0156 3.7793 -1.5205000000000002 136
19.1719 5.171900000000001 -1.6191 102
26.4375 7.1289 -1.5908000000000002 98
8.7344 2.3242 -1.5869 106
9.8828 2.6289 -1.5527000000000002 184
11.3828 3.0293 -1.5097999999999998 88
14.039100000000001 3.7344 -1.5225 200
19.25 5.125 -1.624 88
8.7578 2.2949 -1.5888999999999998 37
9.8672 2.5858999999999996 -1.5488 78
11.414100000000001 2.9922000000000004 -1.5127000000000002 90
14.0703 3.6875 -1.5234 202
19.2812 5.0547 -1.624 91
31.5938 8.2812 -1.8975 217
8.7656 2.2656 -1.5897999999999999 226
9.8828 2.5547 -1.5508000000000002 248
11.398399999999999 2.9452999999999996 -1.5088 19
14.101600000000001 3.6445 -1.5263999999999998 9
19.3125 4.9922 -1.626 4
24.6719 6.375 -1.4805000000000001 22
8.7812 2.2363 -1.5908000000000002 106
9.9062 2.5234 -1.5518 221
11.406199999999998 2.9062 -1.5088 102
14.1328 3.5995999999999997 -1.5283000000000002 138
19.375 4.9336 -1.6299000000000001 97
24.7031 6.292999999999999 -1.4805000000000001 121
8.7891 2.2051 -1.5897999999999999 200
9.9062 2.4863 -1.5508000000000002 5
11.4219 2.8651999999999997 -1.5088 1
14.148399999999999 3.5507999999999997 -1.5283000000000002 239
19.4219 4.875 -1.6328 231
25.3594 6.3672 -1.5194999999999999 221
24.7188 6.203099999999999 -0.8881999999999999 237
8.8047 2.1777 -1.5918 86
9.9141 2.4512 -1.5508000000000002 146
11.4375 2.8281 -1.5097999999999998 127
14.1797 3.5077999999999996 -1.5312000000000001 246
19.5 4.8203 -1.6366999999999998 239
25.2969 6.2539 -1.5137 207
25.3125 6.2578 -0.304 241
8.8281 2.1504 -1.5947 122
25.3438 6.175800000000001 0.3042 78
9.9297 2.4199 -1.5518 87
25.2969 6.1602 0.9072 231
11.460899999999999 2.7910000000000004 -1.5116999999999998 210
25.3438 6.175800000000001 1.5156 73
14.1875 3.4551 -1.5303 150
25.3438 6.171900000000001 2.127 246
19.5469 4.7617 -1.6396000000000002 60
25.3594 6.175800000000001 2.7382999999999997 31
25.3125 6.1640999999999995 -1.5127000000000002 227
25.3281 6.167999999999999 3.3476999999999997 138
25.3125 6.1640999999999995 -0.9077 133
25.3125 6.167999999999999 3.9668 16
25.2812 6.1602 -0.3035 243
25.3125 6.167999999999999 4.5859 106
8.8359 2.1211 -1.5957 165
25.3281 6.078099999999999 0.3037 230
9.9453 2.3848 -1.5527000000000002 97
25.2656 6.0625 0.9053 236
11.460899999999999 2.75 -1.5107 216
25.3125 6.0703 1.5116999999999998 65
14.2344 3.4141000000000004 -1.5341999999999998 112
25.2969 6.0664 2.1211 174
19.5625 4.6953 -1.6396000000000002 94
25.2969 6.0703 2.7305 38
25.4062 6.0938 -1.5175999999999998 55
25.2812 6.0625 3.3379000000000003 140
25.3281 6.078099999999999 -0.9081999999999999 253
25.2812 6.0625 3.957 60
25.3125 6.0703 -0.3035 94
25.2969 6.0664 4.5781 202
8.8594 2.0918 -1.5977000000000001 144
25.3906 5.9961 0.3042 24
9.9609 2.3535 -1.5547 201
25.3125 5.980499999999999 0.9062 140
11.468800000000002 2.7089999999999996 -1.5097999999999998 25
25.3125 5.980499999999999 1.5107 134
14.25 3.3651999999999997 -1.5341999999999998 126
25.3125 5.9765999999999995 2.1211 54
19.6562 4.6445 -1.6465 223
25.3125 5.9765999999999995 2.7285000000000004 93
25.2969 5.9765999999999995 3.3379000000000003 242
25.5469 6.0352 -0.915 185
25.3281 5.984400000000001 3.9629000000000003 76
25.3594 5.9922 -0.304 72
25.3125 5.980499999999999 4.5781 199
8.8672 2.0605 -1.5977000000000001 176
9.9766 2.3203 -1.5556999999999999 183
25.4062 5.9062 0.9092 91
11.4922 2.6738 -1.5127000000000002 195
25.4062 5.9062 1.5146000000000002 85
12.6875 2.9492000000000003 -1.3643 91
25.3906 5.9023 2.125 169
12.6875 2.9492000000000003 -1.0605 50
12.585899999999999 2.9257999999999997 1.3535 53
12.664100000000001 2.9433999999999996 -0.7534000000000001 42
12.5781 2.9238 1.6553 236
12.710899999999999 2.9551 -0.4539 208
12.6797 2.9473000000000003 -0.1514 140
8.875 2.0312 -1.5986000000000002 46
9.9844 2.2852 -1.5556999999999999 129
11.5156 2.6348000000000003 -1.5137 97
12.6719 2.9004000000000003 -1.3622999999999998 201
12.6875 2.9043 -1.0595999999999999 39
12.6094 2.8848000000000003 1.3544999999999998 197
12.6875 2.9043 -0.7544 189
12.5703 2.877 1.6533000000000002 208
12.6875 2.9043 -0.45289999999999997 49
12.6719 2.9004000000000003 -0.15109999999999998 62
8.8906 2.0039 -1.5996000000000001 132
12.6953 2.8613 0.1512 71
10.0078 2.2559 -1.5586000000000002 63
12.6719 2.8555 0.45189999999999997 23
11.531199999999998 2.5976999999999997 -1.5146000000000002 3
12.6797 2.8574 0.7534000000000001 156
12.6797 2.8574 -1.3613 206
12.648399999999999 2.8516000000000004 1.0556999999999999 226
12.6719 2.8555 -1.0576 49
12.6094 2.8418 1.3535 144
12.6797 2.8574 -0.7534000000000001 159
12.585899999999999 2.8358999999999996 1.6543 201
12.6875 2.8594 -0.4524 133
12.664100000000001 2.8555 -0.151 129
8.8984 1.9746000000000001 -1.6006 47
12.6875 2.8145 0.15109999999999998 249
10.0312 2.2266 -1.5605000000000002 168
12.6719 2.8125 0.4514 235
11.539100000000001 2.5605 -1.5146000000000002 228
12.6875 2.8145 0.7534000000000001 223
12.6875 2.8145 -1.3613 148
12.6719 2.8125 1.0566 32
12.6719 2.8105 -1.0566 31
12.6172 2.7988 1.3535 153
12.664100000000001 2.8086 -0.752 47
12.585899999999999 2.793 1.6522999999999999 212
12.6719 2.8125 -0.4517 8
12.664100000000001 2.8086 1.9716999999999998 152
12.664100000000001 2.8105 -0.1508 71
12.656199999999998 2.8066000000000004 2.2773 180
8.9062 1.9413999999999998 -1.5996000000000001 208
12.6797 2.7637 0.1509 111
10.0469 2.1895 -1.5615 164
12.6719 2.7617000000000003 0.4512 158
11.539100000000001 2.5156 -1.5137 161
12.6797 2.7637 0.7524 76
12.6953 2.7676 -1.3613 224
12.6797 2.7637 1.0566 158
12.664100000000001 2.7617000000000003 -1.0556999999999999 190
12.601600000000001 2.748 1.3506 4
12.6719 2.7617000000000003 -0.752 2
12.593800000000002 2.7441000000000004 1.6522999999999999 79
12.6875 2.7656 -0.4517 80
12.656199999999998 2.7598000000000003 1.9678 139
12.656199999999998 2.7598000000000003 -0.1506 179
12.656199999999998 2.7598000000000003 2.2754 156
8.9062 1.9091999999999998 -1.5986000000000002 207
12.6875 2.7188 0.1508 131
10.0625 2.1562 -1.5625 187
12.6875 2.7188 0.4512 235
11.5547 2.4766 -1.5146000000000002 151
12.6797 2.7168 0.7515000000000001 238
12.6797 2.7188 -1.3584 181
12.6797 2.7188 1.0556999999999999 181
12.6719 2.7168 -1.0547 16
12.593800000000002 2.6992000000000003 1.3496000000000001 145
12.656199999999998 2.7129000000000003 -0.75 255
12.5703 2.6952999999999996 1.6484 0
12.6875 2.7188 -0.4512 233
12.664100000000001 2.7148000000000003 1.9687999999999999 143
12.6719 2.7168 -0.1506 43
12.656199999999998 2.7129000000000003 2.2734 127
8.9297 1.8828 -1.6025 69
12.6797 2.6719 0.1506 147
10.0703 2.1211 -1.5625 49
12.6875 2.6738 0.4512 65
11.5781 2.4395 -1.5166 236
12.6719 2.6699 0.7505 167
12.6719 2.6699 -1.3563999999999998 211
12.6719 2.6699 1.0547 212
12.6797 2.6719 -1.0547 147
12.6094 2.6582 1.3496000000000001 11
12.656199999999998 2.668 -0.75 113
12.5625 2.6464999999999996 1.6455000000000002 28
12.6797 2.6719 -0.4507 128
12.664100000000001 2.6699 1.9678 181
12.6719 2.6699 -0.1505 164
12.656199999999998 2.6660000000000004 2.2734 137
8.9531 1.8535 -1.6044999999999998 24
12.6719 2.623 0.15039999999999998 83
10.0703 2.0859 -1.5615 46
12.6719 2.625 0.45020000000000004 197
11.601600000000001 2.4023 -1.5186000000000002 94
12.6797 2.625 0.7505 35
12.6875 2.627 -1.3574000000000002 130
12.6719 2.625 1.0537 140
12.6719 2.623 -1.0537 247
12.6094 2.6113 1.3486000000000002 74
12.664100000000001 2.623 -0.75 83
12.5703 2.6035000000000004 1.6455000000000002 162
12.6719 2.623 -0.45 102
12.656199999999998 2.6211 1.9638999999999998 16
12.6719 2.625 -0.15039999999999998 201
12.656199999999998 2.6211 2.2715 210
8.9609 1.8232 -1.6055000000000001 105
12.6875 2.582 0.1505 6
10.0859 2.0508 -1.5625 134
12.6719 2.5781 0.4497 127
11.585899999999999 2.3574 -1.5156 246
12.6797 2.5801 0.7505 130
12.6797 2.5801 -1.3555000000000001 53
12.664100000000001 2.5762 1.0518 216
12.648399999999999 2.5742000000000003 -1.0508 221
12.601600000000001 2.5645 1.3466999999999998 36
12.664100000000001 2.5762 -0.7495 113
12.5781 2.5586 1.6455000000000002 198
12.6719 2.5781 -0.4497 44
12.6406 2.5723000000000003 1.9609 76
12.664100000000001 2.5762 -0.1501 211
12.656199999999998 2.5762 2.2715 217
8.9688 1.7919999999999998 -1.6055000000000001 197
12.6875 2.5352 0.15039999999999998 126
10.0859 2.0156 -1.5615 51
12.6719 2.5312 0.4495 168
11.601600000000001 2.3184 -1.5166 57
12.6719 2.5312 0.7490000000000001 11
12.6875 2.5352 -1.3555000000000001 0
12.6719 2.5312 1.0518 69
12.664100000000001 2.5293 -1.0508 173
12.593800000000002 2.5156 1.3447 116
12.648399999999999 2.5273 -0.748 159
12.585899999999999 2.5156 1.6455000000000002 97
12.6797 2.5352 -0.45 220
12.648399999999999 2.5273 1.96 203
12.656199999999998 2.5293 -0.15 73
12.648399999999999 2.5273 2.2676 63
8.9688 1.7597999999999998 -1.6044999999999998 131
12.664100000000001 2.4844 0.15 107
10.1016 1.9824000000000002 -1.5635 86
12.6797 2.4883 0.4495 125
11.6172 2.2793 -1.5166 88
12.664100000000001 2.4844 0.748 28
12.6797 2.4883 -1.3535 9
12.6719 2.4863 1.0518 154
12.6719 2.4863 -1.0508 116
12.585899999999999 2.4688 1.3437999999999999 191
12.648399999999999 2.4824 -0.7476 4
12.5703 2.4668 1.6425999999999998 52
12.6797 2.4863 -0.44920000000000004 139
12.664100000000001 2.4844 1.9609 117
12.656199999999998 2.4824 -0.1499 13
12.625 2.4785 2.2617 8
8.9922 1.7313999999999998 -1.6074000000000002 166
12.6719 2.4414 0.15 244
10.1172 1.9482 -1.5644999999999998 206
12.6719 2.4395 0.4487 53
11.6406 2.2422 -1.5194999999999999 29
12.6719 2.4414 0.748 132
12.664100000000001 2.4375 -1.3506 80
12.6719 2.4395 1.0508 116
12.6719 2.4395 -1.0508 169
12.601600000000001 2.4258 1.3437999999999999 34
12.664100000000001 2.4395 -0.7476 172
12.5625 2.418 1.6396000000000002 191
12.664100000000001 2.4375 -0.4485 193
12.648399999999999 2.4355 1.9580000000000002 66
12.664100000000001 2.4395 -0.1499 74
12.6406 2.4336 2.2617 134
9.0 1.7012 -1.6084 171
12.6719 2.3945 0.1499 61
10.1172 1.9111000000000002 -1.5635 129
12.664100000000001 2.3926 0.4482 115
11.656199999999998 2.2031 -1.5205000000000002 106
12.6719 2.3945 0.7476 237
12.6719 2.3945 -1.3506 15
12.656199999999998 2.3926 1.0488 252
12.664100000000001 2.3926 -1.0498 204
12.601600000000001 2.3809 1.3437999999999999 98
12.664100000000001 2.3926 -0.7471 20
12.5625 2.375 1.6396000000000002 185
12.664100000000001 2.3926 -0.4482 165
12.656199999999998 2.3926 1.9580000000000002 156
12.664100000000001 2.3926 -0.14980000000000002 176
12.648399999999999 2.3887 2.2617 140
9.0078 1.6699000000000002 -1.6084 184
12.664100000000001 2.3477 0.14980000000000002 116
10.125 1.8769999999999998 -1.5644999999999998 13
12.664100000000001 2.3477 0.44799999999999995 50
11.656199999999998 2.1602 -1.5194999999999999 254
12.6719 2.3496 0.7476 179
12.6719 2.3496 -1.3506 62
12.656199999999998 2.3457 1.0479 226
12.656199999999998 2.3457 -1.0479 73
12.593800000000002 2.334 1.3408000000000002 136
12.6719 2.3496 -0.7471 231
12.5781 2.3301 1.6396000000000002 180
12.6719 2.3477 -0.4482 233
12.6406 2.3438 1.9541 62
12.656199999999998 2.3457 -0.1495 125
12.648399999999999 2.3438 2.2617 42
9.0 1.6387 -1.6055000000000001 151
12.6797 2.3086 0.14980000000000002 30
10.1641 1.8506 -1.5693000000000001 33
12.656199999999998 2.3047 0.4473 163
11.6719 2.125 -1.5205000000000002 10
12.6719 2.3066 0.7465999999999999 41
12.6719 2.3066 -1.3496000000000001 221
12.664100000000001 2.3066 1.0479 120
12.664100000000001 2.3066 -1.0479 157
12.5781 2.2891 1.3388999999999998 139
12.656199999999998 2.3047 -0.7456 139
12.5703 2.2891 1.6387 161
12.6797 2.3086 -0.4482 27
12.656199999999998 2.3047 1.9561000000000002 180
12.648399999999999 2.3027 -0.1494 85
12.6406 2.3008 2.2578 191
9.0078 1.6094 -1.6063999999999998 247
12.6719 2.2637 0.1497 57
10.1641 1.8163999999999998 -1.5674000000000001 84
12.664100000000001 2.2637 0.4475 32
11.6875 2.0879 -1.5215 12
12.664100000000001 2.2637 0.7461 88
12.664100000000001 2.2637 -1.3477000000000001 23
12.6719 2.2637 1.0479 143
12.6719 2.2637 -1.0479 146
12.585899999999999 2.248 1.3388999999999998 196
12.648399999999999 2.2598 -0.7451000000000001 16
12.5625 2.2441 1.6357 57
12.6719 2.2637 -0.44780000000000003 133
12.648399999999999 2.2598 1.9521000000000002 8
12.6406 2.2578 -0.1493 122
12.6328 2.2559 2.2559 216
9.0234 1.5781 -1.6074000000000002 251
12.664100000000001 2.2148 0.1494 204
10.1797 1.7803 -1.5693000000000001 232
12.656199999999998 2.2129 0.447 206
11.718800000000002 2.0488 -1.5253999999999999 32
12.664100000000001 2.2148 0.7451000000000001 0
12.664100000000001 2.2148 -1.3466999999999998 207
12.656199999999998 2.2148 1.0459 248
12.664100000000001 2.2148 -1.0469 138
12.5781 2.1992 1.3378999999999999 228
12.656199999999998 2.2129 -0.7445999999999999 192
12.5469 2.1953 1.6328 99
12.664100000000001 2.2148 -0.447 153
12.648399999999999 2.2129 1.9512 104
12.648399999999999 2.2129 -0.1493 182
12.6406 2.2109 2.2559 83
9.0312 1.5469 -1.6074000000000002 30
12.6719 2.1699 0.1494 126
10.1797 1.7441 -1.5684 10
12.656199999999998 2.168 0.4465 180
11.726600000000001 2.0078 -1.5253999999999999 226
12.6797 2.1719 0.7456 171
12.656199999999998 2.168 -1.3457 145
12.6406 2.166 1.0439 140
12.6719 2.1699 -1.0459 179
12.585899999999999 2.1562 1.3378999999999999 152
12.664100000000001 2.168 -0.7445999999999999 223
12.5703 2.1523 1.6347999999999998 230
12.664100000000001 2.168 -0.4468 7
12.6406 2.166 1.9491999999999998 194
12.648399999999999 2.166 -0.1492 21
12.648399999999999 2.166 2.2559 248
9.0469 1.5166 -1.6103999999999998 206
12.656199999999998 2.123 0.1492 19
10.2031 1.7109 -1.5713 160
12.648399999999999 2.1211 0.446 254
11.7344 1.9687999999999999 -1.5253999999999999 64
12.6719 2.125 0.7445999999999999 127
12.664100000000001 2.123 -1.3447 242
12.664100000000001 2.123 1.0449 127
12.664100000000001 2.123 -1.0449 205
12.585899999999999 2.1113 1.3369 168
12.664100000000001 2.123 -0.7445999999999999 98
12.5703 2.1074 1.6338 51
12.664100000000001 2.123 -0.4465 92
12.6328 2.1191 1.9472999999999998 170
12.6328 2.1191 -0.1489 73
12.6406 2.1191 2.252 78
9.0469 1.4844 -1.6094 69
12.6797 2.0801 0.1493 28
10.2266 1.6787 -1.5741999999999998 108
12.648399999999999 2.0762 0.4458 141
11.75 1.9277000000000002 -1.5263999999999998 191
12.664100000000001 2.0781 0.7437 221
12.6719 2.0801 -1.3447 203
12.664100000000001 2.0781 1.0449 89
12.656199999999998 2.0781 -1.0439 15
12.5703 2.0625 1.334 27
12.648399999999999 2.0762 -0.7432 124
12.5703 2.0625 1.6328 222
12.664100000000001 2.0781 -0.44630000000000003 167
12.656199999999998 2.0762 1.9482 217
12.6328 2.0723 -0.14880000000000002 75
12.6406 2.0742 2.252 197
9.0391 1.4512 -1.6063999999999998 166
12.664100000000001 2.0332 0.149 232
10.2422 1.6444999999999999 -1.5762 212
12.648399999999999 2.0312 0.4456 14
11.7656 1.8887 -1.5272999999999999 137
12.648399999999999 2.0312 0.7426999999999999 24
12.664100000000001 2.0332 -1.3437999999999999 207
12.656199999999998 2.0312 1.0439 18
12.664100000000001 2.0332 -1.0439 113
12.5781 2.0195 1.334 30
12.6406 2.0293 -0.7426999999999999 96
12.5625 2.0176 1.6318000000000001 193
12.6719 2.0352 -0.44630000000000003 75
12.648399999999999 2.0293 1.9463 230
12.6328 2.0273 -0.1487 21
12.625 2.0254 2.2461 112
9.0547 1.4209 -1.6084 255
12.6406 1.9844 0.14880000000000002 242
10.2344 1.6063999999999998 -1.5732 49
12.656199999999998 1.9863 0.4456 187
11.781199999999998 1.8496000000000001 -1.5283000000000002 210
12.656199999999998 1.9863 0.7426999999999999 79
12.656199999999998 1.9863 -1.3418 138
12.648399999999999 1.9853999999999998 1.042 221
12.6719 1.9883000000000002 -1.0439 4
12.585899999999999 1.9746000000000001 1.334 230
12.648399999999999 1.9853999999999998 -0.7422 199
12.5547 1.9707 1.6288999999999998 179
12.664100000000001 1.9872999999999998 -0.4458 48
12.648399999999999 1.9853999999999998 1.9463 241
12.6406 1.9844 -0.14880000000000002 95
12.6328 1.9824000000000002 2.248 151
9.0703 1.3925999999999998 -1.6103999999999998 29
12.656199999999998 1.9434 0.14880000000000002 252
10.2422 1.5722999999999998 -1.5732 161
12.648399999999999 1.9413999999999998 0.4451 227
11.8047 1.8125 -1.5303 201
12.664100000000001 1.9443000000000001 0.7426999999999999 133
12.656199999999998 1.9434 -1.3408000000000002 162
12.6406 1.9413999999999998 1.041 152
12.664100000000001 1.9443000000000001 -1.043 146
12.585899999999999 1.9325999999999999 1.334 17
12.648399999999999 1.9424000000000001 -0.7422 134
12.5547 1.9277000000000002 1.6279 197
12.656199999999998 1.9434 -0.44530000000000003 196
12.625 1.9385 1.9413999999999998 15
12.6406 1.9413999999999998 -0.1487 24
12.625 1.9394999999999998 2.2461 176
9.0938 1.3652000000000002 -1.6143 118
12.664100000000001 1.9022999999999999 0.1489 108
10.25 1.54 -1.5741999999999998 231
12.625 1.8965 0.44409999999999994 75
11.8125 1.7734 -1.5312000000000001 223
12.656199999999998 1.9003999999999999 0.7422 22
12.664100000000001 1.9022999999999999 -1.3418 241
12.656199999999998 1.9003999999999999 1.042 220
12.648399999999999 1.8994 -1.041 57
12.5781 1.8887 1.3319999999999999 113
12.656199999999998 1.9003999999999999 -0.7417 99
12.5625 1.8866999999999998 1.6288999999999998 68
12.664100000000001 1.9013999999999998 -0.44530000000000003 110
12.6172 1.8955000000000002 1.9394999999999998 200
12.6406 1.8984 -0.14859999999999998 84
12.6406 1.8984 2.2461 135
9.0703 1.3262 -1.6094 251
12.6719 1.8525 0.14880000000000002 6
10.281199999999998 1.5038999999999998 -1.5781 252
12.648399999999999 1.8496000000000001 0.4446 237
11.8281 1.7305000000000001 -1.5322 8
12.656199999999998 1.8516 0.7417 241
12.664100000000001 1.8525 -1.3408000000000002 59
12.656199999999998 1.8506 1.041 244
12.648399999999999 1.8496000000000001 -1.04 134
12.5625 1.8369 1.3300999999999998 84
12.6406 1.8486000000000002 -0.7406999999999999 154
12.5703 1.8378999999999999 1.6279 47
12.664100000000001 1.8525 -0.44530000000000003 195
12.625 1.8457 1.9385 30
12.6328 1.8477000000000001 -0.1484 40
12.6172 1.8447 2.2402 21
9.0703 1.2938999999999998 -1.6074000000000002 2
12.656199999999998 1.8056999999999999 0.14859999999999998 32
10.2969 1.4687999999999999 -1.5791 50
12.648399999999999 1.8047 0.4443 206
11.851600000000001 1.6904 -1.5341999999999998 169
12.6406 1.8027000000000002 0.7402 109
12.656199999999998 1.8066 -1.3397999999999999 239
12.656199999999998 1.8066 1.041 93
12.648399999999999 1.8047 -1.04 206
12.5703 1.7938999999999998 1.3300999999999998 209
12.625 1.8018 -0.7393000000000001 199
12.5547 1.791 1.626 233
12.664100000000001 1.8075999999999999 -0.4451 154
12.625 1.8018 1.9385 127
12.6406 1.8027000000000002 -0.1484 91
12.625 1.8018 2.2422 227
9.0781 1.2646 -1.6094 212
12.6406 1.7607 0.1484 209
10.3047 1.4355000000000002 -1.5800999999999998 234
12.656199999999998 1.7637 0.4446 245
11.875 1.6543 -1.5371000000000001 185
12.648399999999999 1.7616999999999998 0.7402 181
12.648399999999999 1.7616999999999998 -1.3378999999999999 139
12.656199999999998 1.7627000000000002 1.04 86
12.656199999999998 1.7637 -1.04 94
12.5781 1.7519999999999998 1.3300999999999998 159
12.6406 1.7607 -0.7397 11
12.5469 1.7471 1.624 227
12.656199999999998 1.7627000000000002 -0.4443 153
12.6328 1.7597999999999998 1.9385 60
12.648399999999999 1.7616999999999998 -0.1484 215
12.625 1.7588 2.2402 238
9.0938 1.2363 -1.6103999999999998 141
12.6406 1.7178 0.1483 151
10.3125 1.4013999999999998 -1.5800999999999998 28
12.6406 1.7178 0.44380000000000003 90
11.898399999999999 1.6172 -1.5391 209
12.656199999999998 1.7197 0.7402 254
12.656199999999998 1.7197 -1.3378999999999999 67
12.6328 1.7178 1.0381 232
12.6328 1.7168 -1.0381 199
12.5703 1.709 1.3291 104
12.6406 1.7178 -0.7397 72
12.5547 1.7061000000000002 1.624 54
12.648399999999999 1.7187999999999999 -0.44380000000000003 43
12.625 1.7168 1.9365 198
12.656199999999998 1.7197 -0.1484 229
12.6328 1.7168 2.2402 190
9.1016 1.2031 -1.6113 59
12.6406 1.6709 0.1482 110
10.3203 1.3643 -1.5800999999999998 8
12.6406 1.6709 0.4434 221
11.906199999999998 1.5732 -1.5391 174
12.656199999999998 1.6728999999999998 0.7402 181
12.664100000000001 1.6738 -1.3378999999999999 87
12.648399999999999 1.6719 1.0381 131
12.625 1.6688999999999998 -1.0371 30
12.5703 1.6621000000000001 1.3281 165
12.6328 1.6699000000000002 -0.7387999999999999 209
12.5625 1.6602000000000001 1.625 63
12.648399999999999 1.6728999999999998 -0.44380000000000003 211
12.6172 1.6680000000000001 1.9346 75
12.6406 1.6709 -0.1482 172
12.6406 1.6709 2.2402 68
9.1016 1.1709 -1.6113 23
12.648399999999999 1.6269999999999998 0.1483 134
10.335899999999999 1.3291 -1.5819999999999999 115
12.6406 1.6269999999999998 0.4434 46
11.906199999999998 1.5322 -1.5391 22
12.648399999999999 1.6269999999999998 0.7393000000000001 54
12.664100000000001 1.6299000000000001 -1.3378999999999999 86
12.648399999999999 1.6269999999999998 1.0381 234
12.6406 1.626 -1.0371 34
12.5625 1.6162 1.3262 39
12.6328 1.625 -0.7383 234
12.5703 1.6162 1.625 90
12.656199999999998 1.6288999999999998 -0.44380000000000003 51
12.6328 1.625 1.9355000000000002 54
12.6328 1.625 -0.1481 99
12.625 1.624 2.2363 28
9.1094 1.1396 -1.6113 61
12.648399999999999 1.5819999999999999 0.1482 60
10.3281 1.2919999999999998 -1.5811000000000002 203
12.656199999999998 1.5830000000000002 0.4436 223
11.9375 1.4931999999999999 -1.5419999999999998 6
12.6328 1.5811000000000002 0.7383 235
12.656199999999998 1.5830000000000002 -1.3359 211
12.656199999999998 1.5830000000000002 1.0381 12
12.648399999999999 1.5819999999999999 -1.0371 121
12.5547 1.5703 1.3252000000000002 50
12.625 1.5791 -0.7378 126
12.5625 1.5713 1.6230000000000002 110
12.656199999999998 1.5830000000000002 -0.4436 106
12.625 1.5791 1.9336000000000002 89
12.648399999999999 1.5819999999999999 -0.1481 209
12.625 1.5791 2.2363 253
9.125 1.1094 -1.6133000000000002 0
12.6406 1.5361000000000002 0.1479 203
10.343800000000002 1.2568000000000001 -1.5819999999999999 19
12.656199999999998 1.5381 0.4434 176
11.9531 1.4521000000000002 -1.5430000000000001 54
12.648399999999999 1.5371000000000001 0.7383 107
12.648399999999999 1.5371000000000001 -1.334 117
12.6328 1.5361000000000002 1.0361 177
12.648399999999999 1.5371000000000001 -1.0371 5
12.5625 1.5272999999999999 1.3262 161
12.6328 1.5352000000000001 -0.7378 36
12.5547 1.5253999999999999 1.6211000000000002 163
12.6406 1.5371000000000001 -0.4429 67
12.6328 1.5352000000000001 1.9336000000000002 1
12.6406 1.5371000000000001 -0.1481 50
12.6328 1.5352000000000001 2.2363 106
9.1328 1.0762 -1.6143 67
12.648399999999999 1.4902000000000002 0.1481 36
10.343800000000002 1.2187999999999999 -1.5819999999999999 157
12.648399999999999 1.4902000000000002 0.4429 153
11.968800000000002 1.4102000000000001 -1.5449000000000002 129
12.648399999999999 1.4902000000000002 0.7383 250
12.648399999999999 1.4902000000000002 -1.334 117
12.6406 1.4893 1.0361 232
12.6328 1.4883000000000002 -1.0352 100
12.5781 1.4824000000000002 1.3262 132
12.6406 1.4893 -0.7378 251
12.5469 1.4785 1.6191 184
12.6406 1.4893 -0.4426 141
12.6172 1.4872999999999998 1.9316 133
12.648399999999999 1.4902000000000002 -0.1481 137
12.6172 1.4872999999999998 2.2324 10
9.1484 1.0449 -1.6162 206
12.656199999999998 1.4463 0.1481 253
10.3594 1.1836 -1.584 104
12.6328 1.4443000000000001 0.4424 89
11.968800000000002 1.3681999999999999 -1.5438999999999998 144
12.648399999999999 1.4463 0.7383 151
12.664100000000001 1.4472999999999998 -1.335 195
12.6406 1.4443000000000001 1.0352 213
12.625 1.4434 -1.0342 107
12.5703 1.4365 1.3252000000000002 241
12.6406 1.4443000000000001 -0.7378 126
12.5625 1.4355000000000002 1.6211000000000002 10
12.648399999999999 1.4463 -0.4429 84
12.6172 1.4413999999999998 1.9297 2
12.6328 1.4434 -0.1477 242
8.1953 0.9365000000000001 1.4463 244
9.1406 1.0156 -1.6152000000000002 127
12.648399999999999 1.4053 0.1479 183
10.375 1.1523 -1.585 179
12.6406 1.4053 0.4424 182
11.9844 1.3319999999999999 -1.5459 173
12.6406 1.4043 0.7373000000000001 139
12.656199999999998 1.4062000000000001 -1.334 24
12.6406 1.4043 1.0352 37
12.6328 1.4043 -1.0352 7
12.539100000000001 1.3936000000000002 1.3213 215
12.6406 1.4043 -0.7373000000000001 135
