# .PCD v0.7 - Point Cloud Data file format
VERSION 0.7
FIELDS x y z intensity
SIZE 4 4 4 4
TYPE F F F F
COUNT 1 1 1 1
WIDTH 1240
HEIGHT 1
VIEWPOINT 0 0 0 1 0 0 0
POINTS 1240
DATA ascii
-12.9219 -15.8906 0.23850000000000002 52
-4.2812 -5.265599999999999 -1.0283 138
-12.9453 -15.9297 0.7148 139
-12.9297 -15.906199999999998 1.1904000000000001 104
-6.5 -7.9961 -1.0781 46
-7.332000000000001 -9.0156 0.9458 142
-6.5390999999999995 -8.0469 -0.8432999999999999 217
-7.125 -8.7656 1.1826 146
-6.957000000000001 -8.5625 1.4131 210
-12.8906 -15.8594 -0.7119 27
-6.8984000000000005 -8.4844 1.6611000000000002 194
-12.875 -15.835899999999999 -0.2378 178
-6.890599999999999 -8.4766 1.9180000000000001 157
-0.6177 -0.7544 -0.1646 244
-12.914100000000001 -15.773399999999999 0.23739999999999997 211
-4.3359 -5.296900000000001 -1.0371 190
-9.8281 -12.0 0.54 133
-12.9219 -15.781199999999998 1.1836 253
-6.5039 -7.9414 -1.0742 192
-7.3672 -9.0 0.9462999999999999 142
-6.546900000000001 -7.9922 -0.8403 166
-8.8203 -10.773399999999999 1.459 108
-8.9375 -10.9219 1.8096 20
-12.898399999999999 -15.7578 -0.7095 141
-6.8984000000000005 -8.4219 1.6533000000000002 208
-12.875 -15.726600000000001 -0.2368 73
-6.9414 -8.4766 1.9247999999999998 156
-0.6353 -0.7705 -0.16870000000000002 86
-12.906199999999998 -15.656199999999998 0.23629999999999998 48
-4.3945 -5.328099999999999 -1.0469 214
-9.8984 -12.0 0.5415 243
-12.9297 -15.6797 1.1797 147
-6.5 -7.8789 -1.0693000000000001 133
-7.4414 -9.0234 0.9517 51
-6.550800000000001 -7.9453 -0.8373999999999999 179
-23.6562 -28.6875 3.9023000000000003 244
-7.0 -8.4844 1.4091999999999998 41
-12.8906 -15.625 -0.7056 242
-6.925800000000001 -8.3984 1.6533000000000002 178
-12.8672 -15.601600000000001 -0.23559999999999998 41
-6.9102 -8.3828 1.9082 57
-0.5977 -0.7197 -0.1576 218
-12.898399999999999 -15.539100000000001 0.2354 57
-4.3828 -5.2773 -1.0391 116
-12.9297 -15.5703 0.7051000000000001 70
-6.4961 -7.824199999999999 -1.3027000000000002 117
-12.9453 -15.593800000000002 1.1768 213
-6.4961 -7.824199999999999 -1.0645 166
-7.4765999999999995 -9.0078 0.9521 56
-6.5586 -7.8984000000000005 -0.835 138
-9.6797 -11.664100000000001 1.5888999999999998 246
-7.0234000000000005 -8.4609 1.4091999999999998 126
-12.898399999999999 -15.531199999999998 -0.7031000000000001 165
-6.9414 -8.3594 1.6503999999999999 215
-12.8906 -15.523399999999999 -0.2351 183
-6.9727 -8.3984 1.9169999999999998 200
-0.6177 -0.7387999999999999 -0.1625 82
-12.976600000000001 -15.523399999999999 0.2357 229
-4.3906 -5.2539 -1.0371 11
-13.0 -15.5547 0.7061 174
-6.5078 -7.7890999999999995 -1.2997999999999998 233
-9.0859 -10.875 0.8218000000000001 254
-6.4922 -7.765599999999999 -1.0586 92
-7.4688 -8.9297 0.9473 161
-6.546900000000001 -7.832000000000001 -0.8306 9
-9.6562 -11.5547 1.5781 24
-6.9609000000000005 -8.3281 1.3906 202
-12.960899999999999 -15.5078 -0.7041 3
-6.9414 -8.3047 1.6436000000000002 139
-12.968800000000002 -15.5156 -0.23559999999999998 4
-7.042999999999999 -8.4297 1.9287 0
-0.6152000000000001 -0.7304999999999999 -0.161 225
-13.1172 -15.5703 0.2372 104
-4.4023 -5.2265999999999995 -1.0361 59
-13.085899999999999 -15.539100000000001 0.7075 18
-6.5039 -7.7188 -1.2930000000000001 172
-9.5469 -11.335899999999999 0.8599 11
-6.5 -7.7148 -1.0556999999999999 227
-8.0547 -9.5625 1.0176 171
-6.542999999999999 -7.765599999999999 -0.8256999999999999 212
-9.7188 -11.539100000000001 1.5811000000000002 15
-6.9727 -8.2812 1.3866999999999998 238
-6.9336 -8.2266 -0.374 123
-6.9688 -8.2734 1.6436000000000002 132
-9.4766 -11.25 2.5858999999999996 103
-0.6079 -0.7162999999999999 -0.1582 68
-13.1875 -15.5469 0.23739999999999997 83
-6.5390999999999995 -7.707000000000001 -1.5352000000000001 214
-13.1797 -15.531199999999998 0.7095 37
-6.5039 -7.667999999999999 -1.2881 84
-10.0156 -11.8047 0.8979 22
-6.4961 -7.6562 -1.0508 99
-8.0703 -9.5156 1.0156 246
-6.550800000000001 -7.7227 -0.8237000000000001 146
-9.7891 -11.539100000000001 1.5859 18
-7.3086 -8.6172 1.4472999999999998 1
-6.8711 -8.1016 -0.3691 31
-6.9765999999999995 -8.2188 1.6377000000000002 227
-13.1406 -15.4844 -0.2366 14
-7.4062 -8.7344 2.0117 179
-0.5972 -0.6992 -0.1548 166
-13.2656 -15.531199999999998 0.2379 42
-6.5390999999999995 -7.6562 -1.5283000000000002 93
-13.281199999999998 -15.5547 0.7123999999999999 25
-6.5 -7.609400000000001 -1.2812000000000001 63
-9.9375 -11.6406 0.8876999999999999 113
-6.4961 -7.605499999999999 -1.0469 75
-8.0703 -9.4531 1.0117 246
-6.574199999999999 -7.699199999999999 -0.8231999999999999 2
-7.7890999999999995 -9.1172 1.2559 36
-7.296900000000001 -8.5391 1.4394999999999998 26
-6.8672 -8.0391 -0.3674 18
-6.9102 -8.0938 1.6162 156
-13.2422 -15.5 -0.2375 146
-18.5625 -21.7344 5.0312 108
-0.6406000000000001 -0.7451000000000001 -0.1659 182
-13.3203 -15.4922 0.23800000000000002 199
-6.515599999999999 -7.578099999999999 -1.5175999999999998 229
-13.375 -15.5547 0.7143999999999999 217
-6.4961 -7.5547 -1.2764 212
-9.375 -10.906199999999998 0.8340000000000001 206
-6.5 -7.5586 -1.043 203
-8.0938 -9.4141 1.0107 32
-6.5938 -7.667999999999999 -0.8228 64
-7.8359000000000005 -9.1172 1.2588 214
-7.2734000000000005 -8.4609 1.4297 110
-6.832000000000001 -7.9453 -0.3643 0
-6.9336 -8.0625 1.6152000000000002 127
-13.343800000000002 -15.523399999999999 -0.23850000000000002 11
-7.5352 -8.7656 2.0293 66
-0.6128 -0.7070000000000001 -0.1576 63
-6.5234000000000005 -7.5312 -1.5127000000000002 194
-13.460899999999999 -15.539100000000001 0.7158 219
-6.5 -7.5039 -1.2715 42
-9.4688 -10.9297 0.8389 166
-6.5 -7.5039 -1.0391 57
-8.1641 -9.4297 1.0146 34
-6.5977 -7.613300000000001 -0.8193 239
-7.8203 -9.0234 1.251 245
-7.3086 -8.4375 1.4306999999999999 84
-6.8047 -7.855499999999999 -0.3611 112
-7.0390999999999995 -8.125 1.6328 231
-13.4453 -15.523399999999999 -0.23929999999999998 99
-7.417999999999999 -8.5625 1.9902000000000002 121
-0.6411 -0.7349 -0.1646 160
-6.5352 -7.488300000000001 -1.5088 241
-13.5469 -15.531199999999998 0.7178 30
-6.488300000000001 -7.4375 -1.2646 68
-9.4844 -10.875 0.8369 112
-6.5 -7.453099999999999 -1.0352 188
-8.1719 -9.3672 1.0117 183
-6.5625 -7.5234000000000005 -0.812 117
-9.5547 -10.9531 1.5234 218
-8.3906 -9.6172 1.6366999999999998 165
-6.8125 -7.8086 -0.3601 208
-7.1562 -8.2031 1.6533000000000002 69
-7.453099999999999 -8.5469 1.9912 69
-0.6436 -0.7323999999999999 -0.1646 224
-13.6406 -15.531199999999998 0.2408 228
-6.5312 -7.4375 -1.5029 166
-8.8594 -10.0781 0.4668 126
-6.4961 -7.394500000000001 -1.2607 173
-9.3828 -10.6875 0.8247 14
-6.4961 -7.394500000000001 -1.0303 111
-8.2109 -9.3516 1.0127 61
-8.25 -9.3984 1.3096 27
-7.1289 -8.1172 1.3838 58
-6.8125 -7.7539 -0.3586 210
-7.171900000000001 -8.1641 1.6503999999999999 91
-12.968800000000002 -14.7578 -0.2289 75
-7.3477 -8.3594 1.9550999999999998 3
-0.6201 -0.7006999999999999 -0.1576 132
-13.726600000000001 -15.5078 0.2413 191
-6.5352 -7.386699999999999 -1.4971 219
-13.7578 -15.5547 0.7231000000000001 91
-6.4922 -7.3359000000000005 -1.2549 91
-13.789100000000001 -15.585899999999999 1.208 224
-6.5 -7.3477 -1.0264 10
-8.2266 -9.2969 1.0098 60
-8.125 -9.1797 1.2832 160
-8.5703 -9.6875 1.6582 207
-6.8164 -7.703099999999999 -0.3574 26
-7.238300000000001 -8.1797 1.6591999999999998 205
-12.968800000000002 -14.656199999999998 -0.228 66
-7.2148 -8.1562 1.9131 152
-7.2148 -8.0938 -1.9043 40
-13.8125 -15.5078 0.2419 76
-6.5273 -7.328099999999999 -1.4902000000000002 16
-13.843800000000002 -15.539100000000001 0.7251000000000001 41
-6.4961 -7.2890999999999995 -1.25 149
-13.8672 -15.5703 1.21 101
-6.5 -7.296900000000001 -1.0225 27
-8.2734 -9.2891 1.0127 91
-8.2109 -9.2188 1.2930000000000001 222
-8.4766 -9.5078 1.6328 66
-6.8047 -7.636699999999999 -0.3555 201
-7.2890999999999995 -8.1797 1.665 237
-12.9375 -14.523399999999999 -0.2266 7
-7.2265999999999995 -8.0547 -1.9003999999999999 121
-13.9297 -15.523399999999999 0.243 246
-6.5273 -7.2734000000000005 -1.4834 117
-13.9375 -15.531199999999998 0.7271 3
-6.4922 -7.234400000000001 -1.2451 64
-9.4609 -10.5469 0.8218000000000001 120
-6.5039 -7.25 -1.0186 199
-8.3359 -9.2969 1.0166 205
-8.1797 -9.1172 1.2822 25
-7.2148 -8.0391 1.3838 30
-6.8164 -7.5977 -0.3547 73
-7.203099999999999 -8.0312 1.6387 12
-12.9375 -14.4219 -0.2257 116
-7.1953 -8.0156 1.8916 223
-7.2539 -8.0234 -1.9003999999999999 137
-14.023399999999999 -15.5156 0.2437 177
-6.5352 -7.230499999999999 -1.4794999999999998 81
-14.023399999999999 -15.523399999999999 0.7290000000000001 246
-6.488300000000001 -7.1836 -1.2393 147
-14.0781 -15.5781 1.2187999999999999 135
-6.511699999999999 -7.203099999999999 -1.0156 118
-8.4141 -9.3125 1.0215 79
-7.5703 -8.3828 1.1826 139
-7.2812 -8.0625 1.3916 187
-6.832000000000001 -7.5586 -0.354 130
-7.1836 -7.949199999999999 1.6269999999999998 236
-14.0 -15.4922 -0.2433 119
-7.2188 -7.988300000000001 1.8906 186
-7.296900000000001 -8.0234 -1.9053 184
-14.125 -15.523399999999999 0.2445 234
-6.5352 -7.1797 -1.4736000000000002 227
-14.1172 -15.5156 0.7304999999999999 79
-6.488300000000001 -7.1328 -1.2354 216
-14.164100000000001 -15.5703 1.2217 214
-6.5078 -7.1523 -1.0117 139
-14.164100000000001 -15.5625 1.7158000000000002 215
-7.625 -8.3828 1.1865 39
-7.324199999999999 -8.0469 1.3944999999999999 9
-6.8515999999999995 -7.5273 -0.3538 182
-7.234400000000001 -7.949199999999999 1.6328 255
-14.0781 -15.468800000000002 -0.2438 179
-7.2734000000000005 -7.9922 1.8984 20
-7.3125 -7.9765999999999995 -1.9003999999999999 54
-14.210899999999999 -15.5078 0.2451 4
-6.542999999999999 -7.140599999999999 -1.4697 32
-8.8438 -9.6484 0.45530000000000004 11
-6.4922 -7.082000000000001 -1.2305 117
-14.2656 -15.5703 1.2266 153
-6.5 -7.0938 -1.0068000000000001 68
-14.2578 -15.5625 1.7207 220
-7.613300000000001 -8.3047 1.1797 48
-9.6953 -10.5781 1.8408000000000002 253
-6.859400000000001 -7.488300000000001 -0.3528 199
-7.3164 -7.984400000000001 1.6455000000000002 65
-14.1875 -15.4844 -0.2446 198
-7.292999999999999 -7.9609000000000005 1.8965 96
-7.355499999999999 -7.9727 -1.9053 204
-14.3125 -15.5156 0.24600000000000002 136
-6.5352 -7.082000000000001 -1.4628999999999999 68
-8.875 -9.625 0.45530000000000004 133
-6.4961 -7.042999999999999 -1.2266 77
-10.6328 -11.523399999999999 0.9097 93
-6.5039 -7.050800000000001 -1.0039 58
-14.343800000000002 -15.539100000000001 1.7236000000000002 236
-6.390599999999999 -6.925800000000001 -0.7661 142
-7.609400000000001 -8.2422 1.1748 70
-7.886699999999999 -8.5469 1.4902000000000002 99
-6.8828 -7.4609000000000005 -0.3528 57
-7.332000000000001 -7.9453 1.6416 32
-14.2969 -15.4922 -0.24559999999999998 158
-7.3359000000000005 -7.949199999999999 1.9003999999999999 38
-7.394500000000001 -7.957000000000001 -1.9082 87
-14.398399999999999 -15.4922 0.2465 138
-6.5273 -7.0234000000000005 -1.4561000000000002 232
-6.5039 -7.0 -1.2236 129
-10.75 -11.5703 0.9165000000000001 150
-6.511699999999999 -7.0078 -1.001 235
-8.7109 -9.375 1.041 151
-6.3984000000000005 -6.8828 -0.7637 165
-7.6172 -8.1953 1.1709 213
-7.613300000000001 -8.1953 1.4336000000000002 29
-6.9062 -7.4336 -0.3525 81
-10.726600000000001 -11.5469 2.3965 70
-14.398399999999999 -15.4922 -0.2465 1
-7.3789 -7.9414 1.9033000000000002 28
-7.4297 -7.9375 -1.9102000000000001 107
-14.5078 -15.5078 0.24739999999999998 13
-6.5312 -6.980499999999999 -1.4512 199
-6.488300000000001 -6.9336 -1.2158 112
-9.5625 -10.2188 0.8115000000000001 233
-6.515599999999999 -6.9648 -0.998 41
-8.7344 -9.3359 1.041 148
-6.4023 -6.8438 -0.7617 106
-7.7148 -8.2422 1.1816 37
-7.6015999999999995 -8.125 1.4258000000000002 195
-6.921900000000001 -7.3984000000000005 -0.3521 58
-10.6953 -11.4297 2.3809 201
-14.4922 -15.4844 -0.24710000000000001 44
-7.957000000000001 -8.5 2.0469 252
-7.4609000000000005 -7.921900000000001 -1.9111000000000002 28
-14.6328 -15.539100000000001 0.2487 145
-6.5312 -6.9336 -1.4463 159
-6.488300000000001 -6.890599999999999 -1.2119 113
-14.648399999999999 -15.5547 1.2402 115
-6.515599999999999 -6.917999999999999 -0.9941 62
-8.7891 -9.3281 1.043 16
-6.4375 -6.8359000000000005 -0.7631999999999999 113
-7.7188 -8.1953 1.1787 12
-7.625 -8.0938 1.4247999999999998 195
-6.9414 -7.375 -0.3518 66
-9.1484 -9.7109 2.0273 249
-14.585899999999999 -15.4844 -0.24789999999999998 6
-7.9765999999999995 -8.4688 2.043 250
-7.488300000000001 -7.9023 -1.9121000000000001 247
-14.7031 -15.5078 0.249 98
-6.5234000000000005 -6.8789 -1.4394999999999998 245
-6.4961 -6.855499999999999 -1.209 220
-14.726600000000001 -15.539100000000001 1.2431999999999999 215
-6.5078 -6.8672 -0.9897 97
-8.0 -8.4453 0.9468000000000001 33
-6.4688 -6.824199999999999 -0.7642 86
-7.574199999999999 -7.9922 1.1523 47
-7.605499999999999 -8.0234 1.4169999999999998 57
-6.980499999999999 -7.363300000000001 -0.3525 232
-7.6836 -8.1094 1.6963 36
-14.6875 -15.4922 -0.2487 168
-7.824199999999999 -8.25 1.9971 163
-7.5352 -7.886699999999999 -1.916 250
-14.8203 -15.5078 0.24989999999999998 105
-6.511699999999999 -6.8125 -1.4306999999999999 156
-6.5 -6.800800000000001 -1.2051 223
-11.0 -11.5078 0.9238 243
-6.511699999999999 -6.8164 -0.9863 243
-7.949199999999999 -8.3203 0.9359999999999999 206
-7.6328 -7.988300000000001 1.1562000000000001 61
-6.625 -6.9336 -0.5552 9
-7.6289 -7.980499999999999 1.415 0
-7.0039 -7.328099999999999 -0.3521 254
-7.703099999999999 -8.0625 1.6934 155
-12.851600000000001 -13.4453 -0.21660000000000001 173
-7.824199999999999 -8.1875 1.9893 68
-7.5703 -7.8672 -1.9180000000000001 54
-14.9219 -15.5 0.2507 133
-6.5078 -6.761699999999999 -1.4247999999999998 74
-6.5078 -6.761699999999999 -1.2021 142
-7.894500000000001 -8.2031 0.6597 222
-6.5234000000000005 -6.7773 -0.9839 28
-9.0781 -9.4297 1.0654000000000001 198
-7.7265999999999995 -8.0312 1.167 102
-6.644500000000001 -6.9023 -0.5547 142
-7.644500000000001 -7.9414 1.4131 146
-7.0273 -7.300800000000001 -0.3521 3
-7.7227 -8.0234 1.6913999999999998 187
-12.843800000000002 -13.343800000000002 -0.2157 229
-7.800800000000001 -8.1016 1.9766 35
-7.605499999999999 -7.8477 -1.9188999999999998 13
-15.031199999999998 -15.5156 0.25170000000000003 218
-6.511699999999999 -6.7188 -1.4209 180
-9.5859 -9.8906 0.4792 151
-6.5 -6.707000000000001 -1.1963 105
-7.9023 -8.1562 0.6581999999999999 81
-6.5312 -6.7422 -0.9819 55
-8.9922 -9.2734 1.0518 157
-7.734400000000001 -7.980499999999999 1.1631 228
-6.640599999999999 -6.8515999999999995 -0.5522 59
-7.7422 -7.988300000000001 1.4258000000000002 236
-7.0664 -7.2890999999999995 -0.3528 80
-7.6836 -7.9297 1.6777000000000002 25
-12.851600000000001 -13.2578 -0.2151 26
-7.800800000000001 -8.0469 1.9687999999999999 46
-7.6328 -7.8203 -1.9199000000000002 133
-9.5234 -9.7656 0.1586 17
-6.511699999999999 -6.675800000000001 -1.416 204
-9.6172 -9.8594 0.479 133
-6.4922 -6.6523 -1.1904000000000001 253
-9.4688 -9.7031 0.7856000000000001 167
-6.5352 -6.6953 -0.9790000000000001 81
-8.9375 -9.1562 1.042 68
-7.6953 -7.886699999999999 1.1533 7
-6.644500000000001 -6.8086 -0.5508 37
-7.796900000000001 -7.988300000000001 1.4306999999999999 31
-7.105499999999999 -7.2812 -0.35350000000000004 60
-7.7578 -7.949199999999999 1.6875 71
-9.4844 -9.7188 -0.1578 156
-7.8164 -8.0078 1.9658000000000002 115
-6.605499999999999 -6.7265999999999995 -1.6553 240
-9.5391 -9.7188 0.1583 18
-6.5 -6.6211 -1.4082 250
-9.5938 -9.7734 0.4763 185
-6.488300000000001 -6.609400000000001 -1.1855 23
-7.8438 -7.984400000000001 0.6484000000000001 251
-6.5234000000000005 -6.644500000000001 -0.9741 39
-7.796900000000001 -7.9375 0.9053 102
-6.667999999999999 -6.7890999999999995 -0.7734000000000001 171
-7.7422 -7.886699999999999 1.1572 168
-6.6797 -6.800800000000001 -0.5518 177
-7.8203 -7.9648 1.4306999999999999 12
-7.144500000000001 -7.2734000000000005 -0.3542 159
-7.7461 -7.886699999999999 1.6797 84
-9.5078 -9.6875 -0.1578 29
-7.7265999999999995 -7.8672 1.9375 97
-6.550800000000001 -6.6289 -1.6357 10
-9.5781 -9.6875 0.15839999999999999 145
-6.484400000000001 -6.5625 -1.4003999999999999 219
-9.5703 -9.6797 0.4736 50
-6.4922 -6.5664 -1.1826 165
-7.8711 -7.9609000000000005 0.6489 151
-6.511699999999999 -6.5898 -0.9692000000000001 243
-7.917999999999999 -8.0078 0.9165000000000001 200
-6.6914 -6.769500000000001 -0.7734000000000001 30
-7.824199999999999 -7.9140999999999995 1.165 227
-7.8711 -7.9609000000000005 1.4346 255
-7.167999999999999 -7.25 -0.3542 54
-7.7773 -7.8672 1.6797 144
-7.7109000000000005 -7.800800000000001 1.9268 26
-6.550800000000001 -6.578099999999999 -1.6299000000000001 171
-15.4531 -15.523399999999999 0.2554 102
-6.5039 -6.5312 -1.3994 175
-9.6016 -9.6484 0.4736 64
-6.484400000000001 -6.511699999999999 -1.1768 63
-7.886699999999999 -7.917999999999999 0.6475 32
-6.5234000000000005 -6.550800000000001 -0.9673 222
-7.859400000000001 -7.894500000000001 0.9062 203
-6.574199999999999 -6.6015999999999995 -0.7573000000000001 203
-7.855499999999999 -7.886699999999999 1.165 180
-11.2422 -11.289100000000001 2.043 26
-7.1953 -7.2265999999999995 -0.35450000000000004 182
-7.7890999999999995 -7.824199999999999 1.6768 60
-15.1719 -15.2344 -0.2505 171
-8.0703 -8.1016 2.0078 224
-6.511699999999999 -6.4922 -1.6143 57
-15.539100000000001 -15.4922 0.2556 95
-6.5586 -6.5390999999999995 -1.4062000000000001 84
-9.6641 -9.6328 0.4746 216
-6.4765999999999995 -6.457000000000001 -1.1709 50
-7.953099999999999 -7.9297 0.6509 147
-6.5312 -6.511699999999999 -0.9648 103
-7.859400000000001 -7.8359000000000005 0.9028 225
-6.5898 -6.5703 -0.7563 226
-7.8359000000000005 -7.8164 1.1582 52
-11.2969 -11.2578 2.0469 236
-7.238300000000001 -7.2148 -0.355 173
-7.875 -7.8515999999999995 1.6894999999999998 146
-15.3047 -15.2578 -0.25170000000000003 35
-7.8203 -7.800800000000001 1.9404 205
-6.4727 -6.4102 -1.5996000000000001 27
-15.601600000000001 -15.4531 0.2559 197
-6.515599999999999 -6.453099999999999 -1.3925999999999998 171
-10.718800000000002 -10.6172 0.5249 109
-6.4688 -6.4062 -1.166 221
-7.988300000000001 -7.9102 0.6514 24
-6.5312 -6.4648 -0.9614 228
-8.0 -7.921900000000001 0.9159999999999999 132
-6.5898 -6.5273 -0.7539 50
-7.8789 -7.800800000000001 1.1611 55
-11.343800000000002 -11.2344 2.0488 49
-7.3125 -7.2422 -0.3577 167
-7.921900000000001 -7.8438 1.6934 50
-15.3672 -15.210899999999999 -0.252 242
-8.0078 -7.925800000000001 1.9794999999999998 103
-15.7031 -15.4453 0.2566 33
-6.511699999999999 -6.4023 -1.3857 216
-10.710899999999999 -10.531199999999998 0.5229 236
-6.4727 -6.3672 -1.1621 134
-8.0391 -7.9023 0.6533 234
-6.5312 -6.421900000000001 -0.9584999999999999 7
-8.0391 -7.9023 0.917 251
-6.6015999999999995 -6.4922 -0.7524 146
-7.957000000000001 -7.824199999999999 1.168 154
-7.8438 -7.7109000000000005 1.4091999999999998 151
-7.3711 -7.2461 -0.3591 234
-7.9765999999999995 -7.8438 1.6991999999999998 196
-15.468800000000002 -15.210899999999999 -0.2529 235
-8.7578 -8.6172 2.1582 67
-6.519500000000001 -6.3672 -1.5996000000000001 213
-15.8281 -15.4531 0.25780000000000003 123
-6.5 -6.3477 -1.3788999999999998 70
-10.7422 -10.4922 0.5225 115
-6.480499999999999 -6.328099999999999 -1.1592 156
-8.0 -7.8086 0.6479 34
-6.5234000000000005 -6.3711 -0.9536 126
-8.0469 -7.859400000000001 0.9155 196
-6.605499999999999 -6.453099999999999 -0.7505 246
-8.0 -7.8125 1.1709 48
-7.9102 -7.7265999999999995 1.4169999999999998 122
-8.0391 -7.8477 1.7061000000000002 162
-15.5469 -15.1875 -0.2532 98
-7.984400000000001 -7.796900000000001 1.9609 248
-6.546900000000001 -6.3477 -1.6006 244
-15.9375 -15.460899999999999 0.2588 164
-6.5 -6.3047 -1.374 8
-6.480499999999999 -6.2852 -1.1553 115
-8.0078 -7.765599999999999 0.6465000000000001 76
-6.5273 -6.328099999999999 -0.9512 128
-8.3828 -8.1328 0.9506999999999999 177
-8.0312 -7.7890999999999995 1.1709 54
-7.949199999999999 -7.707000000000001 1.4188999999999998 142
-7.4414 -7.2148 -0.3601 92
-7.957000000000001 -7.7148 1.6836000000000002 162
-15.6328 -15.164100000000001 -0.25370000000000004 238
-8.0234 -7.7812 1.9638999999999998 56
-6.484400000000001 -6.2422 -1.5800999999999998 22
-16.0781 -15.4844 0.26030000000000003 103
-6.4765999999999995 -6.238300000000001 -1.3643 232
-16.2188 -15.6172 0.7847 240
-6.480499999999999 -6.2422 -1.1523 52
-8.0625 -7.765599999999999 0.6489 203
-6.5273 -6.2890999999999995 -0.9481999999999999 141
-17.8438 -17.1875 2.0195 87
-7.9453 -7.6523 1.1553 100
-8.0078 -7.7148 1.4247999999999998 60
-7.5039 -7.2265999999999995 -0.3618 73
-7.9765999999999995 -7.6836 1.6825999999999999 170
-15.6875 -15.101600000000001 -0.25370000000000004 87
-8.0547 -7.761699999999999 1.9647999999999999 119
-6.480499999999999 -6.199199999999999 -1.5741999999999998 99
-16.2656 -15.5547 0.2622 3
-6.5039 -6.2188 -1.3662 10
-16.2812 -15.5703 0.7852 112
-6.4688 -6.1875 -1.1455 215
-8.1172 -7.765599999999999 0.6509 194
-6.5390999999999995 -6.2539 -0.9468000000000001 237
-17.7812 -17.0 2.0059 225
-7.9102 -7.5664 1.1455 249
-8.0469 -7.699199999999999 1.4277000000000002 248
-7.6015999999999995 -7.269500000000001 -0.3655 21
-8.0391 -7.6875 1.6894999999999998 247
-15.9922 -15.289100000000001 -0.25780000000000003 216
-8.0469 -7.6914 1.9550999999999998 212
-6.484400000000001 -6.1562 -1.5693000000000001 64
-6.511699999999999 -6.1836 -1.3622999999999998 4
-16.375 -15.5469 0.7866 249
-6.4765999999999995 -6.1484000000000005 -1.1436 54
-16.3125 -15.4922 1.3066 191
-6.546900000000001 -6.2188 -0.9443 130
-9.7891 -9.2891 1.0986 99
-7.980499999999999 -7.578099999999999 1.1523 11
-8.0469 -7.640599999999999 1.4219 211
-7.6523 -7.265599999999999 -0.3667 47
-8.0312 -7.6289 1.6825999999999999 92
-16.125 -15.3203 -0.2593 232
-8.0938 -7.6875 1.9609 116
-6.484400000000001 -6.113300000000001 -1.5635 103
-6.519500000000001 -6.1484000000000005 -1.3603999999999998 247
-16.4062 -15.476600000000001 0.7856000000000001 102
-6.480499999999999 -6.109400000000001 -1.1406 140
-16.4219 -15.4844 1.3105000000000002 218
-6.5586 -6.1875 -0.9429000000000001 255
-9.8125 -9.25 1.0977 229
-8.0391 -7.578099999999999 1.1562000000000001 200
-8.0391 -7.578099999999999 1.416 153
-16.3594 -15.4297 -0.7837000000000001 220
-8.0781 -7.6211 1.6865 183
-12.9297 -12.1953 -0.2069 154
-8.1641 -7.6953 1.9707 210
-6.5312 -6.113300000000001 -1.5703 123
-6.515599999999999 -6.1015999999999995 -1.3544999999999998 28
-16.5 -15.4453 0.7870999999999999 113
-6.484400000000001 -6.074199999999999 -1.1377 148
-16.5156 -15.468800000000002 1.3144999999999998 114
-6.5664 -6.1523 -0.9414 88
-9.8594 -9.2344 1.0996 202
-6.875 -6.4375 -0.7656000000000001 104
-8.1094 -7.5938 1.1631 218
-7.9727 -7.4688 1.3994 31
-16.4531 -15.406199999999998 -0.7852 236
-8.1484 -7.6289 1.6953 134
-16.4688 -15.4219 -0.26289999999999997 182
-8.2266 -7.707000000000001 1.9805000000000001 96
-6.5312 -6.074199999999999 -1.5654 81
-6.480499999999999 -6.0234000000000005 -1.3428 49
-16.5781 -15.414100000000001 0.7886 156
-6.484400000000001 -6.0312 -1.1338 14
-16.6562 -15.4922 1.3213 114
-6.578099999999999 -6.1172 -0.9395 181
-9.7812 -9.0938 1.0869 140
-6.9688 -6.480499999999999 -0.7734000000000001 200
-8.1172 -7.546900000000001 1.1602 62
-7.9727 -7.4140999999999995 1.3944999999999999 82
-16.5312 -15.3672 -0.7861 226
-8.0 -7.4375 1.6591999999999998 14
-16.5625 -15.398399999999999 -0.2634 153
-8.2734 -7.6953 1.9844 12
-6.4961 -5.9961 -1.5508000000000002 148
-6.5390999999999995 -6.0390999999999995 -1.3506 161
-16.7188 -15.4297 0.7925 254
-6.4922 -5.9961 -1.1309 177
-16.7656 -15.4844 1.3252000000000002 123
-6.6289 -6.1211 -0.9438 34
-9.7344 -8.9922 1.0791 153
-6.9062 -6.3789 -0.7642 226
-8.1406 -7.515599999999999 1.1602 139
-7.980499999999999 -7.3711 1.3916 153
-16.6875 -15.406199999999998 -0.7909999999999999 135
-8.1016 -7.480499999999999 1.6747999999999998 229
-16.7031 -15.4219 -0.26489999999999997 151
-8.2578 -7.6289 1.9746000000000001 55
-6.4727 -5.9375 -1.541 173
-16.875 -15.476600000000001 0.2668 29
-6.5078 -5.9648 -1.3397999999999999 195
-16.8281 -15.4297 0.7954000000000001 13
-6.5 -5.9609000000000005 -1.1289 204
-16.875 -15.468800000000002 1.3291 144
-6.5664 -6.0234000000000005 -0.9320999999999999 218
-9.7812 -8.9688 1.0801 196
-8.2969 -7.605499999999999 1.1787 46
-8.0 -7.3359000000000005 1.3906 38
-16.7969 -15.398399999999999 -0.7935 150
-8.1406 -7.4688 1.6777000000000002 173
-16.7969 -15.406199999999998 -0.2656 37
-8.2812 -7.5938 1.9736000000000002 13
-6.488300000000001 -5.9102 -1.54 33
-6.4922 -5.9140999999999995 -1.3319999999999999 80
-12.7969 -11.656199999999998 0.603 182
-6.519500000000001 -5.9414 -1.1289 82
-12.8125 -11.664100000000001 1.0059 214
-6.6211 -6.0312 -0.9365000000000001 146
-9.8125 -8.9375 1.0801 103
-8.6094 -7.8438 1.2197 120
-8.0547 -7.3359000000000005 1.3955000000000002 189
-12.835899999999999 -11.6953 -0.6045 171
-8.1953 -7.4688 1.6846 254
-12.789100000000001 -11.648399999999999 -0.2014 108
-8.3203 -7.578099999999999 1.9775 63
-6.5312 -5.9102 -1.5449000000000002 225
-12.835899999999999 -11.6094 0.20149999999999998 73
-6.4961 -5.8789 -1.3291 202
-12.8125 -11.593800000000002 0.6015999999999999 164
-6.5312 -5.9102 -1.1279000000000001 59
-12.8047 -11.585899999999999 1.002 144
-6.703099999999999 -6.0625 -0.9453 43
-9.6172 -8.7031 1.0556999999999999 246
-8.2578 -7.4765999999999995 1.166 21
-8.0469 -7.2812 1.3906 166
-12.7969 -11.5781 -0.6006 179
-8.2344 -7.453099999999999 1.6875 69
-12.7969 -11.5781 -0.20079999999999998 241
-12.773399999999999 -11.5547 3.0293 7
-12.835899999999999 -11.531199999999998 0.20079999999999998 96
-6.515599999999999 -5.8515999999999995 -1.3291 56
-12.7969 -11.4922 0.5991 159
-6.546900000000001 -5.8789 -1.126 148
-12.8125 -11.5078 0.9990000000000001 156
-6.6640999999999995 -5.988300000000001 -0.937 96
-9.7266 -8.7344 1.0645 209
-8.2578 -7.417999999999999 1.1621 155
-8.0625 -7.2422 1.3887 7
-12.7969 -11.4922 -0.5986 178
-8.1875 -7.355499999999999 1.6719 115
-12.789100000000001 -11.4844 -0.20010000000000003 116
-9.5781 -8.6016 2.2637 244
-6.515599999999999 -5.8125 -1.5322 166
-12.8281 -11.4375 0.20010000000000003 173
-6.5390999999999995 -5.832000000000001 -1.3291 188
-12.8047 -11.4219 0.5972 20
-6.5547 -5.8438 -1.124 92
-12.8047 -11.4219 0.9956 71
-6.699199999999999 -5.9727 -0.9384999999999999 108
-9.6797 -8.6328 1.0556999999999999 117
-8.5469 -7.625 1.1992 43
-8.2344 -7.3438 1.4141 104
-12.8047 -11.4219 -0.5972 18
-8.2344 -7.3438 1.6758000000000002 67
-12.781199999999998 -11.406199999999998 -0.19949999999999998 110
-9.5938 -8.5625 2.2598 93
-6.5312 -5.7812 -1.5303 64
-12.835899999999999 -11.3594 0.1996 170
-6.546900000000001 -5.796900000000001 -1.3271000000000002 218
-12.8047 -11.3281 0.5952000000000001 228
-6.5664 -5.8125 -1.123 123
-12.7969 -11.3281 0.9917 84
-6.730499999999999 -5.957000000000001 -0.9399 130
-9.7734 -8.6484 1.0625 153
-8.6562 -7.6602 1.21 154
-8.2891 -7.3359000000000005 1.4180000000000001 47
-12.8203 -11.343800000000002 -0.5957 61
-8.2969 -7.3438 1.6836000000000002 19
-12.789100000000001 -11.3125 -0.19870000000000002 68
-12.773399999999999 -11.3047 3.0 245
-6.546900000000001 -5.7539 -1.5293 199
-12.8125 -11.2578 0.1986 68
-6.5625 -5.765599999999999 -1.3262 57
-12.8125 -11.2578 0.5938 107
-6.5938 -5.792999999999999 -1.123 129
-12.8047 -11.25 0.9893000000000001 218
-6.7148 -5.8984000000000005 -0.9351 134
-9.7266 -8.5469 1.0537 17
-8.6797 -7.6289 1.21 208
-8.5703 -7.5273 1.4619 198
-12.8125 -11.25 -0.5938 80
-10.726600000000001 -9.4219 2.1699 78
-12.781199999999998 -11.226600000000001 -0.1981 180
-12.781199999999998 -11.226600000000001 2.9922000000000004 190
-6.5664 -5.734400000000001 -1.5293 127
-12.8203 -11.1953 0.1981 176
-6.578099999999999 -5.7461 -1.3252000000000002 144
-12.7969 -11.1797 0.5918 61
-6.605499999999999 -5.769500000000001 -1.123 0
-12.7969 -11.1719 0.9858 164
-6.6875 -5.8398 -0.9287000000000001 252
-9.7891 -8.5469 1.0576 208
-8.7656 -7.6562 1.2187999999999999 55
-10.3594 -9.0469 1.7637 140
-12.789100000000001 -11.164100000000001 -0.5908 38
-10.2109 -8.9141 2.0605 248
-12.781199999999998 -11.164100000000001 -0.19760000000000003 174
-10.7578 -9.3906 2.5098 5
-6.5859000000000005 -5.7148 -1.5303 99
-12.8125 -11.1172 0.1975 139
-6.578099999999999 -5.707000000000001 -1.3213 205
-12.781199999999998 -11.085899999999999 0.5889 189
-6.796900000000001 -5.894500000000001 -1.1514 18
-12.789100000000001 -11.093800000000002 0.9823999999999999 209
-6.703099999999999 -5.8125 -0.9281999999999999 202
-12.781199999999998 -11.085899999999999 1.3788999999999998 210
-8.7656 -7.605499999999999 1.2158 238
-10.4375 -9.0547 1.7715 146
-12.789100000000001 -11.093800000000002 -0.5893999999999999 126
-12.773399999999999 -11.0781 2.5702999999999996 47
-12.773399999999999 -11.0781 -0.1968 76
-10.4922 -9.1016 2.4414 111
-6.6015999999999995 -5.6836 -1.5283000000000002 173
-12.835899999999999 -11.0547 0.1971 149
-6.6211 -5.699199999999999 -1.3252000000000002 200
-12.789100000000001 -11.0156 0.5874 237
-6.8477 -5.8984000000000005 -1.1572 93
-12.7969 -11.0156 0.98 193
-6.7265999999999995 -5.792999999999999 -0.9281999999999999 229
-9.8203 -8.4531 1.0547 198
-8.7969 -7.578099999999999 1.2158 3
-11.218800000000002 -9.6562 1.8984 32
-12.7969 -11.023399999999999 -0.5879 127
-12.7656 -10.9922 2.5625 2
-12.7656 -10.9922 -0.1962 254
-10.718800000000002 -9.2344 2.4883 209
-6.6211 -5.6602 -1.5283000000000002 177
-12.8125 -10.9531 0.1962 28
-6.640599999999999 -5.675800000000001 -1.3252000000000002 144
-12.789100000000001 -10.9297 0.5854 94
-12.789100000000001 -10.9297 0.9761 203
-6.75 -5.7734000000000005 -0.9292 229
-12.789100000000001 -10.9375 1.3711000000000002 25
-8.8281 -7.550800000000001 1.2168 184
-7.890599999999999 -6.7461 -0.6011 74
-11.210899999999999 -9.5859 1.8925999999999998 184
-12.7969 -10.9375 -0.5859000000000001 38
-12.781199999999998 -10.9297 2.5566 13
-12.7656 -10.914100000000001 -0.1954 161
-10.9531 -9.3672 2.5332 59
-6.644500000000001 -5.640599999999999 -1.5293 128
-12.789100000000001 -10.8594 0.1953 0
-6.6640999999999995 -5.6562 -1.3262 247
-12.7969 -10.8672 0.5845 141
-6.859400000000001 -5.824199999999999 -1.1523 207
-12.773399999999999 -10.843800000000002 0.9722 225
-6.796900000000001 -5.769500000000001 -0.9326000000000001 181
-12.789100000000001 -10.8594 1.3662 107
-7.4062 -6.2890999999999995 -0.79 151
-8.8359 -7.5 1.2129 85
-7.8984000000000005 -6.707000000000001 -0.6001 234
-11.476600000000001 -9.7422 1.9306999999999999 2
-12.781199999999998 -10.851600000000001 -0.584 54
-10.6797 -9.0703 2.1289 158
-12.781199999999998 -10.851600000000001 -0.19519999999999998 118
-10.914100000000001 -9.2656 2.5176 218
-6.675800000000001 -5.6289 -1.5322 253
-12.7969 -10.789100000000001 0.1948 215
-6.6836 -5.636699999999999 -1.3271000000000002 25
-12.781199999999998 -10.773399999999999 0.5820000000000001 84
-6.9023 -5.8164 -1.1553 239
-12.781199999999998 -10.773399999999999 0.9697 69
-6.8438 -5.769500000000001 -0.9365000000000001 60
-12.773399999999999 -10.7656 1.3603999999999998 124
-9.9141 -8.3594 1.3584 86
-12.773399999999999 -10.7656 -0.9692000000000001 78
-11.5469 -9.7344 1.9375 90
-12.773399999999999 -10.773399999999999 -0.5815 184
-12.773399999999999 -10.7656 2.541 196
-12.781199999999998 -10.773399999999999 -0.1946 190
-9.875 -8.3203 2.2695 202
-6.703099999999999 -5.613300000000001 -1.5341999999999998 33
-12.8203 -10.7344 0.1946 154
-6.707000000000001 -5.613300000000001 -1.3271000000000002 204
-12.773399999999999 -10.6953 0.5801 130
-6.7734000000000005 -5.667999999999999 -1.1309 154
-12.781199999999998 -10.7031 0.9673 27
-6.886699999999999 -5.761699999999999 -0.9390000000000001 241
-10.2031 -8.5391 1.083 106
-10.0 -8.3672 1.3662 79
-12.773399999999999 -10.6875 -0.9662999999999999 170
-12.7578 -10.6797 2.1348 237
-12.781199999999998 -10.6953 -0.5801 10
-12.7656 -10.6797 2.5312 110
-12.7656 -10.6875 -0.1938 115
-9.8906 -8.2812 2.2676 49
-6.738300000000001 -5.6015999999999995 -1.5371000000000001 138
-12.789100000000001 -10.625 0.1936 24
-6.7422 -5.605499999999999 -1.3311000000000002 239
-12.781199999999998 -10.625 0.5786 72
-6.792999999999999 -5.644500000000001 -1.1309 75
-12.773399999999999 -10.6172 0.9639 177
-6.921900000000001 -5.75 -0.9414 115
-12.781199999999998 -10.625 1.3544999999999998 202
-9.9609 -8.2734 1.3563999999999998 51
-12.773399999999999 -10.6172 -0.9634 239
-12.7656 -10.6094 2.1289 170
-12.781199999999998 -10.625 -0.5786 93
-12.7578 -10.601600000000001 2.5215 186
-12.75 -10.601600000000001 -0.193 64
-9.9141 -8.2344 2.2656 154
-6.7461 -5.5664 -1.5352000000000001 252
-12.7969 -10.5547 0.1931 48
-6.765599999999999 -5.582000000000001 -1.3311000000000002 240
-12.781199999999998 -10.5469 0.5767 163
-6.8125 -5.6211 -1.1309 126
-12.7578 -10.523399999999999 0.9595 247
-6.9414 -5.730499999999999 -0.9414 4
-12.773399999999999 -10.539100000000001 1.3486000000000002 78
-7.582000000000001 -6.2578 -0.7993000000000001 130
-9.9375 -8.1953 1.3496000000000001 126
-12.7656 -10.531199999999998 -0.9604 27
-12.75 -10.523399999999999 2.1211 16
-12.781199999999998 -10.5469 -0.5767 139
-12.7578 -10.523399999999999 2.5156 123
-12.7578 -10.531199999999998 -0.1925 211
-9.9297 -8.1953 2.2617 151
-6.7812 -5.5547 -1.5381 127
-12.8047 -10.4922 0.19260000000000002 190
-6.7890999999999995 -5.5625 -1.3319999999999999 44
-12.781199999999998 -10.476600000000001 0.5752 11
-6.8359000000000005 -5.6015999999999995 -1.1309 139
-12.7578 -10.4531 0.9570000000000001 161
-6.9648 -5.707000000000001 -0.9419 72
-12.781199999999998 -10.476600000000001 1.3466999999999998 144
-7.578099999999999 -6.2109000000000005 -0.7968999999999999 17
-12.7031 -10.406199999999998 1.7216999999999998 176
-12.7656 -10.460899999999999 -0.9575 37
-12.75 -10.4453 2.1152 89
-12.773399999999999 -10.468800000000002 -0.5747 198
-11.085899999999999 -9.0859 2.1797 70
-12.7656 -10.460899999999999 -0.192 224
-9.9609 -8.1641 2.2637 222
-6.8125 -5.5390999999999995 -1.54 11
-12.7969 -10.406199999999998 0.192 1
-6.8086 -5.5352 -1.3311000000000002 165
-12.7656 -10.3828 0.5728 217
-6.855499999999999 -5.574199999999999 -1.1309 193
-12.781199999999998 -10.3906 0.9556 247
-7.0078 -5.699199999999999 -0.9443 26
-12.7656 -10.3828 1.3397999999999999 148
-7.5898 -6.171900000000001 -0.7954000000000001 222
-12.664100000000001 -10.3047 1.7109 190
-12.773399999999999 -10.3906 -0.9551000000000001 151
-12.7422 -10.3672 2.1074 25
-12.773399999999999 -10.3906 -0.5732 93
-11.1797 -9.0938 2.1914 212
-12.7578 -10.375 -0.19140000000000001 245
-9.9375 -8.0781 2.252 113
-6.8438 -5.5273 -1.5438999999999998 0
-12.7969 -10.3281 0.19140000000000001 165
-6.8438 -5.5234000000000005 -1.335 230
-12.773399999999999 -10.3125 0.5713 6
-6.886699999999999 -5.5586 -1.1328 74
-12.781199999999998 -10.3203 0.9531000000000001 230
-7.042999999999999 -5.6875 -0.9468000000000001 80
-12.7656 -10.3047 1.3369 67
-7.6562 -6.1797 -0.7998000000000001 28
-12.6719 -10.2344 1.7080000000000002 66
-12.7656 -10.3047 -0.9517 113
-12.75 -10.2969 2.1016 143
-12.781199999999998 -10.3203 -0.5718 172
-11.414100000000001 -9.2109 2.2305 243
-12.75 -10.2969 -0.19079999999999997 65
-9.9375 -8.0234 2.2441 217
-6.8828 -5.519500000000001 -1.5488 225
-12.789100000000001 -10.2578 0.19079999999999997 130
-6.875 -5.511699999999999 -1.3369 49
-12.7656 -10.2344 0.5693 229
-6.9140999999999995 -5.546900000000001 -1.1348 218
-12.75 -10.2266 0.9481999999999999 174
-7.0898 -5.6875 -0.9506999999999999 29
-12.7656 -10.2422 1.3330000000000002 182
-7.7148 -6.1875 -0.8037000000000001 50
-12.656199999999998 -10.1484 1.7012 193
-12.75 -10.2266 -0.9481999999999999 80
-12.75 -10.2266 2.0957 168
-12.781199999999998 -10.25 -0.5703 253
-11.1719 -8.9609 2.1758 20
-12.7422 -10.2188 -0.1902 0
-9.9688 -7.9961 2.2461 240
-6.9023 -5.5 -1.5488 247
-12.781199999999998 -10.1797 0.1902 30
-6.9102 -5.5039 -1.3408000000000002 29
-12.7578 -10.1562 0.5674 190
-6.949199999999999 -5.5352 -1.1377 14
-12.75 -10.1562 0.9458 23
-7.1289 -5.6797 -0.9536 7
-12.7578 -10.1641 1.3291 159
-7.7890999999999995 -6.203099999999999 -0.8101 167
-12.6719 -10.0938 1.6982 173
-12.726600000000001 -10.1406 -0.9443 255
-12.7422 -10.1484 2.0898 218
-12.781199999999998 -10.1797 -0.5688 23
-10.968800000000002 -8.7344 2.1309 174
-12.7422 -10.1484 -0.18960000000000002 244
-11.085899999999999 -8.8281 2.4922 217
-6.949199999999999 -5.4922 -1.5547 74
-12.7578 -10.0859 0.1892 241
-6.9414 -5.488300000000001 -1.3428 26
-12.7656 -10.0938 0.5664 54
-7.0039 -5.5352 -1.1426 253
-12.7578 -10.0859 0.9438 54
-7.1562 -5.6562 -0.9541 213
-12.7578 -10.0859 1.3241999999999998 210
-7.832000000000001 -6.1914 -0.812 28
-12.7031 -10.0391 1.6972999999999998 5
-12.710899999999999 -10.0469 -0.9399 88
-12.726600000000001 -10.0547 2.0801 12
-12.7578 -10.0859 -0.5659000000000001 56
-11.1172 -8.7812 2.1543 47
-12.718800000000002 -10.0547 -0.1887 79
-10.906199999999998 -8.6172 2.4434 199
-6.9961 -5.488300000000001 -1.5605000000000002 35
-12.781199999999998 -10.0312 0.1891 245
-12.781199999999998 -10.0312 0.5654 1
-7.0312 -5.515599999999999 -1.1436 172
-12.8047 -10.0469 0.9443 102
-7.207000000000001 -5.6523 -0.958 212
-12.7422 -10.0 1.3193000000000001 157
-7.8515999999999995 -6.1602 -0.8115000000000001 92
-12.664100000000001 -9.9375 1.6875 126
-12.718800000000002 -9.9844 -0.938 47
-12.7344 -9.9922 2.0762 149
-12.75 -10.0078 -0.564 66
-10.960899999999999 -8.6016 2.1172 35
-12.773399999999999 -10.0234 -0.18899999999999997 76
-11.0781 -8.6953 2.4746 105
-7.0273 -5.4765999999999995 -1.5635 223
-12.835899999999999 -10.0078 0.1895 98
-12.843800000000002 -10.0078 0.5669 113
-7.074199999999999 -5.515599999999999 -1.1484 193
-12.843800000000002 -10.0156 0.9448000000000001 35
-7.2461 -5.6484000000000005 -0.9609000000000001 170
-12.7344 -9.9297 1.3154 220
-7.8828 -6.144500000000001 -0.813 251
-12.6797 -9.8828 1.6855000000000002 91
-12.726600000000001 -9.9219 -0.9365000000000001 162
-12.7422 -9.9375 2.0723 218
-12.8125 -9.9844 -0.5654 19
-11.5781 -9.0234 2.2305 38
-12.789100000000001 -9.9688 -0.1887 175
-11.1172 -8.6719 2.4785 97
-7.0664 -5.4727 -1.5684 35
-12.8672 -9.9609 0.1893 121
-12.851600000000001 -9.9531 0.5659000000000001 10
-7.109400000000001 -5.5039 -1.1514 126
-12.875 -9.9688 0.9448000000000001 183
-7.2852 -5.640599999999999 -0.9639 222
-12.75 -9.875 1.3135 43
-7.921900000000001 -6.1328 -0.8149 3
-12.6797 -9.8203 1.6806999999999999 138
-12.726600000000001 -9.8516 -0.9336 85
-12.7422 -9.8672 2.0684 255
-12.851600000000001 -9.9531 -0.5659000000000001 120
-12.8203 -9.9297 2.4668 160
-12.8594 -9.9531 -0.1893 67
-11.148399999999999 -8.6328 2.4785 180
-7.0938 -5.453099999999999 -1.5703 195
-12.875 -9.8906 0.18899999999999997 41
-12.9375 -9.9375 0.5679 179
-7.167999999999999 -5.5078 -1.1572 94
-12.9844 -9.9766 0.9501999999999999 105
-7.328099999999999 -5.6328 -0.9668000000000001 150
-12.7578 -9.8047 1.3105000000000002 87
-12.7578 -9.8047 -1.3105000000000002 85
-12.664100000000001 -9.7344 1.6747999999999998 97
-12.726600000000001 -9.7812 -0.9312 4
-12.726600000000001 -9.7812 2.0605 191
-12.906199999999998 -9.9141 -0.5664 170
-12.843800000000002 -9.875 2.4648 200
-12.8125 -9.8516 -0.1881 209
-11.1406 -8.5625 2.4707 182
-7.1602 -5.4648 -1.5811000000000002 160
-12.875 -9.8203 0.1885 92
-13.0469 -9.9531 0.5713 186
-7.203099999999999 -5.4961 -1.1602 224
-13.0469 -9.9531 0.9521 122
-7.3789 -5.6289 -0.9712000000000001 160
-12.7422 -9.7188 1.3056999999999999 138
-12.75 -9.7266 -1.3066 71
-12.664100000000001 -9.6562 1.6688999999999998 199
-12.726600000000001 -9.7109 -0.9287000000000001 70
-12.718800000000002 -9.7031 2.0527 124
-13.0078 -9.9219 -0.5693 177
-12.8203 -9.7812 2.4512 238
-13.0078 -9.9297 -0.19039999999999999 244
-12.9922 -9.9141 2.875 45
-7.2148 -5.4648 -1.5888999999999998 188
-12.898399999999999 -9.7656 0.1882 121
-13.039100000000001 -9.875 0.5693 48
-7.2578 -5.5 -1.166 144
-13.0703 -9.8984 0.9517 16
-7.4414 -5.6328 -0.9761 26
-12.7344 -9.6406 1.3008000000000002 104
-12.75 -9.6562 -1.3027000000000002 148
-12.6406 -9.5781 1.6621000000000001 127
-12.7344 -9.6484 -0.9272 215
-12.718800000000002 -9.6328 2.0469 173
-13.0156 -9.8594 -0.5684 250
-12.773399999999999 -9.6719 2.4355 81
-12.7969 -9.6953 -0.1869 57
-12.976600000000001 -9.8281 2.8632999999999997 5
-7.269500000000001 -5.4648 -1.5966999999999998 73
-12.8203 -9.6406 0.1866 136
-13.0703 -9.8281 0.5693 2
-7.3203 -5.5039 -1.1729 196
-13.0547 -9.8203 0.9478 207
-7.4922 -5.6328 -0.9804999999999999 96
-12.75 -9.5859 1.2988 40
-12.7422 -9.5781 -1.2988 7
-12.664100000000001 -9.5234 1.6602000000000001 151
-12.7344 -9.5781 -0.9243000000000001 224
-12.726600000000001 -9.5703 2.043 82
-13.0156 -9.7812 -0.5669 161
-12.7656 -9.6016 2.4297 135
-12.906199999999998 -9.7031 -0.188 190
-10.906199999999998 -8.2031 2.3984 254
-7.3047 -5.453099999999999 -1.5996000000000001 89
-12.875 -9.6094 0.187 11
-13.0547 -9.75 0.5674 165
-7.3711 -5.5 -1.1777 222
-13.0547 -9.7422 0.9448000000000001 22
-7.550800000000001 -5.636699999999999 -0.9858 233
-12.7578 -9.5234 1.2969 89
-12.7422 -9.5156 -1.2949000000000002 10
-12.648399999999999 -9.4375 1.6543 131
-12.726600000000001 -9.5 -0.9214 119
-12.726600000000001 -9.5 2.0371 72
-13.0469 -9.7422 -0.5669 234
-12.7656 -9.5312 2.4219 26
-13.0078 -9.7109 -0.1888 123
-12.976600000000001 -9.6875 2.8476999999999997 108
-12.8594 -9.5312 0.1863 107
-7.425800000000001 -5.5039 -1.4033000000000002 66
-13.0469 -9.6641 0.5654 225
-7.4727 -5.5390999999999995 -1.1914 140
-13.039100000000001 -9.6641 0.9419 98
-7.613300000000001 -5.644500000000001 -0.9917 110
-12.7422 -9.4453 1.2919999999999998 164
-12.75 -9.4453 -1.2919999999999998 52
-12.6406 -9.3672 1.6494 207
-12.718800000000002 -9.4219 -0.9185 15
-12.718800000000002 -9.4297 2.0312 168
-12.968800000000002 -9.6094 -0.562 208
-12.7422 -9.4453 2.4121 189
-13.0 -9.6328 -0.1884 126
-12.976600000000001 -9.6172 2.8398000000000003 76
-8.3359 -6.1328 -1.8174000000000001 151
-12.875 -9.4766 0.18600000000000003 253
-7.457000000000001 -5.488300000000001 -1.4053 9
-13.085899999999999 -9.625 0.5654 143
-7.574199999999999 -5.5703 -1.2041 190
-13.0703 -9.6172 0.9414 149
-7.6836 -5.6523 -0.998 222
-12.7422 -9.375 1.2881 48
-12.7422 -9.375 -1.2891 197
-12.648399999999999 -9.3047 1.6455000000000002 67
-12.7344 -9.3672 -0.9175 209
-12.710899999999999 -9.3516 2.0254 115
-13.0625 -9.6094 -0.5645 136
-11.156199999999998 -8.2031 2.1055 34
-13.0469 -9.5938 -0.1885 162
-12.976600000000001 -9.5469 2.8339999999999996 84
-8.3359 -6.0898 -1.8125 205
-12.8672 -9.3984 0.18539999999999998 252
-7.5 -5.4765999999999995 -1.4091999999999998 105
-13.0547 -9.5312 0.5625 79
-7.6523 -5.5898 -1.2139 154
-13.0625 -9.5391 0.9384999999999999 19
-7.792999999999999 -5.6914 -1.0098 215
-12.718800000000002 -9.2891 1.2832 115
-12.7422 -9.3047 -1.2852000000000001 129
-12.664100000000001 -9.25 1.6436000000000002 7
-12.7422 -9.3047 -0.9155 217
-12.710899999999999 -9.2812 2.0195 120
-12.906199999999998 -9.4297 -0.5562 211
-12.6172 -9.2109 2.375 251
-13.0078 -9.5 -0.1875 123
-12.9922 -9.4844 2.8281 125
-8.3438 -6.046900000000001 -1.8096 224
-12.9219 -9.3672 0.1858 24
-7.5625 -5.484400000000001 -1.4180000000000001 205
-13.0469 -9.4609 0.561 114
-7.636699999999999 -5.5352 -1.208 88
-13.0547 -9.4688 0.9355 152
-12.7578 -9.25 -1.6513999999999998 153
-12.726600000000001 -9.2266 1.2803 206
-12.7422 -9.2344 -1.2812000000000001 172
-12.664100000000001 -9.1797 1.6387 152
-12.7422 -9.2344 -0.9131 142
-12.718800000000002 -9.2188 2.0156 32
-13.023399999999999 -9.4453 -0.5600999999999999 41
-12.601600000000001 -9.1328 2.3672 55
-13.031199999999998 -9.4453 -0.1873 224
-12.843800000000002 -9.3125 2.7891000000000004 60
-8.3438 -6.0039 -1.8047 178
-12.8828 -9.2656 0.18469999999999998 70
-7.6484000000000005 -5.5039 -1.4306999999999999 231
-13.0469 -9.3906 0.5596 244
-7.6875 -5.5312 -1.2129 13
-13.0703 -9.4062 0.9340999999999999 194
-12.7656 -9.1875 -1.6484 40
-12.75 -9.1719 1.2793 229
-12.726600000000001 -9.1562 -1.2773 166
-12.648399999999999 -9.1016 1.6328 53
-12.726600000000001 -9.1641 -0.9097 247
-12.718800000000002 -9.1562 2.0098 221
-12.9844 -9.3438 -0.5566 230
-12.601600000000001 -9.0703 2.3613 205
-12.9844 -9.3438 -0.1863 190
-12.7969 -9.2109 2.7733999999999996 227
-8.3281 -5.949199999999999 -1.7969 216
-12.960899999999999 -9.2578 0.18539999999999998 244
-7.769500000000001 -5.550800000000001 -1.4491999999999998 170
-12.9219 -9.2344 0.5527000000000001 8
-10.773399999999999 -7.6953 -1.6972999999999998 4
-12.8281 -9.1641 0.9146 25
-12.7578 -9.1094 -1.6436000000000002 213
-12.7422 -9.1016 1.2754 181
-12.7422 -9.1016 -1.2754 76
-12.6328 -9.0234 1.6269999999999998 27
-12.726600000000001 -9.0859 -0.9072 183
-12.710899999999999 -9.0781 2.0039 53
-12.9219 -9.2266 -0.5527000000000001 2
-12.6094 -9.0078 2.3574 133
-12.9922 -9.2812 -0.1859 78
-12.789100000000001 -9.1406 2.7656 243
-8.3516 -5.921900000000001 -1.7978999999999998 115
-12.8281 -9.0938 0.183 96
-9.0625 -6.425800000000001 -1.6875 231
-12.8203 -9.0938 0.5468999999999999 104
-10.773399999999999 -7.640599999999999 -1.6934 203
-12.8125 -9.0859 0.9111 29
-12.7422 -9.0391 -1.6377000000000002 30
-12.726600000000001 -9.0234 1.2705 159
-12.7422 -9.0391 -1.2725 204
-12.6328 -8.9531 1.6230000000000002 112
-12.7344 -9.0312 -0.9057999999999999 165
-12.710899999999999 -9.0078 1.9980000000000002 161
-12.843800000000002 -9.1094 -0.5478999999999999 194
-12.6094 -8.9375 2.3496 89
-12.7656 -9.0547 -0.1821 122
-12.8047 -9.0781 2.7598000000000003 110
-8.3438 -5.875 -1.7919999999999998 154
-12.8125 -9.0156 0.18230000000000002 109
-9.1016 -6.4023 -1.6904 201
-12.8125 -9.0156 0.5454 20
-10.7969 -7.6015999999999995 -1.6934 180
-12.8125 -9.0234 0.9092 94
-12.7422 -8.9688 -1.6338 217
-12.710899999999999 -8.9453 1.2666 108
-12.726600000000001 -8.9609 -1.2676 123
-12.648399999999999 -8.8984 1.6211000000000002 231
-12.7344 -8.9609 -0.9033 63
-12.718800000000002 -8.9531 1.9950999999999999 176
-12.8047 -9.0078 -0.5449 98
-12.601600000000001 -8.8672 2.3438 87
-12.7969 -9.0078 -0.1821 43
-12.8125 -9.0156 2.7558999999999996 171
-8.3516 -5.8359000000000005 -1.7891 111
-12.8203 -8.9531 0.1819 185
-9.1094 -6.363300000000001 -1.6885 135
-12.8047 -8.9453 0.5439 250
-10.8203 -7.5586 -1.6924000000000001 223
-12.835899999999999 -8.9688 0.9081999999999999 191
-12.75 -8.9062 -1.6309 7
-12.710899999999999 -8.8828 1.2637 233
-12.726600000000001 -8.8906 -1.2646 117
-12.648399999999999 -8.8359 1.6172 50
-12.7422 -8.8984 -0.9014 4
-12.710899999999999 -8.8828 1.9893 54
-12.8125 -8.9531 -0.5439 39
-12.585899999999999 -8.7891 2.334 0
-12.75 -8.9062 -0.18100000000000002 93
-12.976600000000001 -9.0625 2.7832 65
-8.3438 -5.7852 -1.7822 86
-12.8828 -8.9297 0.18239999999999998 17
-6.2734000000000005 -4.3516 -1.1582 101
-12.843800000000002 -8.9062 0.5439 89
-10.8203 -7.5039 -1.6885 10
-12.9297 -8.9688 0.9126000000000001 191
-12.7578 -8.8516 -1.6279 37
-12.7344 -8.8281 1.2627 197
-12.7344 -8.8281 -1.2617 57
-12.6406 -8.7656 1.6122999999999998 187
-12.726600000000001 -8.8203 -0.8984000000000001 107
-12.710899999999999 -8.8203 1.9844 198
-12.8281 -8.8984 -0.5435 36
-12.593800000000002 -8.7344 2.3301 16
-12.835899999999999 -8.8984 -0.1818 198
-12.9844 -9.0078 2.7793 74
-6.2578 -4.3086 -1.3319999999999999 186
-12.9219 -8.8984 0.1826 238
-6.2773 -4.3203 -1.1553 218
-13.0156 -8.9609 0.5498 119
-10.843800000000002 -7.4648 -1.6885 144
-13.039100000000001 -8.9688 0.9179999999999999 254
-12.7422 -8.7656 1.2598 52
-12.726600000000001 -8.7578 -1.2588 179
-12.6328 -8.6953 1.6074000000000002 29
-12.726600000000001 -8.7578 -0.8965000000000001 58
-12.7031 -8.7422 1.9785 255
-12.8906 -8.875 -0.5444 25
-12.593800000000002 -8.6719 2.3262 211
-12.851600000000001 -8.8516 -0.1816 86
-12.9922 -8.9453 2.7754000000000003 84
-6.265599999999999 -4.2812 -1.3311000000000002 97
-12.898399999999999 -8.8125 0.1818 230
-6.261699999999999 -4.2773 -1.1494 83
-13.0156 -8.8984 0.5488000000000001 141
-6.300800000000001 -4.3086 -0.9765999999999999 243
-13.023399999999999 -8.8984 0.915 7
-12.710899999999999 -8.6875 1.2539 22
-12.7344 -8.7031 -1.2568000000000001 142
-12.625 -8.625 1.6025 68
-12.710899999999999 -8.6875 -0.8931 37
-12.6953 -8.6797 1.9727000000000001 73
-12.789100000000001 -8.7422 -0.5390999999999999 116
-12.593800000000002 -8.6094 2.3203 152
-12.8672 -8.7891 -0.1813 104
-12.9922 -8.8828 2.7676 200
-6.2539 -4.2461 -1.3252000000000002 178
-12.9219 -8.7656 0.1816 138
-6.2578 -4.2461 -1.1465 189
-13.0078 -8.8281 0.5474 44
-6.292999999999999 -4.2734 -0.9731000000000001 145
-13.023399999999999 -8.8359 0.9131 171
-6.359400000000001 -4.3164 -0.8031999999999999 235
-12.718800000000002 -8.625 1.252 231
-6.4375 -4.3672 -0.6318 142
-12.6328 -8.5703 1.5996000000000001 83
-12.718800000000002 -8.6328 -0.8916 62
