# .PCD v0.7 - Point Cloud Data file format
VERSION 0.7
FIELDS x y z intensity
SIZE 4 4 4 4
TYPE F F F F
COUNT 1 1 1 1
WIDTH 1377
HEIGHT 1
VIEWPOINT 0 0 0 1 0 0 0
POINTS 1377
DATA ascii
-25.7031 24.9531 5.457000000000001 238
-0.5649000000000001 0.5522 -0.1318 199
-42.5625 41.625 2.0762 136
-7.6211 7.449199999999999 -1.3652000000000002 98
-42.6875 41.7188 3.4707 145
-8.9844 8.7812 -1.3154 91
-28.75 28.1094 3.2812 49
-10.7031 10.460899999999999 -1.2187999999999999 206
-26.2031 25.6094 3.8457 164
-13.1406 12.843800000000002 -1.0664 110
-26.1562 25.5781 4.6992 254
-17.2344 16.8594 -0.8403 254
-0.5767 0.5679 -0.1354 155
-42.5625 41.9062 2.084 145
-7.5898 7.4727 -1.3643 174
-60.7812 59.8125 4.957 235
-8.9453 8.8047 -1.3154 250
-28.1875 27.75 3.2285000000000004 166
-10.656199999999998 10.4922 -1.2178 58
-26.1719 25.7656 3.8555 56
-13.101600000000001 12.898399999999999 -1.0674 243
-25.875 25.4688 4.6641 232
-17.0938 16.8281 -0.8354 9
-0.5947 0.5893999999999999 -0.14029999999999998 252
-7.550800000000001 7.488300000000001 -1.3622999999999998 13
-60.3438 59.8438 4.9414 78
-8.9219 8.8438 -1.3163999999999998 11
-25.9531 25.7188 2.9805 113
-10.6172 10.531199999999998 -1.2178 148
-25.9688 25.7344 3.8379000000000003 255
-13.0547 12.9453 -1.0674 155
-25.7188 25.5 4.6523 55
-17.1406 16.9844 -0.8408 160
-0.5703 0.5693 -0.1346 162
-24.8281 24.7812 0.4094 149
-60.0312 59.9375 2.9608999999999996 231
-7.519500000000001 7.5039 -1.3613 124
-59.9375 59.8438 4.9258 171
-8.8672 8.8516 -1.3125 136
-25.7656 25.7188 2.9707 119
-10.5781 10.5547 -1.2168 20
-25.8594 25.8125 3.8358999999999996 72
-13.0078 12.9844 -1.0674 97
-25.6875 25.6406 4.6641 224
-17.0625 17.0312 -0.8403 180
-0.5429999999999999 0.5459 -0.1284 28
-6.5547 6.5898 -1.4111000000000002 199
-59.5938 59.9062 2.9492000000000003 14
-7.4922 7.5312 -1.3613 171
-59.5 59.8125 4.9062 150
-8.8281 8.875 -1.3115 241
-25.5938 25.7188 2.9589999999999996 67
-10.539100000000001 10.593800000000002 -1.2168 40
-27.375 27.5156 4.0742 70
-12.968800000000002 13.039100000000001 -1.0674 151
-25.0781 25.2031 4.5664 85
-16.9688 17.0469 -0.8384 40
-0.5522 0.5590999999999999 -0.13119999999999998 197
-6.4648 6.5390999999999995 -1.3955000000000002 21
-59.1875 59.875 2.9395 243
-7.457000000000001 7.542999999999999 -1.3584 2
-59.0625 59.75 4.8867 252
-8.7891 8.8906 -1.3096 200
-25.5469 25.8438 2.9648000000000003 166
-10.5 10.6172 -1.2158 197
-26.7656 27.0781 3.998 19
-12.906199999999998 13.0547 -1.0654000000000001 93
-26.0781 26.3906 4.7656 121
-16.8594 17.0469 -0.8354 180
-0.5757 0.5859000000000001 -0.1375 63
-6.4336 6.550800000000001 -1.3936000000000002 111
-58.7812 59.8438 2.9276999999999997 13
-7.421900000000001 7.5547 -1.3563999999999998 57
-58.6875 59.75 4.8711 108
-8.7656 8.9219 -1.3105000000000002 66
-25.4844 25.9531 2.9688 172
-10.460899999999999 10.656199999999998 -1.2158 129
-26.5312 27.0156 3.9745999999999997 181
-12.875 13.1094 -1.0664 63
-26.4375 26.9219 4.8477 253
-16.8594 17.1562 -0.8384 79
-0.584 0.5996 -0.14029999999999998 221
-6.4336 6.605499999999999 -1.3994 26
-58.3438 59.9062 2.918 169
-7.3828 7.578099999999999 -1.3555000000000001 111
-58.25 59.7812 4.8555 195
-8.7344 8.9688 -1.3115 25
-10.4297 10.7031 -1.2168 158
-26.9844 27.7031 4.0586 183
-12.7969 13.1328 -1.0645 7
-26.375 27.0781 4.8555 252
-16.75 17.1875 -0.8359000000000001 61
-0.5820000000000001 0.6015999999999999 -0.14029999999999998 22
-6.363300000000001 6.582000000000001 -1.3896000000000002 27
-57.9062 59.875 2.9062 109
-7.3398 7.5898 -1.3525 63
-57.8125 59.7812 4.8359 242
-8.6719 8.9688 -1.3066 178
-10.3828 10.7344 -1.2158 92
-25.7031 26.5781 3.8808999999999996 251
-12.7656 13.1953 -1.0654000000000001 139
-24.8594 25.7188 4.5938 7
-16.6719 17.2344 -0.8354 170
-0.5801 0.6035 -0.14029999999999998 200
-6.328099999999999 6.5898 -1.3866999999999998 100
-57.5 59.8438 2.8964999999999996 28
-7.324199999999999 7.625 -1.3544999999999998 196
-57.4062 59.75 4.8164 63
-8.6484 9.0 -1.3075999999999999 74
-27.0625 28.1719 3.1875 240
-10.351600000000001 10.781199999999998 -1.2168 163
-25.6406 26.7031 3.8867000000000003 129
-12.6953 13.218800000000002 -1.0635 248
-24.9844 26.0156 4.6328 230
-16.6094 17.2969 -0.8354 48
-0.5776 0.6054999999999999 -0.14029999999999998 133
-6.3047 6.609400000000001 -1.3857 95
-57.1562 59.9375 2.8906 206
-7.292999999999999 7.644500000000001 -1.3535 64
-57.0 59.75 4.8008 109
-8.6094 9.0234 -1.3066 46
-26.7812 28.0625 3.1641000000000004 12
-10.3125 10.8125 -1.2168 2
-25.6406 26.875 3.8983999999999996 207
-12.648399999999999 13.2578 -1.0635 115
-24.8438 26.0312 4.625 54
-16.5469 17.3438 -0.8354 234
-0.5922999999999999 0.6245 -0.1444 201
-6.2852 6.6289 -1.3866999999999998 142
-56.6875 59.8125 2.877 255
-7.265599999999999 7.6640999999999995 -1.3535 112
-56.5938 59.7188 4.7852 165
-8.5781 9.0547 -1.3066 55
-26.6562 28.1094 3.1601999999999997 123
-10.273399999999999 10.835899999999999 -1.2158 134
-25.9531 27.375 3.9589999999999996 45
-12.593800000000002 13.281199999999998 -1.0625 1
-24.875 26.25 4.6445 79
-16.5 17.4062 -0.8359000000000001 177
-0.5498 0.5835 -0.13390000000000002 91
-6.230499999999999 6.6172 -1.3799000000000001 158
-56.3125 59.7812 2.8651999999999997 182
-7.234400000000001 7.6797 -1.3516 96
-56.2188 59.6875 4.7695 94
-8.5312 9.0547 -1.3027000000000002 64
-26.5938 28.2344 3.1641000000000004 236
-10.2109 10.843800000000002 -1.2129 207
-25.5156 27.0938 3.9062 35
-12.539100000000001 13.3125 -1.0615 249
-24.8594 26.3906 4.6602 8
-16.4062 17.4219 -0.8340000000000001 247
-0.5366 0.5742 -0.13119999999999998 37
-6.2109000000000005 6.640599999999999 -1.3799000000000001 3
-55.9062 59.8125 2.8574 227
-7.1875 7.6875 -1.3486000000000002 238
-55.8125 59.6875 4.7539 199
-8.5 9.0938 -1.3037 225
-26.3906 28.2344 3.1543 216
-10.2031 10.914100000000001 -1.2168 3
-25.5312 27.3125 3.9238 203
-12.4922 13.3594 -1.0615 94
-16.4219 17.5781 -0.8384 121
-20.7812 22.2344 -0.355 67
-0.5347 0.5761999999999999 -0.13119999999999998 167
-6.1602 6.636699999999999 -1.374 183
-55.5 59.8125 2.8476999999999997 58
-7.1523 7.707000000000001 -1.3466999999999998 158
-55.375 59.6562 4.7344 97
-8.4531 9.1016 -1.3008000000000002 244
-26.3906 28.4375 3.1660000000000004 126
-10.1484 10.9375 -1.2148 105
-25.2031 27.1562 3.8887 101
-12.4375 13.398399999999999 -1.0605 80
-16.3281 17.5938 -0.8359000000000001 95
-20.6094 22.2031 -0.35350000000000004 145
-0.5542 0.6011 -0.1367 252
-6.1211 6.640599999999999 -1.3700999999999999 97
-55.0938 59.7812 2.8358999999999996 159
-7.109400000000001 7.7109000000000005 -1.3437999999999999 60
-55.0312 59.6875 4.7227 107
-8.4141 9.125 -1.2997999999999998 84
-10.1172 10.976600000000001 -1.2158 162
-25.125 27.25 3.8906 183
-12.398399999999999 13.4453 -1.0615 66
-16.25 17.625 -0.8354 138
-20.4531 22.1875 -0.3521 253
-6.0859000000000005 6.6484000000000005 -1.3681999999999999 77
-54.7188 59.7812 2.8281 122
-7.082000000000001 7.738300000000001 -1.3437999999999999 103
-54.625 59.6875 4.707 58
-8.3828 9.1562 -1.2997999999999998 197
-10.0781 11.0156 -1.2158 169
-25.7812 28.1719 4.0078 255
-12.335899999999999 13.476600000000001 -1.0605 241
-16.2031 17.7031 -0.8359000000000001 178
-5.3359000000000005 5.8672 -1.3916 48
-6.0586 6.6640999999999995 -1.3672 136
-54.3125 59.75 2.8183999999999996 50
-7.0312 7.734400000000001 -1.3388999999999998 24
-54.25 59.6562 4.6875 134
-8.3438 9.1797 -1.2988 91
-10.0312 11.031199999999998 -1.2139 153
-25.7812 28.3594 4.0234 254
-12.281199999999998 13.5078 -1.0595999999999999 51
-16.125 17.7344 -0.8354 99
-5.2890999999999995 5.855499999999999 -1.3838 35
-6.0273 6.675800000000001 -1.3652000000000002 248
-53.9375 59.7188 2.8086 39
-6.9922 7.7422 -1.3369 193
-53.8438 59.625 4.6719 125
-8.2891 9.1797 -1.2959 137
-53.7812 59.5312 6.546900000000001 146
-9.9844 11.0547 -1.2129 17
-25.7031 28.4531 4.0273 37
-12.210899999999999 13.523399999999999 -1.0576 238
-16.125 17.8438 -0.8384 88
-20.0781 22.2344 -0.3494 7
-5.2422 5.8515999999999995 -1.3779 219
-6.011699999999999 6.707000000000001 -1.3672 134
-53.5312 59.75 2.7988 190
-6.9688 7.7773 -1.3378999999999999 52
-53.4688 59.6562 4.6562 99
-8.2578 9.2109 -1.2959 55
-53.375 59.5625 6.5312 65
-9.9219 11.0781 -1.2109 36
-25.6406 28.6094 4.0312 137
-12.1797 13.593800000000002 -1.0586 173
-15.9844 17.8438 -0.835 109
-19.9062 22.2188 -0.3479 203
-5.2148 5.863300000000001 -1.3769999999999998 170
-5.9609000000000005 6.703099999999999 -1.3613 231
-53.1562 59.75 2.7910000000000004 7
-6.917999999999999 7.7773 -1.334 194
-53.0625 59.6562 4.6445 99
-8.2109 9.2266 -1.2938999999999998 41
-53.0 59.5938 6.511699999999999 132
-9.8828 11.1094 -1.2109 226
-12.093800000000002 13.601600000000001 -1.0566 234
-15.914100000000001 17.8906 -0.8345 43
-5.1953 5.875 -1.376 117
-5.9375 6.7148 -1.3603999999999998 86
-52.7812 59.7188 2.7812 98
-6.894500000000001 7.796900000000001 -1.3330000000000002 73
-52.7188 59.625 4.6289 196
-8.1875 9.2578 -1.2949000000000002 27
-52.625 59.5 6.484400000000001 134
-9.8359 11.125 -1.209 77
-12.085899999999999 13.664100000000001 -1.0586 247
-15.8672 17.9531 -0.835 176
-5.175800000000001 5.894500000000001 -1.376 67
-5.9102 6.730499999999999 -1.3594 248
-52.4375 59.7188 2.7733999999999996 6
-6.8438 7.792999999999999 -1.3281 160
-52.3438 59.5938 4.6133 237
-8.1406 9.2656 -1.2919999999999998 84
-52.25 59.5 6.4648 179
-9.7891 11.1406 -1.208 12
-12.039100000000001 13.710899999999999 -1.0586 205
-15.789100000000001 17.9688 -0.8334999999999999 68
-5.144500000000001 5.9023 -1.3730000000000002 14
-5.8828 6.75 -1.3584 211
-52.0625 59.7188 2.7656 102
-6.8047 7.8047 -1.3262 231
-51.9688 59.5938 4.5977 36
-8.1094 9.2969 -1.2919999999999998 220
-51.875 59.5 6.4453 13
-9.7422 11.1719 -1.207 171
-11.968800000000002 13.7344 -1.0576 36
-15.7656 18.0781 -0.8359000000000001 54
-5.1328 5.9297 -1.376 144
-5.8438 6.7539 -1.3555000000000001 250
-51.6562 59.6562 2.7539 135
-6.769500000000001 7.8203 -1.3252000000000002 156
-51.5938 59.5938 4.582 161
-8.0703 9.3203 -1.291 208
-51.5 59.5 6.425800000000001 75
-9.7031 11.210899999999999 -1.207 8
-11.9219 13.773399999999999 -1.0576 134
-15.7031 18.1406 -0.8359000000000001 104
-19.9219 23.0156 -0.355 121
-5.0898 5.925800000000001 -1.3700999999999999 222
-5.8125 6.765599999999999 -1.3535 221
-51.2812 59.6875 2.7461 107
-6.738300000000001 7.8398 -1.3241999999999998 228
-51.2188 59.5938 4.5703 76
-8.0156 9.3281 -1.2881 115
-51.125 59.5 6.4023 38
-9.6484 11.226600000000001 -1.2051 173
-11.875 13.8203 -1.0576 209
-15.625 18.1875 -0.8354 235
-5.0742 5.9453 -1.3711000000000002 179
-5.7852 6.7812 -1.3525 41
-50.9062 59.6875 2.7382999999999997 87
-6.7109000000000005 7.863300000000001 -1.3241999999999998 103
-50.8438 59.5938 4.5547 138
-7.980499999999999 9.3516 -1.2881 68
-50.75 59.4688 6.3828 145
-9.6094 11.2656 -1.2061 94
-11.843800000000002 13.8828 -1.0595999999999999 114
-15.5781 18.2656 -0.8364 84
-18.7969 22.0312 -0.3379 46
-5.0547 5.9648 -1.3711000000000002 198
-25.3594 29.9062 0.4575 144
-5.761699999999999 6.792999999999999 -1.3516 69
-50.5625 59.6562 2.7285000000000004 41
-6.667999999999999 7.8672 -1.3213 103
-50.5 59.5625 4.5391 192
-7.957000000000001 9.3828 -1.2891 48
-50.4375 59.5 6.3672 163
-9.5781 11.2969 -1.2061 132
-11.835899999999999 13.960899999999999 -1.0625 167
-15.531199999999998 18.3125 -0.8369 74
-18.7188 22.0781 -0.33759999999999996 252
-5.0195 5.9609000000000005 -1.3672 30
-5.738300000000001 6.8164 -1.3525 119
-50.2188 59.625 2.7207 24
-6.6328 7.8789 -1.3193000000000001 61
-50.125 59.5312 4.5234 181
-7.921900000000001 9.4062 -1.2881 166
-50.0625 59.4375 6.3438 174
-9.5234 11.3125 -1.2041 117
-11.75 13.9531 -1.0586 205
-15.4453 18.3438 -0.8354 211
-18.5312 22.0 -0.3354 241
-4.9883 5.9688 -1.3643 41
-5.699199999999999 6.8203 -1.3486000000000002 152
-49.8125 59.625 2.7108999999999996 220
-6.5977 7.894500000000001 -1.3174000000000001 244
-49.75 59.5312 4.5117 212
-7.8828 9.4375 -1.2881 103
-49.6562 59.4375 6.324199999999999 217
-9.4844 11.351600000000001 -1.2051 84
-11.6797 13.976600000000001 -1.0566 201
-15.3906 18.4219 -0.8364 190
-18.3594 21.9688 -0.33399999999999996 11
-4.9688 5.9922 -1.3652000000000002 31
-5.675800000000001 6.8438 -1.3496000000000001 208
-49.4688 59.625 2.7031 170
-6.5703 7.917999999999999 -1.3174000000000001 75
-49.375 59.5312 4.5 187
-7.832000000000001 9.4453 -1.2852000000000001 76
-49.3125 59.4375 6.3047 22
-9.4375 11.3828 -1.2041 23
-11.6172 14.0 -1.0556999999999999 20
-15.3594 18.5156 -0.8384 240
-18.25 21.9844 -0.3333 30
-4.9531 6.0078 -1.3652000000000002 240
-5.636699999999999 6.8398 -1.3447 169
-49.0938 59.5938 2.6952999999999996 56
-6.5390999999999995 7.9375 -1.3174000000000001 58
-49.0312 59.5 4.4844 49
-7.800800000000001 9.4688 -1.2852000000000001 243
-48.9688 59.4062 6.2852 237
-9.4062 11.414100000000001 -1.2051 82
-11.5703 14.039100000000001 -1.0556999999999999 18
-15.3203 18.5938 -0.8398 244
-18.1562 22.0469 -0.33299999999999996 27
-4.9297 6.0234000000000005 -1.3652000000000002 225
-5.6211 6.8672 -1.3466999999999998 165
-48.7812 59.5938 2.6875 213
-6.4961 7.9375 -1.3135 216
-48.7188 59.5 4.4727 234
-7.765599999999999 9.4844 -1.2841999999999998 179
-48.6562 59.4375 6.269500000000001 227
-9.3594 11.4297 -1.2031 58
-11.5469 14.1094 -1.0576 11
-15.2031 18.5781 -0.8364 147
-17.9375 21.9062 -0.33030000000000004 173
-4.8906 6.019500000000001 -1.3603999999999998 108
-5.5859000000000005 6.875 -1.3447 149
-48.4062 59.5938 2.6797000000000004 192
-6.4648 7.957000000000001 -1.3135 96
-48.3125 59.4688 4.457 101
-7.734400000000001 9.5156 -1.2841999999999998 25
-48.3125 59.4688 6.2539 171
-9.3125 11.460899999999999 -1.2031 247
-20.2969 24.9844 3.3789 201
-11.5 14.156199999999998 -1.0586 91
-15.2031 18.7188 -0.8403 94
-17.7969 21.9062 -0.32909999999999995 108
-4.875 6.042999999999999 -1.3613 235
-5.5664 6.8984000000000005 -1.3447 80
-48.0625 59.5625 2.6699 203
-6.4375 7.980499999999999 -1.3135 204
-48.0 59.5 4.4453 140
-7.6875 9.5312 -1.2822 59
-47.9062 59.4062 6.230499999999999 183
-9.2734 11.5 -1.2031 59
-20.25 25.1094 3.3867000000000003 158
-11.4297 14.1719 -1.0566 208
-15.125 18.75 -0.8398 30
-17.6875 21.9219 -0.3286 72
-4.8516 6.0625 -1.3613 80
-5.5312 6.9102 -1.3428 1
-47.7188 59.5938 2.6641000000000004 226
-6.4062 8.0 -1.3125 185
-47.625 59.4688 4.4297 38
-7.636699999999999 9.5391 -1.2803 176
-47.5312 59.375 6.2109000000000005 168
-9.2266 11.523399999999999 -1.2021 198
-20.2812 25.3438 3.4062 62
-11.3906 14.226600000000001 -1.0576 115
-15.0703 18.8281 -0.8403 79
-17.5469 21.9062 -0.3274 111
-4.8242 6.0703 -1.3603999999999998 149
-22.9375 28.8594 0.4302 218
-5.4922 6.9062 -1.3388999999999998 36
-47.3438 59.5625 2.6543 8
-6.3672 8.0078 -1.3105000000000002 58
-47.2812 59.4688 4.418 237
-7.5977 9.5625 -1.2793 208
-18.6719 23.4844 2.4473 40
-9.1797 11.5469 -1.2012 180
-19.6719 24.75 3.3183999999999996 30
-11.3203 14.2422 -1.0556999999999999 218
-15.0078 18.875 -0.8403 37
-18.8906 23.7656 4.625 99
-17.4219 21.9219 -0.3267 21
-4.8047 6.0859000000000005 -1.3594 97
-5.4765999999999995 6.9375 -1.3418 63
-47.0312 59.5625 2.6483999999999996 79
-6.3438 8.0391 -1.3115 118
-46.9375 59.4688 4.4062 169
-7.5703 9.5859 -1.2793 198
-46.8438 59.3438 6.171900000000001 7
-9.1328 11.5703 -1.2002 135
-19.7344 24.9844 3.3418 30
-11.3125 14.3281 -1.0595999999999999 172
-14.960899999999999 18.9531 -0.8412999999999999 24
-18.7344 23.7344 4.6055 215
-17.2812 21.8906 -0.32520000000000004 91
-4.7695 6.082000000000001 -1.3555000000000001 170
-5.4453 6.9453 -1.3397999999999999 19
-46.6875 59.5312 2.6406 37
-6.3047 8.0391 -1.3086000000000002 196
-46.5938 59.4375 4.3906 36
-7.5312 9.6016 -1.2783 212
-18.4531 23.5469 2.4395 197
-9.1016 11.601600000000001 -1.2012 253
-19.6719 25.0938 3.3476999999999997 228
-11.2422 14.335899999999999 -1.0576 84
-18.9219 24.1406 3.9395 162
-14.906199999999998 19.0156 -0.8418000000000001 242
-18.8438 24.0312 4.6523 17
-17.1719 21.8906 -0.3245 139
-4.75 6.1015999999999995 -1.3563999999999998 69
-5.4297 6.9727 -1.3408000000000002 196
-46.3438 59.5625 2.6327999999999996 5
-6.2773 8.0625 -1.3086000000000002 203
-46.2812 59.4375 4.3789 9
-7.480499999999999 9.6094 -1.2754 145
-18.7344 24.0625 2.4883 201
-9.0469 11.625 -1.1992 101
-19.4531 24.9844 3.3242000000000003 218
-11.1719 14.351600000000001 -1.0556999999999999 131
-18.8438 24.2031 3.9414 187
-14.8594 19.0938 -0.8432999999999999 62
-18.6875 24.0 4.6328 119
-17.0312 21.875 -0.3232 221
-4.7227 6.105499999999999 -1.3535 1
-5.4023 6.988300000000001 -1.3408000000000002 35
-46.0625 59.5625 2.627 220
-6.234400000000001 8.0625 -1.3056999999999999 176
-45.9688 59.4375 4.3672 190
-7.4453 9.6328 -1.2744 247
-18.6875 24.1719 2.4922 194
-8.9844 11.6172 -1.1963 242
-19.3906 25.0625 3.3262 201
-11.1094 14.375 -1.0547 131
-18.7344 24.2344 3.9336 179
-14.7578 19.0938 -0.8408 61
-16.9219 21.8906 -0.3225 88
-4.7031 6.1289 -1.3544999999999998 234
-5.3711 7.0 -1.3388999999999998 125
-6.207000000000001 8.0859 -1.3056999999999999 158
-45.5938 59.4375 4.3555 240
-7.4062 9.6484 -1.2744 189
-18.5781 24.2188 2.4902 129
-8.9531 11.664100000000001 -1.1973 59
-19.0156 24.7656 3.2773000000000003 130
-11.093800000000002 14.460899999999999 -1.0576 96
-17.6562 23.0 3.7245999999999997 71
-14.726600000000001 19.2031 -0.8432999999999999 243
-17.7656 23.1562 4.4453 33
-16.7969 21.8906 -0.3218 66
-4.6797 6.144500000000001 -1.3544999999999998 34
-5.3359000000000005 7.0039 -1.3359 25
-6.171900000000001 8.1016 -1.3047 70
-45.2812 59.4062 4.3438 59
-7.3672 9.6719 -1.2734 251
-18.5156 24.2969 2.4922 106
-8.8906 11.6719 -1.1953 171
-18.9688 24.9062 3.2870999999999997 198
-11.031199999999998 14.476600000000001 -1.0566 234
-17.5781 23.0781 3.7245999999999997 156
-14.6719 19.25 -0.8438 182
-17.6406 23.1562 4.4336 77
-16.6562 21.8594 -0.32030000000000003 108
-4.6523 6.1562 -1.3535 58
-5.3086 7.019500000000001 -1.335 254
-6.1328 8.1172 -1.3027000000000002 190
-44.9062 59.4062 4.332 114
-7.328099999999999 9.6875 -1.2725 35
-18.2344 24.1094 2.4648 243
-8.8516 11.7031 -1.1943000000000001 189
-18.9688 25.0781 3.3007999999999997 240
-10.968800000000002 14.5078 -1.0556999999999999 98
-17.875 23.6406 3.8086 137
-14.625 19.3438 -0.8452 199
-17.5938 23.2656 4.4414 63
-16.5312 21.8594 -0.3196 202
-4.625 6.1640999999999995 -1.3516 59
-5.2852 7.042999999999999 -1.3359 115
-6.1015999999999995 8.125 -1.3018 74
-44.5938 59.4062 4.3203 111
-7.269500000000001 9.6875 -1.2686 61
-44.5312 59.3125 6.0547 190
-8.8125 11.75 -1.1963 51
-19.0156 25.3281 3.3242000000000003 188
-10.906199999999998 14.531199999999998 -1.0547 161
-17.8125 23.7188 3.8105 100
-14.531199999999998 19.3594 -0.8432999999999999 92
-17.9531 23.9219 4.5547 90
-16.4219 21.875 -0.3188 246
-4.6094 6.1836 -1.3525 120
-5.2461 7.0352 -1.3319999999999999 62
-6.0625 8.1328 -1.2997999999999998 30
-44.25 59.375 4.3047 128
-7.25 9.7266 -1.2705 93
-44.1875 59.2812 6.0352 6
-8.7656 11.7578 -1.1943000000000001 147
-17.9062 24.0312 3.1445 7
-10.8594 14.5703 -1.0547 113
-17.75 23.8125 3.8164 217
-14.5156 19.4688 -0.8462000000000001 156
-17.9062 24.0156 4.5586 131
-16.2969 21.8594 -0.3179 140
-4.5938 6.203099999999999 -1.3535 1
-5.2188 7.046900000000001 -1.3311000000000002 80
-6.0352 8.1562 -1.2997999999999998 16
-43.9375 59.375 4.293 118
-7.2109000000000005 9.7422 -1.2695 59
-43.8438 59.25 6.015599999999999 206
-8.7188 11.781199999999998 -1.1934 136
-17.6094 23.7812 3.1055 92
-10.8281 14.6328 -1.0566 115
-18.2656 24.6719 3.9433999999999996 210
-14.4297 19.5 -0.8452 68
-16.1719 21.8438 -0.3169 172
-4.5586 6.207000000000001 -1.3506 2
-5.1797 7.050800000000001 -1.3271000000000002 72
-21.2031 28.875 1.249 202
-5.9961 8.1641 -1.2978999999999998 124
-43.625 59.375 4.2852 191
-7.1602 9.75 -1.2666 91
-43.5312 59.2812 6.0039 41
-8.6562 11.781199999999998 -1.1904000000000001 45
-17.3281 23.5938 3.0723000000000003 9
-10.773399999999999 14.6719 -1.0566 120
-18.25 24.8438 3.9589999999999996 218
-14.3906 19.5938 -0.8472 90
-17.875 24.3438 4.5977 135
-16.0312 21.8281 -0.3159 25
-4.5234 6.203099999999999 -1.3466999999999998 156
-5.167999999999999 7.0859000000000005 -1.3311000000000002 42
-20.9844 28.7812 1.2422 175
-5.953099999999999 8.1641 -1.2938999999999998 208
-43.2812 59.3438 4.2734 16
-7.125 9.7734 -1.2666 25
-17.9375 24.6094 2.4844 117
-8.6328 11.835899999999999 -1.1924 182
-17.2969 23.7188 3.082 132
-10.7422 14.726600000000001 -1.0576 96
-18.1875 24.9375 3.9648000000000003 221
-14.3281 19.6562 -0.8477 55
-17.8594 24.5 4.6172 157
-15.906199999999998 21.8125 -0.31489999999999996 128
-4.5 6.2109000000000005 -1.3447 1
-5.136699999999999 7.0898 -1.3291 79
-20.8594 28.7812 1.2393 91
-5.9297 8.1875 -1.2949000000000002 85
-43.0 59.3438 4.2617 47
-7.0703 9.7578 -1.2627 168
-17.7969 24.5625 2.4746 82
-8.5781 11.843800000000002 -1.1914 160
-17.2344 23.7969 3.0839999999999996 76
-10.6797 14.7422 -1.0566 85
-18.125 25.0156 3.9688 201
-14.25 19.6719 -0.8467 222
-17.8125 24.5938 4.625 197
-15.875 21.9219 -0.3157 1
-4.4766 6.2227 -1.3447 110
-5.1055 7.0977 -1.3262 174
-20.7031 28.7969 1.2363 65
-5.9023 8.2031 -1.2949000000000002 54
-42.6875 59.3438 4.25 5
-7.0352 9.7812 -1.2617 42
-17.7188 24.625 2.4746 64
-8.5469 11.8828 -1.1914 63
-17.1719 23.8594 3.0858999999999996 227
-10.6328 14.773399999999999 -1.0566 11
-17.4219 24.2344 3.8339999999999996 32
-14.218800000000002 19.7656 -0.8486 217
-17.7031 24.6094 4.6172 254
-15.726600000000001 21.8594 -0.314 140
-4.457 6.2461 -1.3457 89
-5.0625 7.0938 -1.3222999999999998 247
-20.625 28.9062 1.2383 159
-5.863300000000001 8.2109 -1.2930000000000001 53
-42.3438 59.3438 4.2383 39
-6.988300000000001 9.7891 -1.2598 76
-18.5938 26.0469 2.6113 203
-8.4766 11.875 -1.1885 178
-17.3906 24.3594 3.1406 134
-10.5547 14.789100000000001 -1.0547 84
-17.2031 24.1094 3.8047000000000004 154
-14.1797 19.8594 -0.8506 32
-17.5469 24.5781 4.5977 43
-15.585899999999999 21.8281 -0.3127 13
-4.4336 6.2578 -1.3447 19
-5.0391 7.113300000000001 -1.3222999999999998 165
-20.5469 29.0 1.2393 255
-5.832000000000001 8.2266 -1.2919999999999998 21
-42.0312 59.3125 4.2266 17
-6.957000000000001 9.8203 -1.2598 21
-18.5 26.0938 2.6094 132
-8.4375 11.906199999999998 -1.1875 108
-17.2656 24.375 3.1348000000000003 71
-10.531199999999998 14.8594 -1.0576 215
-17.1094 24.1562 3.8026999999999997 162
-14.093800000000002 19.8906 -0.8495999999999999 36
-17.2031 24.2812 4.5312 69
-15.5078 21.8906 -0.3127 60
-4.3984 6.2539 -1.3408000000000002 98
-5.0273 7.1484000000000005 -1.3262 14
-20.4531 29.0781 1.2393 237
-5.7890999999999995 8.2344 -1.2891 210
-41.7188 59.3125 4.2148 238
-6.9140999999999995 9.8281 -1.2588 47
-41.6562 59.2188 5.9102 165
-8.3984 11.9375 -1.1885 88
-17.1562 24.4062 3.1308999999999996 249
-10.460899999999999 14.8672 -1.0547 141
-17.1406 24.375 3.8281 78
-14.0703 20.0 -0.8521 90
-17.0938 24.2969 4.5234 124
-4.3711 6.261699999999999 -1.3388999999999998 179
-5.0039 7.167999999999999 -1.3262 237
-20.4062 29.2344 1.2431999999999999 93
-5.7539 8.2422 -1.2871000000000001 202
-41.375 59.2812 4.2031 14
-6.886699999999999 9.8672 -1.2598 161
-18.6562 26.7188 2.6582 75
-8.3359 11.9453 -1.1865 236
-17.0156 24.375 3.1191000000000004 102
-10.406199999999998 14.906199999999998 -1.0547 222
-16.4062 23.5 3.6816000000000004 157
-14.0 20.0469 -0.8521 119
-16.9688 24.2969 4.5117 133
-15.210899999999999 21.7812 -0.3098 66
-4.3477 6.2734000000000005 -1.3378999999999999 41
-4.9727 7.1797 -1.3252000000000002 144
-20.3438 29.3594 1.2451 236
-5.738300000000001 8.2812 -1.29 202
-41.0625 59.25 4.1914 192
-6.828099999999999 9.8516 -1.2549 73
-18.5312 26.7344 2.6543 213
-8.3281 12.0156 -1.1904000000000001 84
-17.0469 24.5938 3.1406 126
-10.3828 14.976600000000001 -1.0576 93
-16.3125 23.5312 3.6776999999999997 243
-13.976600000000001 20.1719 -0.855 38
-16.9062 24.3906 4.5195 190
-15.1094 21.7969 -0.3093 27
-16.5469 23.875 5.1133 116
-4.3281 6.296900000000001 -1.3397999999999999 223
-4.9336 7.175800000000001 -1.3213 254
-20.2969 29.5 1.248 198
-5.703099999999999 8.2969 -1.2891 7
-40.7812 59.2812 4.1836 105
-6.792999999999999 9.875 -1.2559 185
-17.8125 25.9062 2.5645 201
-8.2578 12.0078 -1.1865 145
-16.9688 24.6875 3.1445 65
-10.3203 15.0078 -1.0576 10
-16.3438 23.7656 3.7051 109
-13.8047 20.0625 -0.8486 157
-16.8438 24.5 4.5273 55
-15.0 21.8125 -0.3086 161
-16.4688 23.9531 5.1172 138
-4.3047 6.3047 -1.3388999999999998 10
-4.9102 7.1914 -1.3213 27
-20.25 29.6719 1.2529000000000001 84
-5.6523 8.2812 -1.2841999999999998 137
-40.4688 59.25 4.1719 141
-6.7539 9.8984 -1.2549 157
-17.7188 25.9531 2.5645 61
-8.2031 12.023399999999999 -1.1855 49
-16.9219 24.7969 3.1504000000000003 185
-10.273399999999999 15.0469 -1.0576 119
-16.3125 23.9062 3.7188 174
-13.835899999999999 20.2656 -0.855 234
-16.5 24.1719 4.4531 6
-14.906199999999998 21.8281 -0.30829999999999996 117
-16.3281 23.9219 5.0977 68
-4.2773 6.3164 -1.3378999999999999 53
-4.8906 7.2188 -1.3232 139
-20.2031 29.8281 1.2559 22
-5.6211 8.2969 -1.2832 160
-16.8594 24.8906 1.7461000000000002 114
-6.734400000000001 9.9375 -1.2568000000000001 49
-17.7188 26.1562 2.5781 60
-8.1641 12.0469 -1.1845999999999999 6
-16.8438 24.8594 3.1523000000000003 212
-10.2109 15.0703 -1.0566 141
-15.9922 23.6094 3.6620999999999997 210
-13.7578 20.2969 -0.8545 171
-16.5625 24.4531 4.4961 49
-14.789100000000001 21.8281 -0.3074 139
-16.3281 24.0938 5.125 3
-4.25 6.3164 -1.335 5
-4.8633 7.230499999999999 -1.3222999999999998 169
-20.1719 30.0 1.2607 60
-5.5938 8.3203 -1.2841999999999998 6
-16.75 24.8906 1.7422 210
-6.675800000000001 9.9219 -1.252 89
-17.625 26.1875 2.5762 189
-8.1328 12.093800000000002 -1.1865 102
-16.4219 24.4062 3.0879000000000003 34
-10.1719 15.1172 -1.0576 203
-15.8828 23.6094 3.6543 254
-13.648399999999999 20.2969 -0.8521 170
-15.7344 23.3906 4.293 11
-14.7031 21.8594 -0.3071 165
-16.2969 24.2344 5.144500000000001 246
-4.2266 6.332000000000001 -1.335 174
-4.8164 7.2109000000000005 -1.3154 25
-20.1562 30.1719 1.2656 194
-5.5625 8.3281 -1.2832 154
-16.6562 24.9219 1.7412 146
-6.6289 9.9297 -1.25 245
-17.3906 26.0469 2.5547 100
-8.0938 12.1172 -1.1865 209
-15.4219 23.0938 2.9141000000000004 29
-10.1094 15.1406 -1.0566 186
-16.7344 25.0625 3.8711 136
-13.6406 20.4219 -0.8554999999999999 152
-15.6797 23.4688 4.2969 207
-14.6172 21.8906 -0.3069 188
-16.3125 24.4375 5.171900000000001 48
-4.2109 6.3515999999999995 -1.3359 151
-4.793 7.230499999999999 -1.3163999999999998 164
-20.1562 30.4219 1.2725 45
-5.5312 8.3516 -1.2832 85
-16.5625 24.9844 1.7412 224
-6.609400000000001 9.9766 -1.2529000000000001 199
-17.4219 26.2812 2.5723000000000003 206
-8.0469 12.148399999999999 -1.1865 127
-15.289100000000001 23.0781 2.9043 71
-10.0625 15.1875 -1.0576 165
-16.0938 24.2969 3.7441000000000004 12
-13.539100000000001 20.4375 -0.8540000000000001 67
-15.5156 23.4219 4.2773 42
-14.5625 21.9688 -0.3074 238
-14.914100000000001 22.5156 4.7539 98
-4.1836 6.363300000000001 -1.335 140
-4.7734 7.261699999999999 -1.3184 237
-5.4961 8.3516 -1.2812000000000001 52
-16.5625 25.1875 1.751 8
-6.5625 9.9766 -1.251 124
-17.3438 26.3594 2.5742000000000003 211
-7.980499999999999 12.1328 -1.1826 23
-15.2422 23.1875 2.9120999999999997 38
-10.0391 15.2656 -1.0605 211
-16.7344 25.4375 3.9120999999999997 195
-13.476600000000001 20.5 -0.8545 240
-15.375 23.375 4.2617 226
-14.5156 22.0625 -0.3079 105
-16.2812 24.75 5.2148 74
-4.1562 6.3672 -1.3330000000000002 178
-19.875 30.4531 0.4243 58
-4.7539 7.2852 -1.3193000000000001 25
-5.457000000000001 8.3594 -1.2783 121
-16.25 24.9062 1.7275 79
-6.5273 10.0078 -1.251 149
-16.2969 24.9531 2.4316 58
-7.917999999999999 12.1328 -1.1797 204
-15.164100000000001 23.2344 2.9120999999999997 190
-9.9688 15.281199999999998 -1.0586 158
-15.3828 23.5625 3.6151999999999997 253
-13.398399999999999 20.5312 -0.8545 15
-14.6953 22.5156 4.0938 141
-14.468800000000002 22.1719 -0.30879999999999996 250
-16.1875 24.8125 5.2188 54
-4.1289 6.375 -1.3319999999999999 77
-19.7812 30.5469 0.42460000000000003 39
-4.7109 7.2734000000000005 -1.3144999999999998 224
-5.4297 8.3828 -1.2793 237
-16.1406 24.9375 1.7256 52
-6.488300000000001 10.0156 -1.25 146
-16.2812 25.1406 2.4434 241
-7.890599999999999 12.1797 -1.1816 157
-15.125 23.3438 2.9199 29
-9.8984 15.281199999999998 -1.0566 141
-17.0156 26.2656 4.0195 39
-13.351600000000001 20.6094 -0.8554999999999999 51
-15.156199999999998 23.3906 4.2422 218
-14.476600000000001 22.3594 -0.3105 196
-16.1719 24.9844 5.238300000000001 87
-4.1016 6.3828 -1.3300999999999998 248
-19.75 30.7188 0.426 179
-4.6797 7.2852 -1.3135 126
-5.394500000000001 8.3984 -1.2783 153
-16.0781 25.0312 1.7285 158
-6.449199999999999 10.0312 -1.249 149
-15.4297 24.0 2.3281 166
-7.863300000000001 12.2344 -1.1845999999999999 14
-15.101600000000001 23.5 2.9316000000000004 164
-9.8906 15.3906 -1.0615 21
-15.1719 23.5938 3.6035000000000004 239
-13.2656 20.6406 -0.855 4
-14.468800000000002 22.5156 4.0742 241
-14.460899999999999 22.5 -0.3118 124
-14.593800000000002 22.7031 4.75 9
-4.0859 6.4062 -1.3319999999999999 141
-19.6875 30.875 0.4275 136
-4.6484 7.2890999999999995 -1.3115 169
-15.9922 25.0781 1.0361 86
-5.375 8.4219 -1.2803 242
-6.4140999999999995 10.0547 -1.249 202
-15.2578 23.9219 2.3145 102
-7.796900000000001 12.218800000000002 -1.1806999999999999 211
-15.781199999999998 24.75 3.0801 178
-9.8438 15.4297 -1.0625 194
-16.5156 25.8906 3.9452999999999996 170
-13.1875 20.6719 -0.8545 220
-14.7969 23.2031 4.1914 132
-14.4453 22.6406 -0.3132 187
-14.5625 22.8281 4.7656 140
-4.0625 6.417999999999999 -1.3319999999999999 160
-15.773399999999999 24.9219 0.344 102
-4.6211 7.300800000000001 -1.3115 194
-15.710899999999999 24.8281 1.0244 40
-5.328099999999999 8.4219 -1.2764 49
-15.5703 24.5938 1.6913999999999998 141
-6.3789 10.0781 -1.249 109
-14.898399999999999 23.5312 2.2715 77
-7.738300000000001 12.226600000000001 -1.1787 195
-14.75 23.3125 2.8945 202
-9.7734 15.4453 -1.0605 192
-14.898399999999999 23.5312 3.5781 49
-13.1172 20.7188 -0.8545 154
-14.4297 22.7969 -0.3147 234
-14.460899999999999 22.8438 4.7578 6
-4.0312 6.421900000000001 -1.3300999999999998 207
-15.656199999999998 24.9219 0.3433 197
-4.5977 7.3203 -1.3115 139
-15.6094 24.8594 1.0234 45
-5.292999999999999 8.4297 -1.2744 203
-15.5078 24.6875 1.6934 162
-6.332000000000001 10.0781 -1.2461 233
-14.75 23.4844 2.2617 247
-7.6953 12.25 -1.1777 49
-14.75 23.4844 2.9101999999999997 200
-9.6953 15.4375 -1.0576 182
-14.875 23.6875 3.5918 68
-13.0469 20.7656 -0.8545 52
-14.2031 22.6094 4.0664 236
-14.4531 23.0156 -0.3169 18
-14.4844 23.0625 4.793 33
-4.0039 6.425800000000001 -1.3281 90
-15.601600000000001 25.0312 0.344 132
-4.5859 7.359400000000001 -1.3154 34
-15.5547 24.9531 1.0254 77
-5.2578 8.4375 -1.2734 185
-36.9062 59.1875 4.0547 149
-6.292999999999999 10.1016 -1.2461 9
-14.726600000000001 23.6406 2.2715 99
-7.6640999999999995 12.2969 -1.1797 193
-14.585899999999999 23.4062 2.8945 117
-9.6484 15.4844 -1.0586 5
-15.656199999999998 25.125 3.8026999999999997 29
-12.9844 20.8438 -0.8554999999999999 31
-14.1797 22.7656 4.082 20
-14.468800000000002 23.2188 -0.3191 109
-14.414100000000001 23.1406 4.8008 14
-3.9824 6.4414 -1.3271000000000002 29
-19.5469 31.6094 0.4336 15
-4.543 7.3477 -1.3105000000000002 181
-15.523399999999999 25.1094 1.0293 126
-5.2265999999999995 8.4531 -1.2734 41
-36.5938 59.1562 4.043 154
-6.25 10.1094 -1.2441 9
-14.6953 23.7656 2.2793 85
-7.5977 12.289100000000001 -1.1768 44
-14.656199999999998 23.7031 2.9238 106
-9.6172 15.5547 -1.0615 155
-15.585899999999999 25.2031 3.8066000000000004 221
-12.898399999999999 20.8594 -0.8545 221
-13.9219 22.5156 4.0312 220
-14.5469 23.5312 4.8711 2
-3.9551 6.4453 -1.3262 244
-19.4531 31.7188 0.4343 91
-4.5117 7.355499999999999 -1.3096 246
-5.1875 8.4531 -1.2705 29
-36.3125 59.1875 4.0391 244
-6.199199999999999 10.1016 -1.2412 165
-14.648399999999999 23.875 2.2852 122
-7.5547 12.3125 -1.1758 202
-14.7422 24.0312 2.9589999999999996 240
-9.5469 15.5703 -1.0595999999999999 13
-15.4219 25.1406 3.7891000000000004 177
-12.8906 21.0156 -0.8593999999999999 146
-13.875 22.625 4.0391 197
-14.148399999999999 23.0625 4.7617 115
-3.9414 6.4765999999999995 -1.3291 109
-19.4375 31.9375 0.4363 79
-4.4883 7.3711 -1.3096 147
-5.1562 8.4688 -1.2705 65
-36.0625 59.25 4.0312 42
-6.175800000000001 10.1484 -1.2441 240
-16.5938 27.25 2.6016000000000004 96
-7.5039 12.3281 -1.1748 168
-14.3203 23.5312 2.8906 131
-9.5 15.6094 -1.0605 130
-15.4922 25.4531 3.8281 52
-13.9531 22.9219 4.0859 209
-14.335899999999999 23.5625 4.8555 212
-3.9101999999999997 6.4765999999999995 -1.3262 160
-19.4375 32.1875 0.4387 52
-4.4648 7.390599999999999 -1.3105000000000002 195
-5.1133 8.4609 -1.2666 249
-15.226600000000001 25.2188 1.7109 108
-6.1289 10.1484 -1.2412 106
-16.5469 27.3906 2.6094 95
-7.457000000000001 12.343800000000002 -1.1748 174
-14.226600000000001 23.5625 2.8887 41
-9.4297 15.6172 -1.0586 64
-15.1953 25.1562 3.7754000000000003 144
-12.7969 21.1875 -0.8628 115
-13.851600000000001 22.9375 4.082 204
-14.1797 23.4844 4.8281 19
-3.8808999999999996 6.4765999999999995 -1.3241999999999998 76
-19.3438 32.2812 0.43920000000000003 198
-4.4375 7.4062 -1.3105000000000002 42
-5.0859 8.4844 -1.2676 41
-15.1328 25.25 1.71 51
-6.0938 10.1719 -1.2422 83
-7.4102 12.3672 -1.1738 22
-14.1328 23.5938 2.8848000000000003 47
-9.3828 15.656199999999998 -1.0595999999999999 206
-14.1797 23.6719 3.543 68
-12.773399999999999 21.3281 -0.8662000000000001 200
-13.7578 22.9688 4.0742 133
-13.9531 23.2969 4.7812 70
-3.8574 6.488300000000001 -1.3232 221
-19.3594 32.5312 0.44189999999999996 203
-4.4102 7.417999999999999 -1.3096 82
-5.0547 8.5 -1.2666 230
-6.050800000000001 10.1719 -1.2393 198
-14.101600000000001 23.7031 2.25 44
-7.375 12.398399999999999 -1.1748 230
-14.406199999999998 24.2188 2.957 110
-9.3281 15.6875 -1.0595999999999999 224
-15.1172 25.4219 3.7988 239
-12.7578 21.4531 -0.8695999999999999 165
-13.7422 23.1094 4.0938 113
-13.9531 23.4531 4.8047 187
-3.8379000000000003 6.5 -1.3241999999999998 171
-4.3711 7.4062 -1.3047 65
-5.0195 8.5078 -1.2646 171
-14.085899999999999 23.8594 1.6094 213
-6.0234000000000005 10.2031 -1.2402 110
-7.328099999999999 12.414100000000001 -1.1738 223
-15.5078 26.2812 3.2031 64
-9.2734 15.710899999999999 -1.0586 21
-15.1719 25.7031 3.8339999999999996 7
-12.656199999999998 21.4531 -0.8682 96
-13.4219 22.7344 4.0195 55
-13.9922 23.7031 4.8477 6
-3.8164 6.519500000000001 -1.3252000000000002 100
-4.3477 7.4297 -1.3066 12
-14.125 24.125 0.9745999999999999 60
-4.9844 8.5156 -1.2646 45
-14.0781 24.0469 1.6191 153
-5.9727 10.2109 -1.2383 96
-14.093800000000002 24.0781 2.2754 208
-7.265599999999999 12.414100000000001 -1.1709 109
-15.3828 26.2812 3.1952999999999996 171
-9.2109 15.7344 -1.0576 239
-13.7578 23.5 3.498 122
-12.5547 21.4531 -0.8662000000000001 244
-13.4531 22.9844 4.0547 217
-14.125 24.1406 -0.3262 96
-13.460899999999999 23.0 4.6914 72
-3.7949 6.5352 -1.3252000000000002 218
-4.3398 7.4727 -1.3115 63
-4.9492 8.5234 -1.2627 44
-14.0703 24.2344 1.6279 155
-5.9297 10.2109 -1.2363 117
-7.2227 12.4453 -1.1719 69
-15.351600000000001 26.4375 3.2089999999999996 132
-9.1484 15.7578 -1.0576 27
-13.6797 23.5625 3.498 93
-12.531199999999998 21.5781 -0.8695999999999999 152
-13.281199999999998 22.875 4.0273 211
-13.406199999999998 23.0938 4.6992 214
-3.7558999999999996 6.5234000000000005 -1.3193000000000001 164
-4.3047 7.4727 -1.3086000000000002 6
-4.9141 8.5312 -1.2607 133
-14.0547 24.4062 1.6357 240
-5.894500000000001 10.2344 -1.2363 57
-7.1797 12.460899999999999 -1.1709 209
-15.460899999999999 26.8438 3.25 134
-9.0859 15.773399999999999 -1.0566 210
-14.5703 25.2969 3.75 248
-12.5 21.7031 -0.873 54
-13.25 23.0 4.043 233
-13.0547 22.6719 4.6055 153
-3.7344 6.5352 -1.3203 65
-4.2734 7.480499999999999 -1.3066 8
-4.8867 8.5547 -1.2617 55
-5.8398 10.2266 -1.2334 206
-14.710899999999999 25.75 2.418 21
-7.1289 12.476600000000001 -1.1699 58
-9.0312 15.8047 -1.0566 46
-14.468800000000002 25.3125 3.7461 25
-13.601600000000001 23.7969 4.1758 26
-13.023399999999999 22.7969 4.6211 12
-3.7188 6.5625 -1.3222999999999998 180
-4.2266 7.4609000000000005 -1.3008000000000002 103
-4.8438 8.5469 -1.2588 248
-5.796900000000001 10.2344 -1.2314 110
-14.593800000000002 25.75 2.4141 15
-7.074199999999999 12.4844 -1.1689 39
-14.9297 26.3438 3.1776999999999997 245
-8.9688 15.8203 -1.0556999999999999 63
-14.539100000000001 25.6562 3.7891000000000004 28
-12.375 21.8438 -0.875 177
-13.5 23.8281 4.168 4
-13.5078 23.8281 4.8242 114
-3.6952999999999996 6.574199999999999 -1.3222999999999998 130
-4.2109 7.488300000000001 -1.3037 49
-4.8047 8.5469 -1.2559 26
-33.25 59.1562 3.9452999999999996 171
-5.765599999999999 10.2578 -1.2324 134
-7.0273 12.5078 -1.168 17
-14.835899999999999 26.3906 3.1776999999999997 182
-8.9062 15.843800000000002 -1.0547 7
-14.3828 25.5938 3.7714999999999996 48
-12.3281 21.9219 -0.8765000000000001 222
-13.2969 23.6562 4.1289 32
-12.8906 22.9375 4.6328 65
-3.6660000000000004 6.574199999999999 -1.3203 188
-4.1875 7.511699999999999 -1.3047 184
-4.7852 8.5781 -1.2588 111
-32.9375 59.0625 3.9336 52
-5.7227 10.2656 -1.2305 218
-14.6094 26.2031 2.4473 169
-6.980499999999999 12.5156 -1.167 119
-8.8438 15.8672 -1.0547 152
-14.2422 25.5469 3.7558999999999996 12
-13.1797 23.6406 4.1211 144
-12.8203 23.0 4.6367 62
-3.6387 6.578099999999999 -1.3184 32
-4.1562 7.519500000000001 -1.3037 240
-4.7422 8.5781 -1.2549 189
-32.6562 59.0938 3.9257999999999997 43
-5.675800000000001 10.2656 -1.2285 53
-14.5156 26.25 2.4473 126
-6.9414 12.5547 -1.168 152
-14.1172 25.5312 3.0625 69
-8.7812 15.875 -1.0527 44
-14.101600000000001 25.5156 3.7441000000000004 1
-13.164100000000001 23.7969 4.1406 166
-12.75 23.0625 4.6367 255
-3.6191000000000004 6.5977 -1.3193000000000001 233
-4.1328 7.5352 -1.3037 153
-4.7148 8.5938 -1.2559 236
-32.4375 59.0938 3.9199 43
-5.636699999999999 10.273399999999999 -1.2275 86
-6.894500000000001 12.5703 -1.167 245
-14.1875 25.8594 3.0957 111
-8.7344 15.914100000000001 -1.0537 157
-13.976600000000001 25.4688 3.7305 183
-12.148399999999999 22.1406 -0.8798999999999999 178
-13.0703 23.8125 4.1367 211
-13.148399999999999 23.9688 4.8125 172
-3.5957 6.605499999999999 -1.3184 144
-4.0859 7.5039 -1.2959 248
-4.6758 8.5938 -1.2529000000000001 135
-32.125 59.0312 3.9082 66
-5.605499999999999 10.2969 -1.2275 133
-6.8515999999999995 12.585899999999999 -1.167 231
-8.6797 15.9375 -1.0527 150
-13.8125 25.375 3.7108999999999996 63
-12.0703 22.1875 -0.8798999999999999 226
-13.0078 23.8906 4.1406 4
-13.031199999999998 23.9375 4.7969 146
-3.5723000000000003 6.6211 -1.3193000000000001 240
-4.0586 7.5234000000000005 -1.2969 13
-4.6523 8.6172 -1.2539 88
-31.8906 59.0938 3.9043 131
-5.5703 10.3203 -1.2275 159
-14.7344 27.2969 2.5312 58
-6.792999999999999 12.593800000000002 -1.165 176
-13.7344 25.4531 3.0351999999999997 252
-8.6172 15.976600000000001 -1.0537 132
-13.75 25.4844 3.7188 70
-12.023399999999999 22.2812 -0.8823000000000001 136
-12.9453 23.9844 4.1523 78
-12.9531 24.0 4.8008 245
-3.5449 6.625 -1.3174000000000001 46
-4.0312 7.5312 -1.2959 253
-4.6094 8.6172 -1.252 230
-31.6094 59.0625 3.8964999999999996 126
-5.5273 10.335899999999999 -1.2275 71
-14.656199999999998 27.3906 2.5332 248
-6.7539 12.625 -1.166 45
-13.5703 25.3594 3.0195 162
-8.5547 15.9844 -1.0527 137
-13.6797 25.5625 3.7245999999999997 177
-12.0078 22.4375 -0.8872 208
-13.9531 26.0781 4.5039 210
-3.5156 6.6289 -1.3154 19
-4.0078 7.5547 -1.2978999999999998 235
-4.582 8.6406 -1.2529000000000001 180
-5.4765999999999995 10.3203 -1.2236 82
-6.6953 12.625 -1.1631 239
-13.476600000000001 25.3906 3.0176 157
-8.4922 16.0156 -1.0518 207
-13.7344 25.8906 3.7637 17
-13.6328 25.6875 4.4297 82
-12.9453 24.4062 -0.322 179
-3.4961 6.644500000000001 -1.3163999999999998 151
-3.9766000000000004 7.5586 -1.2959 97
-4.5586 8.6641 -1.2539 159
-31.0781 59.0938 3.8827999999999996 125
-5.4297 10.3203 -1.2207 89
-6.6484000000000005 12.6328 -1.1621 162
-13.781199999999998 26.1875 3.1055 153
-8.4375 16.0312 -1.0518 69
-13.601600000000001 25.8438 3.752 176
-13.4219 25.5156 4.3906 193
-12.835899999999999 24.3906 -0.3215 114
-13.023399999999999 24.75 4.9258 80
-3.4805 6.671900000000001 -1.3193000000000001 228
-3.9414 7.5586 -1.2930000000000001 4
-4.5273 8.6797 -1.2539 238
-30.8125 59.0625 3.873 95
-5.394500000000001 10.343800000000002 -1.2217 102
-6.5977 12.648399999999999 -1.1611 188
-13.8203 26.5 3.1367000000000003 120
-8.3828 16.0781 -1.0527 8
-13.593800000000002 26.0469 3.7754000000000003 82
-13.289100000000001 25.4844 4.375 35
-12.7344 24.4062 -0.321 152
-3.4531 6.675800000000001 -1.3184 238
-3.9120999999999997 7.5625 -1.2919999999999998 208
-4.4883 8.6797 -1.251 194
-30.5781 59.125 3.8711 127
-5.363300000000001 10.3672 -1.2217 21
-6.5547 12.6719 -1.1611 120
-13.664100000000001 26.4219 3.1211 69
-8.3359 16.125 -1.0527 178
-13.468800000000002 26.0469 3.7656 229
-13.0156 25.1562 4.3125 9
-12.585899999999999 24.3438 -0.3196 54
-13.398399999999999 25.9062 5.1328 188
-3.4257999999999997 6.6797 -1.3163999999999998 42
-3.8926 7.5898 -1.2938999999999998 201
-4.457 8.6875 -1.25 54
-30.2812 59.0625 3.8594 62
-5.328099999999999 10.3906 -1.2227 248
-6.5 12.6797 -1.1602 250
-12.875 25.0938 2.9608999999999996 19
-8.2656 16.1094 -1.0508 58
-13.460899999999999 26.2344 3.7870999999999997 141
-12.9531 25.25 4.3203 238
-12.539100000000001 24.4531 -0.3206 126
-13.273399999999999 25.875 5.1211 69
-3.3964999999999996 6.6836 -1.3144999999999998 122
-3.8632999999999997 7.5977 -1.2930000000000001 37
-4.4258 8.7031 -1.251 57
-30.0156 59.0312 3.8495999999999997 151
-5.2812 10.3828 -1.2197 238
-6.453099999999999 12.6875 -1.1592 37
-12.8281 25.2344 2.9707 145
-8.2109 16.1406 -1.0508 79
-13.156199999999998 25.875 3.7285000000000004 191
-12.8047 25.1875 4.3008 89
-13.1875 25.9375 5.1211 83
-3.3789 6.699199999999999 -1.3154 178
-3.8358999999999996 7.6015999999999995 -1.2919999999999998 193
-4.4062 8.7344 -1.2529000000000001 82
-29.7969 59.0625 3.8476999999999997 10
-5.2422 10.3906 -1.2187999999999999 94
-6.4062 12.7031 -1.1582 238
-13.4844 26.7344 3.1426 16
-8.1562 16.1562 -1.0508 118
-12.7969 25.3594 3.6483999999999996 72
-12.773399999999999 25.3125 4.3164 226
-13.1172 26.0 5.125 73
-3.3574 6.7109000000000005 -1.3154 89
-3.8066000000000004 7.609400000000001 -1.291 127
-4.375 8.75 -1.2529000000000001 86
-29.5312 59.0312 3.8379000000000003 76
-5.2109000000000005 10.414100000000001 -1.2187999999999999 173
-6.355499999999999 12.7031 -1.1562000000000001 67
-12.5078 25.0 2.9336 63
-8.0859 16.1719 -1.0488 121
-12.6094 25.2031 3.6211 10
-12.726600000000001 25.4375 4.332 91
-12.976600000000001 25.9375 5.1055 119
-3.3301 6.7148 -1.3144999999999998 184
-3.7714999999999996 7.609400000000001 -1.2881 61
-4.3438 8.7656 -1.2529000000000001 211
-29.25 59.0 3.8301 52
-5.167999999999999 10.4219 -1.2178 247
-6.3164 12.7422 -1.1582 83
-13.375 26.9844 3.1601999999999997 46
-8.0547 16.25 -1.0527 131
-12.726600000000001 25.6719 3.6797000000000004 235
-12.5469 25.3125 4.3008 153
-12.9922 26.2031 5.1523 82
-3.3047000000000004 6.7227 -1.3135 215
-3.75 7.6328 -1.29 2
-4.3125 8.7734 -1.252 132
-29.0 59.0312 3.8242000000000003 237
-5.125 10.4219 -1.2158 237
-6.2578 12.7344 -1.1553 49
-12.625 25.7031 3.0058999999999996 169
-7.9765999999999995 16.2344 -1.0498 183
-12.4297 25.2969 3.6211 98
-11.664100000000001 23.7344 -0.9218999999999999 238
-12.460899999999999 25.3594 4.3008 165
-3.2793 6.730499999999999 -1.3135 239
-3.7129000000000003 7.625 -1.2861000000000002 76
-4.2773 8.7812 -1.251 42
-28.75 59.0312 3.8164 154
-5.0938 10.460899999999999 -1.2187999999999999 117
-6.207000000000001 12.7422 -1.1543 94
-12.523399999999999 25.7188 3.002 45
-7.894500000000001 16.2031 -1.0469 25
-12.5 25.6562 3.6660000000000004 215
-12.085899999999999 24.8125 4.2031 229
-3.2558999999999996 6.7461 -1.3135 242
-3.6933999999999996 7.6523 -1.2891 161
-4.2539 8.8125 -1.2529000000000001 74
-28.4688 58.9688 3.8066000000000004 35
-5.043 10.4453 -1.2139 210
-12.148399999999999 25.1562 2.2793 232
-6.1562 12.75 -1.1523 89
-12.4844 25.8594 3.0137 151
-7.8515999999999995 16.2656 -1.0479 68
-12.335899999999999 25.5625 3.6445 165
-12.226600000000001 25.3281 4.9531 110
-3.2305 6.7539 -1.3125 135
-3.6660000000000004 7.6602 -1.2881 118
-4.2266 8.8359 -1.2539 138
-28.2188 58.9688 3.8007999999999997 164
-5.0 10.4531 -1.2129 17
-12.0547 25.1875 2.2773 184
-6.1015999999999995 12.7578 -1.1514 45
-13.0 27.1719 3.1601999999999997 92
-7.8164 16.3438 -1.0508 86
-12.25 25.6094 3.6445 18
-12.375 25.8594 4.3672 139
-12.164100000000001 25.4219 4.9609 122
-3.2108999999999996 6.7734000000000005 -1.3144999999999998 180
-3.6327999999999996 7.6640999999999995 -1.2861000000000002 168
-4.1875 8.8359 -1.252 23
-27.9844 59.0312 3.7988 141
-4.9688 10.476600000000001 -1.2139 41
-11.9453 25.1875 2.2734 208
-6.0586 12.773399999999999 -1.1514 128
-12.914100000000001 27.2344 3.1620999999999997 182
-7.734400000000001 16.3125 -1.0479 102
-12.101600000000001 25.5312 3.6289 132
-12.093800000000002 25.5 4.9688 64
-3.1836 6.7773 -1.3125 60
-3.6035000000000004 7.667999999999999 -1.2852000000000001 48
-4.1484 8.8281 -1.249 171
-27.7188 58.9688 3.7891000000000004 58
-4.9258 10.4844 -1.2129 202
-11.851600000000001 25.2188 2.2734 236
-6.011699999999999 12.789100000000001 -1.1504 97
-12.1172 25.7969 2.9901999999999997 221
-7.6914 16.3594 -1.0498 255
-11.9922 25.5156 3.6211 76
-12.1953 25.9531 4.3672 88
-3.1543 6.7734000000000005 -1.3096 62
-3.5858999999999996 7.703099999999999 -1.2891 90
-4.1172 8.8359 -1.249 193
-27.4531 58.9375 3.7812 40
-4.875 10.468800000000002 -1.21 51
-5.9765999999999995 12.835899999999999 -1.1523 102
-12.085899999999999 25.9531 3.0039 194
-7.6015999999999995 16.3281 -1.0449 162
-11.8125 25.375 3.5938 136
-11.031199999999998 23.6875 -0.9111 58
-12.0781 25.9375 4.3555 194
-3.1308999999999996 6.7890999999999995 -1.3105000000000002 44
-3.5469 7.6914 -1.2852000000000001 236
-4.0898 8.8672 -1.25 227
-27.1875 58.9375 3.7733999999999996 185
-4.8398 10.5 -1.21 89
-5.9102 12.8125 -1.1484 96
-11.906199999999998 25.8281 2.9844 197
-7.550800000000001 16.375 -1.0469 139
-11.7578 25.5 3.6055 70
-10.9531 23.75 -0.9116 244
-12.0469 26.125 4.3789 236
-3.1132999999999997 6.8125 -1.3135 49
-3.5176 7.699199999999999 -1.2841999999999998 205
-4.0547 8.875 -1.249 169
-26.9531 58.9688 3.7714999999999996 188
-4.7969 10.5 -1.208 236
-5.855499999999999 12.8125 -1.1475 83
-7.5 16.4219 -1.0479 137
-11.7656 25.75 3.6367000000000003 149
-10.851600000000001 23.75 -0.9097 183
-11.960899999999999 26.1719 4.3828 192
-3.0879000000000003 6.8203 -1.3125 248
-3.4882999999999997 7.703099999999999 -1.2832 175
-4.0156 8.8672 -1.2470999999999999 81
-12.851600000000001 28.3906 1.8105000000000002 73
-4.7617 10.5156 -1.208 130
-5.800800000000001 12.8125 -1.1455 7
-7.4336 16.4219 -1.0459 205
-11.710899999999999 25.8594 3.6464999999999996 131
-10.7031 23.6406 -0.9043000000000001 234
-11.8203 26.1094 4.3633 197
-12.8203 28.3125 -0.3625 13
-3.0605 6.8203 -1.3105000000000002 2
-12.7344 28.3906 0.3628 230
-3.4668 7.7265999999999995 -1.2852000000000001 106
-12.7031 28.3281 1.082 135
-3.9824 8.875 -1.2461 44
-12.710899999999999 28.3438 1.8047 121
-4.7148 10.5078 -1.2061 107
-5.7422 12.7969 -1.1416 3
-7.3711 16.4375 -1.0449 216
-11.7031 26.0938 3.6719 226
-10.648399999999999 23.7344 -0.9067000000000001 122
-11.710899999999999 26.1094 4.3555 181
-12.718800000000002 28.3594 -0.3625 184
-10.406199999999998 23.1875 4.4727 194
-3.0332 6.824199999999999 -1.3096 48
-3.4375 7.734400000000001 -1.2841999999999998 249
-3.9492000000000003 8.8828 -1.2451 236
-12.6094 28.375 1.8037 197
-4.6758 10.523399999999999 -1.2061 193
-5.7148 12.8594 -1.1455 180
-7.3086 16.4375 -1.0439 250
-11.7969 26.5469 3.7305 78
-10.5469 23.7344 -0.9053 66
-11.5703 26.0312 4.3359 99
-3.0098000000000003 6.8359000000000005 -1.3096 226
-3.4160000000000004 7.761699999999999 -1.2861000000000002 193
-3.9199 8.9062 -1.2461 10
-25.9375 58.9375 3.7441000000000004 243
-4.6406 10.539100000000001 -1.2061 202
-5.6640999999999995 12.8672 -1.1445 106
-7.238300000000001 16.4375 -1.043 139
-10.468800000000002 23.7812 -0.9057999999999999 95
-11.468800000000002 26.0625 4.3359 213
-2.9922000000000004 6.855499999999999 -1.3115 88
-3.3789 7.7422 -1.2822 145
-3.8887 8.9062 -1.2451 98
-25.7188 58.9375 3.7382999999999997 48
-4.6016 10.5469 -1.2041 176
-5.5977 12.8281 -1.1396 60
-7.1797 16.4531 -1.041 24
-10.3594 23.75 -0.9028 17
-10.531199999999998 24.125 4.0078 202
-2.9648000000000003 6.855499999999999 -1.3096 200
