# .PCD v0.7 - Point Cloud Data file format
VERSION 0.7
FIELDS x y z intensity
SIZE 4 4 4 4
TYPE F F F F
COUNT 1 1 1 1
WIDTH 1240
HEIGHT 1
VIEWPOINT 0 0 0 1 0 0 0
POINTS 1240
DATA ascii
-16.5625 -15.406199999999998 -0.7881 108
-8.1719 -7.5977 1.6943000000000001 106
-16.5312 -15.3828 -0.2632 172
-8.2656 -7.6914 1.9834 220
-6.4922 -5.9961 -1.5508000000000002 33
-6.511699999999999 -6.015599999999999 -1.3447 49
-16.7188 -15.4375 0.7929999999999999 11
-6.4961 -6.0 -1.1318000000000001 14
-16.7656 -15.4844 1.3252000000000002 191
-6.6172 -6.109400000000001 -0.9419 101
-9.7422 -9.0 1.0801 107
-6.875 -6.3477 -0.7606999999999999 25
-8.1328 -7.511699999999999 1.1592 147
-7.9961 -7.386699999999999 1.3944999999999999 0
-16.6562 -15.3828 -0.79 46
-8.1406 -7.5234000000000005 1.6836000000000002 163
-16.7031 -15.4219 -0.26489999999999997 197
-8.2734 -7.644500000000001 1.9794999999999998 201
-16.875 -15.4844 0.2668 105
-6.5039 -5.9688 -1.3397999999999999 251
-16.8281 -15.4453 0.7959 229
-6.5078 -5.9727 -1.1309 99
-16.875 -15.468800000000002 1.3291 156
-6.5898 -6.046900000000001 -0.9355 10
-9.75 -8.9453 1.0771 202
-8.1719 -7.4961 1.1611 87
-7.9922 -7.332000000000001 1.3896000000000002 222
-16.7812 -15.398399999999999 -0.7935 119
-8.1719 -7.4961 1.6846 192
-16.8125 -15.414100000000001 -0.2659 193
-8.2891 -7.605499999999999 1.9766 184
-6.4922 -5.9140999999999995 -1.541 63
-6.484400000000001 -5.9062 -1.3311000000000002 83
-12.789100000000001 -11.648399999999999 0.6025 155
-6.519500000000001 -5.9414 -1.1289 50
-12.8125 -11.6719 1.0059 52
-6.609400000000001 -6.0234000000000005 -0.9355 169
-9.5781 -8.7266 1.0547 231
-8.6094 -7.8398 1.2187999999999999 114
-8.0703 -7.3477 1.3984 251
-12.851600000000001 -11.710899999999999 -0.6054999999999999 247
-8.1953 -7.4688 1.6846 222
-12.789100000000001 -11.648399999999999 -0.2014 36
-8.3047 -7.5625 1.9736000000000002 167
-6.5352 -5.9140999999999995 -1.5469 146
-12.835899999999999 -11.6094 0.20149999999999998 103
-6.5 -5.8789 -1.3300999999999998 255
-12.8047 -11.5781 0.6011 128
-6.5352 -5.9102 -1.1279000000000001 180
-12.8047 -11.585899999999999 1.002 211
-6.703099999999999 -6.0625 -0.9453 220
-9.5938 -8.6797 1.0527 133
-8.6719 -7.8438 1.2246 144
-8.0703 -7.300800000000001 1.3944999999999999 226
-12.8047 -11.5781 -0.6011 225
-8.2578 -7.4727 1.6924000000000001 208
-12.789100000000001 -11.5625 -0.2007 5
-8.2734 -7.480499999999999 1.959 92
-12.835899999999999 -11.531199999999998 0.2009 23
-6.511699999999999 -5.8515999999999995 -1.3281 36
-12.7969 -11.4922 0.5991 240
-6.542999999999999 -5.875 -1.126 31
-12.8125 -11.5078 0.9990000000000001 27
-6.6602 -5.980499999999999 -0.9359999999999999 221
-9.6406 -8.6641 1.0547 154
-8.2422 -7.4062 1.1602 250
-8.1328 -7.3047 1.4003999999999999 154
-12.8047 -11.5 -0.5991 24
-8.1797 -7.3477 1.6699000000000002 186
-12.781199999999998 -11.476600000000001 -0.2 247
-8.3359 -7.488300000000001 1.9687999999999999 75
-6.511699999999999 -5.8086 -1.5312000000000001 225
-12.8281 -11.4375 0.20010000000000003 208
-6.5352 -5.828099999999999 -1.3291 111
-12.8203 -11.4297 0.5981000000000001 146
-6.5586 -5.8515999999999995 -1.125 214
-12.7969 -11.414100000000001 0.9945999999999999 244
-6.7109000000000005 -5.984400000000001 -0.9404 165
-9.7266 -8.6719 1.0605 208
-8.2812 -7.386699999999999 1.1621 3
-8.1562 -7.2734000000000005 1.4003999999999999 229
-12.8125 -11.4297 -0.5977 178
-8.25 -7.359400000000001 1.6797 82
-12.789100000000001 -11.406199999999998 -0.1996 240
-8.4688 -7.5547 1.9941 232
-6.5312 -5.7852 -1.5312000000000001 63
-12.8203 -11.3594 0.19949999999999998 153
-6.5312 -5.7852 -1.3241999999999998 133
-12.8047 -11.343800000000002 0.5957 139
-6.574199999999999 -5.824199999999999 -1.124 235
-12.7969 -11.3281 0.9917 79
-6.7109000000000005 -5.9453 -0.9375 143
-9.75 -8.6328 1.0595999999999999 12
-8.6641 -7.675800000000001 1.2119 216
-8.2422 -7.296900000000001 1.4102000000000001 224
-12.7969 -11.3281 -0.5952000000000001 12
-8.2656 -7.324199999999999 1.6777000000000002 19
-12.7969 -11.335899999999999 -0.19899999999999998 149
-12.773399999999999 -11.3125 3.002 95
-6.5390999999999995 -5.75 -1.5283000000000002 37
-12.843800000000002 -11.2969 0.1991 14
-6.550800000000001 -5.761699999999999 -1.3241999999999998 168
-12.7969 -11.2578 0.5932999999999999 85
-6.5898 -5.796900000000001 -1.123 253
-12.7969 -11.25 0.9887999999999999 38
-6.6836 -5.8789 -0.9312 6
-9.7344 -8.5625 1.0547 118
-8.7109 -7.6602 1.2148 242
-8.2812 -7.2852 1.4131 7
-12.789100000000001 -11.25 -0.5928 15
-10.6875 -9.3984 2.1621 92
-12.789100000000001 -11.25 -0.19820000000000002 162
-12.7656 -11.226600000000001 2.9901999999999997 63
-6.5664 -5.734400000000001 -1.5293 139
-12.835899999999999 -11.2031 0.1984 33
-6.578099999999999 -5.7461 -1.3252000000000002 20
-12.7969 -11.1719 0.5913 34
-6.605499999999999 -5.769500000000001 -1.123 237
-12.8047 -11.1797 0.9863 249
-6.6914 -5.8438 -0.9292 82
-9.8281 -8.5859 1.0625 151
-8.75 -7.640599999999999 1.2158 76
-10.375 -9.0625 1.7666 22
-12.7969 -11.1797 -0.5918 157
-10.2344 -8.9375 2.0664 117
-12.781199999999998 -11.164100000000001 -0.1975 230
-10.7344 -9.375 2.5059 120
-6.582000000000001 -5.707000000000001 -1.5283000000000002 112
-12.8203 -11.1172 0.1975 246
-6.578099999999999 -5.703099999999999 -1.3213 125
-12.7969 -11.093800000000002 0.5893999999999999 172
-6.7812 -5.8828 -1.1494 81
-12.789100000000001 -11.085899999999999 0.9819 27
-6.7109000000000005 -5.8164 -0.9287000000000001 183
-9.7656 -8.4688 1.0518 240
-8.75 -7.5859000000000005 1.2119 250
-10.4297 -9.0469 1.7705000000000002 34
-12.8047 -11.101600000000001 -0.5898 156
-8.3438 -7.234400000000001 1.6777000000000002 239
-12.773399999999999 -11.0781 -0.1968 43
-9.75 -8.4531 2.2676 67
-6.5938 -5.6797 -1.5272999999999999 88
-12.8125 -11.031199999999998 0.1968 10
-6.6211 -5.703099999999999 -1.3262 168
-12.7969 -11.023399999999999 0.5879 116
-6.8438 -5.894500000000001 -1.1562000000000001 20
-12.781199999999998 -11.0078 0.9790000000000001 191
-6.7227 -5.7852 -0.9277 65
-12.8047 -11.023399999999999 1.3769999999999998 18
-7.363300000000001 -6.3398 -0.79 73
-8.8125 -7.5898 1.2178 116
-11.1719 -9.6172 1.8906 223
-12.8047 -11.023399999999999 -0.5884 138
-12.773399999999999 -10.9922 2.5625 204
-12.773399999999999 -11.0 -0.1962 70
-9.7422 -8.3906 2.2598 120
-6.625 -5.6640999999999995 -1.5293 164
-12.7969 -10.9375 0.1959 254
-6.6328 -5.671900000000001 -1.3241999999999998 253
-12.789100000000001 -10.9375 0.5859000000000001 129
-12.789100000000001 -10.9297 0.9761 170
-6.7422 -5.765599999999999 -0.9277 129
-12.789100000000001 -10.9297 1.3700999999999999 42
-7.3828 -6.3125 -0.79 236
-9.8672 -8.4375 1.3603999999999998 153
-7.9062 -6.761699999999999 -0.6025 184
-11.460899999999999 -9.7969 1.9336000000000002 77
-12.789100000000001 -10.9375 -0.5859000000000001 3
-12.773399999999999 -10.9219 2.5566 211
-12.7656 -10.914100000000001 -0.1956 217
-10.898399999999999 -9.3125 2.5195 51
-6.6523 -5.6484000000000005 -1.5312000000000001 246
-12.789100000000001 -10.8594 0.1953 219
-6.6523 -5.6484000000000005 -1.3241999999999998 236
-12.781199999999998 -10.851600000000001 0.5835 26
-6.8515999999999995 -5.8164 -1.1514 173
-12.789100000000001 -10.8594 0.9736 222
-6.796900000000001 -5.769500000000001 -0.9326000000000001 144
-12.789100000000001 -10.8594 1.3672 230
-9.8672 -8.375 1.3555000000000001 40
-7.9062 -6.7148 -0.6006 130
-11.5 -9.7656 1.9346 242
-12.789100000000001 -10.851600000000001 -0.584 0
-10.6719 -9.0625 2.1289 120
-12.781199999999998 -10.851600000000001 -0.19519999999999998 156
-10.9375 -9.2812 2.5215 116
-6.6797 -5.6289 -1.5332 208
-12.8203 -10.8047 0.19519999999999998 85
-6.6797 -5.6289 -1.3252000000000002 10
-12.773399999999999 -10.773399999999999 0.5815 182
-6.886699999999999 -5.8047 -1.1533 94
-12.789100000000001 -10.781199999999998 0.9702 39
-6.8438 -5.769500000000001 -0.9365000000000001 237
-10.1562 -8.5625 1.0811 137
-8.8906 -7.4961 1.2178 109
-12.781199999999998 -10.773399999999999 -0.9697 131
-11.539100000000001 -9.7266 1.9355000000000002 177
-12.781199999999998 -10.773399999999999 -0.5820000000000001 121
-12.7578 -10.75 2.5371 197
-12.773399999999999 -10.7656 -0.1945 19
-9.8672 -8.3203 2.2676 222
-6.703099999999999 -5.613300000000001 -1.5341999999999998 107
-12.8281 -10.7344 0.19469999999999998 115
-6.7188 -5.625 -1.3300999999999998 234
-12.773399999999999 -10.6953 0.5801 100
-6.765599999999999 -5.6640999999999995 -1.1299 247
-12.781199999999998 -10.7031 0.9673 203
-6.886699999999999 -5.761699999999999 -0.9390000000000001 254
-12.7969 -10.710899999999999 1.3594 184
-9.9688 -8.3438 1.3622999999999998 180
-12.773399999999999 -10.6875 -0.9662999999999999 181
-12.773399999999999 -10.6875 2.1367 230
-12.7969 -10.710899999999999 -0.5811 155
-12.7578 -10.6797 2.5293 227
-12.75 -10.6719 -0.1936 67
-9.8906 -8.2812 2.2676 142
-6.7265999999999995 -5.5938 -1.5352000000000001 116
-12.789100000000001 -10.6328 0.1936 40
-6.7422 -5.605499999999999 -1.3300999999999998 66
-12.781199999999998 -10.6328 0.5786 192
-6.796900000000001 -5.6523 -1.1318000000000001 1
-12.7656 -10.6094 0.9634 210
-6.9062 -5.7422 -0.9395 161
-12.781199999999998 -10.625 1.3544999999999998 151
-12.6797 -10.539100000000001 1.7285 150
-12.7656 -10.6094 -0.9629000000000001 243
-12.7656 -10.6094 2.1309 237
-12.773399999999999 -10.625 -0.5786 165
-12.7656 -10.6094 2.5254 32
-12.7578 -10.601600000000001 -0.1931 212
-9.8906 -8.2266 2.2617 90
-6.75 -5.574199999999999 -1.5361000000000002 42
-12.7969 -10.5625 0.1931 203
-6.7578 -5.578099999999999 -1.3300999999999998 176
-12.789100000000001 -10.5547 0.5771000000000001 141
-6.8125 -5.625 -1.1309 105
-12.7656 -10.539100000000001 0.9604 125
-6.9336 -5.7265999999999995 -0.9404 159
-12.773399999999999 -10.5469 1.3496000000000001 70
-7.5664 -6.25 -0.7979 8
-12.6719 -10.468800000000002 1.7227000000000001 208
-12.773399999999999 -10.5469 -0.9609000000000001 16
-12.7422 -10.523399999999999 2.1211 3
-12.773399999999999 -10.5469 -0.5767 218
-12.75 -10.531199999999998 2.5156 150
-12.7656 -10.539100000000001 -0.19260000000000002 9
-9.9375 -8.2031 2.2637 237
-6.7852 -5.5586 -1.5391 253
-12.8047 -10.4922 0.19269999999999998 137
-6.7812 -5.5586 -1.3311000000000002 1
-12.7656 -10.468800000000002 0.5747 131
-6.832000000000001 -5.6015999999999995 -1.1309 111
-12.7656 -10.460899999999999 0.9575 171
-6.9688 -5.7109000000000005 -0.9423999999999999 42
-12.7656 -10.460899999999999 1.3447 95
-7.5664 -6.203099999999999 -0.7954000000000001 123
-12.664100000000001 -10.3828 1.7168 22
-12.7656 -10.460899999999999 -0.9575 77
-12.75 -10.4531 2.1152 244
-12.781199999999998 -10.476600000000001 -0.5752 114
-11.0781 -9.0781 2.1777 162
-12.7656 -10.460899999999999 -0.19210000000000002 49
-9.9141 -8.125 2.252 73
-6.8125 -5.542999999999999 -1.541 34
-12.8047 -10.4219 0.19210000000000002 111
-6.8125 -5.542999999999999 -1.3330000000000002 203
-12.7656 -10.3828 0.5728 243
-6.8438 -5.5703 -1.1299 158
-12.781199999999998 -10.398399999999999 0.9561 74
-7.0078 -5.703099999999999 -0.9453 123
-12.781199999999998 -10.398399999999999 1.3418 228
-7.613300000000001 -6.1953 -0.7979 108
-12.7031 -10.335899999999999 1.7168 5
-12.7656 -10.3906 -0.9551000000000001 246
-12.7578 -10.3828 2.1094 0
-12.773399999999999 -10.398399999999999 -0.5732 242
-11.164100000000001 -9.0859 2.1875 58
-12.75 -10.375 -0.1913 179
-9.9531 -8.1016 2.2559 240
-6.8398 -5.5234000000000005 -1.5430000000000001 203
-12.7969 -10.335899999999999 0.19149999999999998 39
-6.8515999999999995 -5.5352 -1.3369 35
-12.7578 -10.3047 0.5708 188
-6.8789 -5.5547 -1.1318000000000001 230
-12.7656 -10.3125 0.9521 143
-7.042999999999999 -5.6875 -0.9468000000000001 47
-12.773399999999999 -10.3125 1.3369 33
-7.644500000000001 -6.171900000000001 -0.7988 201
-12.656199999999998 -10.2188 1.7050999999999998 76
-12.75 -10.2969 -0.9512 28
-12.7578 -10.3047 2.1035 3
-12.781199999999998 -10.3203 -0.5718 48
-11.414100000000001 -9.2188 2.2305 226
-12.75 -10.289100000000001 -0.1907 178
-10.0625 -8.125 2.2734 253
-6.8711 -5.5078 -1.5449000000000002 134
-12.789100000000001 -10.25 0.1907 213
-6.8789 -5.511699999999999 -1.3378999999999999 67
-12.781199999999998 -10.2422 0.5703 54
-6.917999999999999 -5.546900000000001 -1.1348 80
-12.7578 -10.2266 0.9487000000000001 185
-7.082000000000001 -5.675800000000001 -0.9497 59
-12.7656 -10.2344 1.3330000000000002 189
-7.7265999999999995 -6.1914 -0.8051999999999999 23
-12.6875 -10.1641 1.7041 54
-12.7578 -10.2266 -0.9487000000000001 17
-12.75 -10.2188 2.0957 36
-12.781199999999998 -10.25 -0.5703 147
-11.148399999999999 -8.9297 2.1719 231
-12.75 -10.2188 -0.1902 181
-10.0781 -8.0781 2.2695 80
-6.8984000000000005 -5.4961 -1.5478999999999998 222
-12.781199999999998 -10.1797 0.1902 25
-6.8984000000000005 -5.4961 -1.3388999999999998 2
-12.7656 -10.1719 0.5684 119
-6.9648 -5.546900000000001 -1.1396 20
-12.7578 -10.1641 0.9462999999999999 148
-7.1172 -5.667999999999999 -0.9517 167
-12.75 -10.1562 1.3271000000000002 57
-7.800800000000001 -6.2148 -0.8109999999999999 220
-12.656199999999998 -10.0859 1.6963 44
-12.7344 -10.1406 -0.9443 33
-12.7422 -10.1484 2.0898 222
-12.7656 -10.1719 -0.5679 226
-10.9453 -8.7188 2.127 237
-12.75 -10.1562 -0.1898 219
-12.7969 -10.1953 2.877 190
-6.949199999999999 -5.5 -1.5547 58
-12.75 -10.0859 0.1892 222
-6.9297 -5.480499999999999 -1.3408000000000002 77
-12.7578 -10.0938 0.5659000000000001 59
-7.0 -5.5390999999999995 -1.1426 152
-12.7578 -10.0938 0.9443 69
-7.167999999999999 -5.667999999999999 -0.9556 45
-12.7578 -10.0938 1.3252000000000002 121
-7.824199999999999 -6.1875 -0.8109999999999999 218
-12.6797 -10.0312 1.6943000000000001 112
-12.718800000000002 -10.0625 -0.9409000000000001 15
-12.7344 -10.0781 2.084 49
-12.75 -10.0859 -0.5659000000000001 58
-11.226600000000001 -8.8828 2.1777 85
-12.718800000000002 -10.0625 -0.1887 22
-10.960899999999999 -8.6719 2.457 123
-6.988300000000001 -5.488300000000001 -1.5596 47
-12.781199999999998 -10.0391 0.1891 175
-12.773399999999999 -10.0312 0.5654 31
-7.0234000000000005 -5.515599999999999 -1.1436 195
-12.8125 -10.0625 0.9448000000000001 82
-7.2148 -5.667999999999999 -0.96 67
-12.75 -10.0156 1.3203 131
-7.855499999999999 -6.167999999999999 -0.8125 171
-12.648399999999999 -9.9297 1.6855000000000002 65
-12.718800000000002 -9.9844 -0.938 9
-12.7344 -10.0 2.0781 172
-12.75 -10.0156 -0.5645 100
-10.9531 -8.6016 2.1172 47
-12.7578 -10.0156 -0.1888 159
-11.0703 -8.6875 2.4746 180
-7.0234000000000005 -5.4765999999999995 -1.5625 104
-12.843800000000002 -10.0078 0.1895 243
-12.835899999999999 -10.0078 0.5664 135
-7.0664 -5.511699999999999 -1.1475 17
-12.843800000000002 -10.0156 0.9448000000000001 235
-7.2539 -5.6562 -0.9619 212
-12.75 -9.9453 1.3174000000000001 201
-7.8828 -6.144500000000001 -0.813 23
-12.6406 -9.8516 1.6797 87
-12.718800000000002 -9.9141 -0.9355 206
-12.75 -9.9375 2.0742 133
-12.8125 -9.9922 -0.5654 50
-11.585899999999999 -9.0312 2.2344 63
-12.789100000000001 -9.9688 -0.1887 90
-11.1172 -8.6719 2.4785 41
-7.0586 -5.4648 -1.5663999999999998 212
-12.851600000000001 -9.9453 0.1892 194
-12.8594 -9.9531 0.5659000000000001 141
-7.1211 -5.511699999999999 -1.1523 165
-12.8672 -9.9531 0.9438 219
-7.2773 -5.6328 -0.9629000000000001 241
-12.75 -9.8672 1.3135 57
-7.9102 -6.1211 -0.8134999999999999 5
-12.656199999999998 -9.7969 1.6777000000000002 229
-12.718800000000002 -9.8438 -0.9331 195
-12.726600000000001 -9.8516 2.0645 2
-12.851600000000001 -9.9453 -0.5659000000000001 24
-11.6172 -8.9922 2.2344 132
-12.8672 -9.9609 -0.1893 204
-11.1406 -8.625 2.4766 123
-7.1015999999999995 -5.457000000000001 -1.5713 197
-12.8828 -9.8984 0.1891 84
-12.9375 -9.9375 0.5679 64
-7.167999999999999 -5.5078 -1.1572 23
-12.9844 -9.9766 0.9497 227
-7.3164 -5.625 -0.9653 63
-12.7578 -9.8047 1.3105000000000002 19
-12.75 -9.7969 -1.3105000000000002 210
-12.6719 -9.7344 1.6747999999999998 164
-12.726600000000001 -9.7812 -0.9312 25
-12.726600000000001 -9.7812 2.0586 234
-12.906199999999998 -9.9141 -0.5664 249
-12.851600000000001 -9.875 2.4648 85
-12.8281 -9.8594 -0.1884 114
-11.1875 -8.5938 2.4805 48
-7.167999999999999 -5.4688 -1.5819999999999999 113
-12.875 -9.8203 0.1885 74
-13.031199999999998 -9.9375 0.5703 163
-7.2227 -5.511699999999999 -1.1631 129
-13.0547 -9.9609 0.9526 168
-7.375 -5.625 -0.9702 88
-12.75 -9.7266 1.3066 111
-12.75 -9.7266 -1.3066 192
-12.6406 -9.6406 1.666 32
-12.726600000000001 -9.7109 -0.9287000000000001 152
-12.7344 -9.7109 2.0547 225
-12.9922 -9.9062 -0.5688 104
-12.8047 -9.7656 2.4492 246
-13.0078 -9.9219 -0.19039999999999999 58
-13.0 -9.9219 2.877 192
-7.2109000000000005 -5.4609000000000005 -1.5878999999999999 2
-12.906199999999998 -9.7734 0.1885 116
-13.039100000000001 -9.875 0.5693 81
-7.2539 -5.4961 -1.165 122
-13.0625 -9.8984 0.9512 148
-7.4375 -5.6328 -0.9761 208
-12.7422 -9.6562 1.3027000000000002 209
-12.7422 -9.6484 -1.3018 184
-12.625 -9.5625 1.6602000000000001 191
-12.7344 -9.6406 -0.9268000000000001 160
-12.726600000000001 -9.6406 2.0469 130
-13.0156 -9.8594 -0.5684 113
-12.773399999999999 -9.6719 2.4375 95
-12.7578 -9.6641 -0.1863 63
-12.9844 -9.8359 2.8651999999999997 248
-7.2578 -5.453099999999999 -1.5937999999999999 123
-12.835899999999999 -9.6484 0.1868 14
-13.085899999999999 -9.8359 0.5698 201
-7.3086 -5.4961 -1.1709 146
-13.0469 -9.8047 0.9468000000000001 182
-7.5039 -5.640599999999999 -0.9819 20
-12.75 -9.5859 1.2988 210
-12.75 -9.5859 -1.2997999999999998 93
-12.648399999999999 -9.5078 1.6591999999999998 60
-12.726600000000001 -9.5625 -0.9233 20
-12.7422 -9.5781 2.0449 49
-13.023399999999999 -9.7891 -0.5669 69
-12.773399999999999 -9.6016 2.4297 255
-12.906199999999998 -9.6953 -0.18789999999999998 220
-10.9219 -8.2109 2.4023 47
-7.3047 -5.449199999999999 -1.5996000000000001 139
-12.8672 -9.6016 0.1869 225
-13.0625 -9.75 0.5674 225
-7.3672 -5.4961 -1.1768 128
-13.0469 -9.7344 0.9448000000000001 21
-7.550800000000001 -5.636699999999999 -0.9858 1
-12.7578 -9.5234 1.2969 132
-12.75 -9.5156 -1.2959 6
-12.648399999999999 -9.4375 1.6543 60
-12.7344 -9.5 -0.9218999999999999 24
-12.726600000000001 -9.4922 2.0371 209
-13.0547 -9.7422 -0.5669 7
-12.773399999999999 -9.5312 2.4238 164
-13.0156 -9.7109 -0.18899999999999997 209
-12.976600000000001 -9.6797 2.8476999999999997 66
-12.843800000000002 -9.5156 0.18600000000000003 12
-7.4062 -5.488300000000001 -1.3994 65
-13.0547 -9.6719 0.5654 142
-7.4688 -5.5352 -1.1904000000000001 97
-13.0547 -9.6719 0.9423999999999999 116
-7.609400000000001 -5.640599999999999 -0.9906999999999999 68
-12.75 -9.4453 1.2919999999999998 107
-12.75 -9.4531 -1.2930000000000001 193
-12.6406 -9.3672 1.6494 248
-12.7344 -9.4375 -0.9194 169
-12.718800000000002 -9.4297 2.0312 96
-12.968800000000002 -9.6094 -0.562 4
-12.75 -9.4453 2.4141 79
-13.0 -9.6328 -0.1884 71
-12.976600000000001 -9.6172 2.8398000000000003 186
-8.3359 -6.136699999999999 -1.8184 12
-12.8828 -9.4766 0.1862 244
-7.425800000000001 -5.4648 -1.3994 140
-13.101600000000001 -9.6406 0.5659000000000001 208
-7.5547 -5.5586 -1.2012 0
-13.085899999999999 -9.625 0.9423999999999999 141
-7.699199999999999 -5.6640999999999995 -1.0 121
-12.7344 -9.375 1.2881 58
-12.7422 -9.375 -1.2881 15
-12.648399999999999 -9.3125 1.6465 174
-12.7344 -9.375 -0.9175 116
-12.718800000000002 -9.3594 2.0254 174
-13.0547 -9.6016 -0.564 152
-11.1328 -8.1953 2.1016 149
-13.0469 -9.6016 -0.1886 38
-12.9922 -9.5625 2.8379000000000003 165
-8.3359 -6.0898 -1.8125 9
-12.875 -9.4062 0.1855 159
-7.5039 -5.480499999999999 -1.4102000000000001 239
-13.0547 -9.5312 0.5625 153
-7.605499999999999 -5.5547 -1.2061 57
-13.0625 -9.5391 0.9384999999999999 37
-7.8125 -5.707000000000001 -1.0127 150
-12.726600000000001 -9.2969 1.2841999999999998 249
-12.7344 -9.3047 -1.2841999999999998 186
-12.656199999999998 -9.2422 1.6425999999999998 73
-12.7422 -9.3047 -0.915 39
-12.726600000000001 -9.2891 2.0215 149
-12.9219 -9.4375 -0.5566 23
-12.601600000000001 -9.2031 2.373 220
-12.9922 -9.4844 -0.1873 59
-12.9844 -9.4844 2.8281 149
-8.3438 -6.046900000000001 -1.8096 89
-12.914100000000001 -9.3672 0.1857 141
-7.5664 -5.484400000000001 -1.4188999999999998 21
-13.0547 -9.4688 0.5615 207
-7.6172 -5.519500000000001 -1.2041 31
-13.0547 -9.4688 0.9355 68
-12.7656 -9.25 -1.6522999999999999 83
-12.7344 -9.2344 1.2812000000000001 149
-12.7344 -9.2344 -1.2812000000000001 208
-12.6406 -9.1641 1.6366999999999998 199
-12.7422 -9.2344 -0.9131 76
-12.726600000000001 -9.2266 2.0176 191
-13.039100000000001 -9.4531 -0.5605 19
-12.601600000000001 -9.1406 2.3672 193
-13.023399999999999 -9.4453 -0.1873 78
-12.835899999999999 -9.3047 2.7870999999999997 66
-8.3359 -5.9961 -1.8027000000000002 171
-12.898399999999999 -9.2812 0.18489999999999998 32
-7.6484000000000005 -5.5039 -1.4306999999999999 10
-13.0469 -9.3906 0.5596 174
-7.6875 -5.5312 -1.2129 146
-13.0625 -9.3984 0.9336 153
-12.7578 -9.1797 -1.6475 198
-12.7422 -9.1719 1.2783 156
-12.7344 -9.1641 -1.2783 215
-12.664100000000001 -9.1172 1.6357 38
-12.726600000000001 -9.1641 -0.9097 145
-12.718800000000002 -9.1484 2.0098 80
-12.9844 -9.3438 -0.5566 25
-12.6094 -9.0703 2.3613 37
-12.9844 -9.3438 -0.1862 68
-12.789100000000001 -9.2031 2.7714999999999996 50
-8.3359 -5.953099999999999 -1.7988 58
-12.960899999999999 -9.2578 0.18530000000000002 87
-7.7539 -5.5390999999999995 -1.4463 39
-12.9219 -9.2344 0.5527000000000001 133
-10.781199999999998 -7.703099999999999 -1.6991999999999998 30
-12.8203 -9.1641 0.9140999999999999 162
-12.7422 -9.1016 -1.6416 8
-12.7422 -9.1016 1.2754 126
-12.7422 -9.1016 -1.2754 84
-12.648399999999999 -9.0391 1.6299000000000001 1
-12.7344 -9.1016 -0.9081999999999999 205
-12.718800000000002 -9.0859 2.0039 188
-12.914100000000001 -9.2266 -0.5527000000000001 46
-12.6094 -9.0078 2.3574 160
-13.0156 -9.2969 -0.1862 217
-12.7969 -9.1406 2.7656 111
-8.3594 -5.925800000000001 -1.7988 250
-12.8281 -9.0938 0.183 214
-9.0703 -6.4336 -1.6894999999999998 144
-12.8125 -9.0859 0.5464 209
-10.789100000000001 -7.6484000000000005 -1.6953 120
-12.8203 -9.0859 0.9116 209
-12.7422 -9.0312 -1.6366999999999998 204
-12.726600000000001 -9.0234 1.2705 242
-12.7344 -9.0312 -1.2715 12
-12.656199999999998 -8.9766 1.626 246
-12.726600000000001 -9.0234 -0.9053 161
-12.710899999999999 -9.0156 1.999 209
-12.835899999999999 -9.1016 -0.5474 165
-12.601600000000001 -8.9375 2.3496 84
-12.7578 -9.0469 -0.182 244
-12.8047 -9.0781 2.7617000000000003 213
-8.3516 -5.875 -1.7930000000000001 21
-12.835899999999999 -9.0312 0.1826 236
-9.0859 -6.3984000000000005 -1.6885 254
-12.8125 -9.0234 0.5454 29
-10.8047 -7.6015999999999995 -1.6934 142
-12.8125 -9.0234 0.9092 29
-12.75 -8.9688 -1.6338 89
-12.726600000000001 -8.9531 1.2676 60
-12.7344 -8.9609 -1.2686 166
-12.625 -8.8906 1.6181999999999999 229
-12.726600000000001 -8.9609 -0.9028 109
-12.718800000000002 -8.9531 1.9950999999999999 87
-12.8047 -9.0156 -0.5449 81
-12.593800000000002 -8.8672 2.3418 83
-12.8047 -9.0156 -0.18230000000000002 254
-12.8203 -9.0234 2.7577999999999996 63
-8.3438 -5.828099999999999 -1.7871000000000001 86
-12.835899999999999 -8.9688 0.18230000000000002 223
-9.1172 -6.3711 -1.6894999999999998 96
-12.8125 -8.9531 0.5439 220
-10.8125 -7.550800000000001 -1.6904 113
-12.835899999999999 -8.9688 0.9081999999999999 115
-12.7578 -8.9141 -1.6309 191
-12.7344 -8.8984 1.2646 198
-12.726600000000001 -8.8906 -1.2646 233
-12.648399999999999 -8.8359 1.6172 221
-12.726600000000001 -8.8906 -0.9009 77
-12.718800000000002 -8.8828 1.9902000000000002 194
-12.8281 -8.9609 -0.5444 207
-12.593800000000002 -8.7969 2.3359 70
-12.7578 -8.9141 -0.1812 58
-12.968800000000002 -9.0625 2.7812 168
-8.3438 -5.7852 -1.7822 24
-12.8594 -8.9141 0.1821 19
-6.2773 -4.3516 -1.1582 127
-12.851600000000001 -8.9141 0.5444 100
-10.8281 -7.5078 -1.6894999999999998 241
-12.906199999999998 -8.9531 0.9111 102
-12.7422 -8.8359 -1.625 41
-12.726600000000001 -8.8281 1.2617 133
-12.7344 -8.8281 -1.2627 105
-12.6406 -8.7656 1.6122999999999998 171
-12.718800000000002 -8.8203 -0.8979 110
-12.7031 -8.8125 1.9834 135
-12.835899999999999 -8.8984 -0.5435 167
-12.601600000000001 -8.7422 2.332 192
-12.835899999999999 -8.8984 -0.1818 225
-12.976600000000001 -9.0 2.7773000000000003 37
-6.265599999999999 -4.3125 -1.334 186
-12.9219 -8.8984 0.1825 143
-6.269500000000001 -4.3164 -1.1543 68
-13.023399999999999 -8.9688 0.5503 128
-10.851600000000001 -7.4727 -1.6894999999999998 59
-13.039100000000001 -8.9766 0.9185 43
-12.7344 -8.7656 1.2588 38
-12.7344 -8.7656 -1.2588 119
-12.625 -8.6953 1.6063999999999998 174
-12.718800000000002 -8.7578 -0.8959999999999999 186
-12.6953 -8.7422 1.9775 183
-12.8828 -8.8672 -0.5444 253
-12.6094 -8.6797 2.3281 250
-12.8672 -8.8594 -0.1818 61
-12.9922 -8.9453 2.7733999999999996 217
-6.269500000000001 -4.2852 -1.3311000000000002 169
-12.898399999999999 -8.8203 0.1818 201
-6.2578 -4.2773 -1.1494 227
-13.0078 -8.8906 0.5483 16
-6.296900000000001 -4.3047 -0.9761 165
-13.031199999999998 -8.9062 0.9155 110
-12.7031 -8.6875 1.2529000000000001 233
-12.75 -8.7109 -1.2578 44
-12.6328 -8.6406 1.6044999999999998 190
-12.726600000000001 -8.6953 -0.894 75
-12.6953 -8.6797 1.9727000000000001 94
-12.7578 -8.7266 -0.5381 19
-12.593800000000002 -8.6094 2.3203 227
-12.8672 -8.7969 -0.1814 40
-12.9922 -8.8828 2.7676 56
-6.261699999999999 -4.2461 -1.3262 85
-12.9297 -8.7656 0.1818 145
-6.25 -4.2383 -1.1455 85
-13.0 -8.8125 0.5468999999999999 233
-6.2890999999999995 -4.2656 -0.9722 24
-13.023399999999999 -8.8281 0.9126000000000001 41
-6.3515999999999995 -4.3047 -0.8018000000000001 79
-12.718800000000002 -8.625 1.252 249
-6.4453 -4.3711 -0.6323 212
-12.6172 -8.5547 1.5977000000000001 24
-12.726600000000001 -8.6328 -0.8920999999999999 99
-12.7031 -8.6172 1.9687999999999999 212
-12.9453 -8.7734 -0.5444 186
-12.585899999999999 -8.5391 2.3125 73
-12.898399999999999 -8.7422 -0.1813 234
-12.9922 -8.8125 2.7617000000000003 174
-6.2422 -4.2031 -1.3193000000000001 74
-12.8281 -8.6328 0.17989999999999998 105
-6.25 -4.207 -1.1426 93
-12.9531 -8.7188 0.5435 20
-6.261699999999999 -4.2148 -0.9658 13
-13.0156 -8.7578 0.9102 104
-12.718800000000002 -8.5547 1.248 191
-12.625 -8.5 1.5957 0
-12.718800000000002 -8.5547 -0.8892 237
-12.6953 -8.5469 1.9628999999999999 151
-12.851600000000001 -8.6484 -0.5390999999999999 155
-12.593800000000002 -8.4766 2.3086 190
-12.875 -8.6641 -0.1807 229
-12.976600000000001 -8.7344 2.75 93
-6.230499999999999 -4.1641 -1.3144999999999998 196
-12.968800000000002 -8.6641 0.1815 141
-6.2461 -4.1719 -1.1387 231
-13.031199999999998 -8.7031 0.5454 34
-6.261699999999999 -4.1836 -0.9634 11
-13.0 -8.6875 0.9072 26
-12.726600000000001 -8.5078 1.2470999999999999 248
-6.3515999999999995 -4.2422 -0.6201 172
-12.6406 -8.4453 1.5928 237
-12.718800000000002 -8.4922 -0.8872 108
-12.6953 -8.4844 1.959 178
-12.9219 -8.6328 -0.541 96
-12.593800000000002 -8.4141 2.3047 44
-12.8672 -8.6016 -0.1801 185
-12.976600000000001 -8.6719 2.7441000000000004 166
-6.2227 -4.1289 -1.3096 27
-12.8906 -8.5547 0.1801 58
-6.234400000000001 -4.1367 -1.1348 129
-12.968800000000002 -8.6016 0.5415 199
-6.2578 -4.1523 -0.9604 87
-13.031199999999998 -8.6406 0.9072 72
-12.710899999999999 -8.4297 1.2422 117
-12.6719 -8.4062 1.5937999999999999 243
-12.7031 -8.4297 -0.8843000000000001 122
-12.6797 -8.4141 1.9521000000000002 134
-12.898399999999999 -8.5547 -0.5386 193
-12.601600000000001 -8.3594 2.3008 159
-12.664100000000001 -8.3984 -0.1769 173
-12.976600000000001 -8.6094 2.7382999999999997 131
-6.2188 -4.0938 -1.3047 125
-12.9453 -8.5156 0.18030000000000002 16
-6.2227 -4.0938 -1.1299 168
-13.0078 -8.5625 0.542 18
-6.261699999999999 -4.1211 -0.9590000000000001 18
-13.0156 -8.5703 0.9037999999999999 105
-6.296900000000001 -4.1445 -0.7876000000000001 73
-12.7031 -8.3594 1.2383 216
-12.648399999999999 -8.3281 1.5869 36
-12.726600000000001 -8.375 -0.8837999999999999 70
-12.6719 -8.3359 1.9453 136
-12.898399999999999 -8.4922 -0.5376 210
-12.6172 -8.3047 2.2969 225
-12.9219 -8.5 -0.17989999999999998 116
-12.9844 -8.5469 2.7344 232
-6.2188 -4.0625 -1.3027000000000002 249
-12.968800000000002 -8.4688 0.1802 63
-6.2227 -4.0625 -1.127 91
-13.0 -8.4922 0.5405 25
-6.2461 -4.0781 -0.9541 173
-13.0078 -8.4922 0.9014 144
-6.2812 -4.1016 -0.7842 158
-12.710899999999999 -8.2969 1.2363 151
-6.3203 -4.125 -0.6128 143
-12.6328 -8.25 1.5811000000000002 73
-6.4140999999999995 -4.1875 -0.44310000000000005 67
-12.664100000000001 -8.2656 1.9394999999999998 245
-12.8828 -8.4141 -0.5356000000000001 36
-12.664100000000001 -8.2734 2.3008 180
-12.8672 -8.3984 -0.1788 152
-12.9844 -8.4766 2.7266000000000004 222
-12.898399999999999 -8.3594 0.1788 240
-6.2227 -4.0352 -1.124 248
-13.0078 -8.4297 0.5396 190
-6.238300000000001 -4.043 -0.9506999999999999 133
-13.0078 -8.4297 0.8989 162
-6.2812 -4.0703 -0.7822 136
-12.710899999999999 -8.2422 1.2334 158
-6.3398 -4.1094 -0.6133 30
-12.6875 -8.2266 1.585 10
-6.4140999999999995 -4.1602 -0.4421 148
-12.6719 -8.2109 1.9365 157
-12.6953 -8.2344 -0.5268999999999999 151
-12.6875 -8.2188 2.2988 138
-12.875 -8.3438 -0.17859999999999998 212
-12.8828 -8.3516 2.6992000000000003 47
-3.127 -2.0117 -0.6484000000000001 116
-12.9453 -8.3281 0.1791 77
-13.0 -8.3672 0.5381 11
-6.2422 -4.0156 -0.9492 225
-13.0 -8.3672 0.897 90
-6.269500000000001 -4.0312 -0.7787999999999999 142
-12.718800000000002 -8.1797 1.2314 13
-6.3203 -4.0664 -0.6103999999999999 49
-12.6719 -8.1484 1.5781 62
-6.3984000000000005 -4.1172 -0.4399 247
-12.6406 -8.1328 1.9287 76
-12.8594 -8.2734 -0.5322 84
-12.6953 -8.1641 2.2949 122
-12.906199999999998 -8.3047 -0.17859999999999998 185
-12.718800000000002 -8.1797 2.6582 227
-3.1504000000000003 -2.0117 -0.6518999999999999 176
-12.8594 -8.2031 0.1775 147
-3.1620999999999997 -2.0176 -0.5654 146
-12.9219 -8.25 0.5337 81
-6.2422 -3.9844 -0.9473 4
-12.960899999999999 -8.2734 0.8920999999999999 198
-6.2578 -3.9941000000000004 -0.7759 252
-12.7031 -8.1094 1.2266 155
-6.3203 -4.0352 -0.6089 75
-12.6953 -8.1016 1.5781 247
-6.3828 -4.0742 -0.43799999999999994 95
-12.6328 -8.0625 1.9219 3
-6.5625 -4.1875 -0.27 145
-12.7031 -8.1094 2.293 249
-12.8672 -8.2188 -0.1776 209
-12.6797 -8.0938 2.6464999999999996 136
-3.1464999999999996 -1.9931999999999999 -0.6494 213
-12.8125 -8.1172 0.1764 169
-3.1562 -2.0 -0.5635 26
-12.8047 -8.1094 0.5273 67
-6.238300000000001 -3.9512 -0.9443 136
-12.726600000000001 -8.0625 0.8740000000000001 151
-6.269500000000001 -3.9707 -0.7754000000000001 79
-12.6953 -8.0391 1.2236 61
-6.3164 -4.0039 -0.6074 59
-12.6875 -8.0312 1.5732 109
-6.386699999999999 -4.0469 -0.43729999999999997 195
-12.6172 -7.988300000000001 1.915 97
-6.5312 -4.1367 -0.2681 146
-12.101600000000001 -7.6640999999999995 2.1777 203
-12.7422 -8.0703 -0.17550000000000002 212
-12.093800000000002 -7.6602 2.5176 115
-3.1426 -1.9756 -0.6475 163
-12.710899999999999 -7.9922 0.1747 37
-3.1582 -1.9853999999999998 -0.5625 48
-12.6875 -7.9765999999999995 0.5215 164
-6.2227 -3.9101999999999997 -0.9395 246
-12.7031 -7.984400000000001 0.8706 226
-6.265599999999999 -3.9375 -0.7729 237
-12.6953 -7.980499999999999 1.2217 160
-6.3047 -3.9608999999999996 -0.6045 182
-12.6172 -7.9297 1.5615 119
-6.390599999999999 -4.0156 -0.4365 140
-12.093800000000002 -7.6015999999999995 1.8319999999999999 225
-6.5273 -4.1016 -0.2673 73
-12.1094 -7.609400000000001 2.1738 238
-12.6875 -7.9765999999999995 -0.1744 43
-12.101600000000001 -7.609400000000001 2.5137 27
-3.1132999999999997 -1.9413999999999998 -0.6396000000000001 80
-12.7344 -7.9414 0.1746 21
-3.1582 -1.9697 -0.561 234
-12.7031 -7.921900000000001 0.521 55
-6.2227 -3.8808999999999996 -0.938 224
-12.7031 -7.925800000000001 0.8687 73
-6.261699999999999 -3.9062 -0.7709999999999999 127
-12.1406 -7.5703 1.165 78
-6.3086 -3.9336 -0.6035 24
-12.226600000000001 -7.625 1.5097999999999998 143
-6.375 -3.9766000000000004 -0.4346 120
-12.023399999999999 -7.5 1.8174000000000001 47
-6.5390999999999995 -4.0781 -0.2673 177
-12.664100000000001 -7.894500000000001 2.2695 70
-12.6875 -7.9140999999999995 -0.174 78
-12.6719 -7.9023 2.627 91
-3.0742000000000003 -1.9022999999999999 -0.6299 57
-12.7344 -7.8828 0.17420000000000002 210
-3.1172000000000004 -1.9287 -0.5522 82
-12.710899999999999 -7.8672 0.52 172
-12.6875 -7.8515999999999995 0.8656999999999999 225
-6.2461 -3.8672000000000004 -0.7676000000000001 58
-12.6875 -7.8515999999999995 1.2148 99
-6.3164 -3.9101999999999997 -0.603 169
-12.710899999999999 -7.8672 1.5663999999999998 109
-6.3672 -3.9414 -0.43310000000000004 126
-11.9375 -7.390599999999999 1.8008000000000002 140
-6.519500000000001 -4.0352 -0.2659 137
-12.6797 -7.8477 2.2676 234
-12.6953 -7.855499999999999 -0.17370000000000002 24
-12.6719 -7.8438 2.6211 199
-12.710899999999999 -7.8047 0.1736 149
-12.710899999999999 -7.8047 0.519 206
-3.1875 -1.9580000000000002 -0.4758 225
-12.7031 -7.796900000000001 0.8643000000000001 124
-6.25 -3.8379000000000003 -0.7661 69
-12.6953 -7.796900000000001 1.2129 242
-6.3125 -3.875 -0.6011 119
-12.6875 -7.7890999999999995 1.5596 58
-6.375 -3.9141000000000004 -0.4324 180
-11.9297 -7.324199999999999 1.7949000000000002 237
-6.5078 -3.9961 -0.26489999999999997 192
-12.6875 -7.7890999999999995 2.2637 13
-12.6953 -7.796900000000001 -0.17329999999999998 80
-12.6719 -7.7812 2.6151999999999997 248
-12.7031 -7.738300000000001 0.17300000000000001 38
-12.6953 -7.734400000000001 0.5176 60
-3.1855 -1.9404 -0.47409999999999997 72
-12.7031 -7.738300000000001 0.8628 107
-12.6953 -7.734400000000001 1.21 115
-6.300800000000001 -3.8379000000000003 -0.5991 211
-12.6719 -7.7227 1.5547 183
-6.3789 -3.8848000000000003 -0.43189999999999995 23
-11.9297 -7.269500000000001 1.7919999999999998 33
-6.4961 -3.957 -0.2637 119
-12.6406 -7.703099999999999 2.25 44
-12.6875 -7.730499999999999 -0.1729 27
-12.5625 -7.6523 2.5858999999999996 54
-3.0976999999999997 -1.8730000000000002 -0.6309 23
-12.718800000000002 -7.6836 0.1729 101
-12.6797 -7.6640999999999995 0.5156000000000001 255
-3.1348000000000003 -1.8944999999999999 -0.4656 226
-12.7031 -7.6797 0.8613 240
-3.2401999999999997 -1.959 -0.3936 6
-12.6875 -7.671900000000001 1.208 128
-6.2852 -3.7988 -0.5962 76
-12.5703 -7.5977 1.5391 49
-11.9375 -7.2148 1.7891 127
-6.488300000000001 -3.9219 -0.26289999999999997 186
-12.5625 -7.5938 2.2324 4
-12.6719 -7.6602 -0.1724 97
-12.5625 -7.5938 2.582 247
-3.0879000000000003 -1.8525 -0.6274000000000001 195
-12.718800000000002 -7.6289 0.1725 215
-3.1151999999999997 -1.8700999999999999 -0.5478999999999999 181
-12.6797 -7.609400000000001 0.5146000000000001 221
-3.1132999999999997 -1.8681999999999999 -0.46140000000000003 148
-12.6875 -7.6172 0.8584 248
-3.1933999999999996 -1.916 -0.38670000000000004 71
-12.6328 -7.582000000000001 1.1992 80
-6.3125 -3.7891000000000004 -0.5977 140
-12.539100000000001 -7.5273 1.5322 165
-11.9375 -7.1640999999999995 1.7852000000000001 197
-6.4922 -3.8945 -0.2625 42
-12.648399999999999 -7.5938 2.2441 159
-12.6719 -7.605499999999999 -0.172 116
-12.6797 -7.609400000000001 2.5995999999999997 98
-12.726600000000001 -7.578099999999999 0.1722 120
-3.1132999999999997 -1.8544999999999998 -0.5459 69
-12.6875 -7.5586 0.5142 154
-3.1172000000000004 -1.8563999999999998 -0.4612 233
-12.6797 -7.5547 0.856 193
-3.1992000000000003 -1.9053 -0.38670000000000004 173
-12.7031 -7.5664 1.2041 42
-12.6719 -7.546900000000001 1.5459 175
-11.9219 -7.1015999999999995 1.7803 195
-6.480499999999999 -3.8594 -0.2615 79
-12.1406 -7.230499999999999 2.1484 204
-12.6719 -7.546900000000001 -0.1716 137
-12.148399999999999 -7.234400000000001 2.4863 51
-3.0918 -1.8262 -0.6255 65
-12.710899999999999 -7.5078 0.1718 92
-12.6953 -7.5 0.5132 252
-3.123 -1.8457 -0.4612 172
-12.6797 -7.4922 0.8545 13
-3.1816000000000004 -1.8799000000000001 -0.38380000000000003 144
-12.6797 -7.488300000000001 1.1992 60
-3.2305 -1.9082 -0.30269999999999997 173
-12.6797 -7.488300000000001 1.5430000000000001 152
-11.8906 -7.0234000000000005 1.7715 121
-6.4688 -3.8202999999999996 -0.2605 201
-12.125 -7.1602 2.1406 109
-12.6875 -7.4922 -0.1714 136
-12.156199999999998 -7.1797 2.4824 38
-3.0801 -1.8047 -0.6221 118
-12.6953 -7.4414 0.17129999999999998 64
-3.1074 -1.8213 -0.5429999999999999 240
-12.6797 -7.4297 0.5117 144
-3.1191000000000004 -1.8281 -0.4597 142
-12.6875 -7.4375 0.853 155
-3.1738 -1.8603999999999998 -0.3821 225
-12.6719 -7.425800000000001 1.1963 242
-3.1914 -1.8700999999999999 -0.2986 149
-12.6797 -7.4297 1.54 153
-11.906199999999998 -6.980499999999999 1.7705000000000002 229
-6.453099999999999 -3.7832 -0.2595 144
-12.1094 -7.0977 2.1348 171
-12.6719 -7.425800000000001 -0.1709 122
-12.156199999999998 -7.1211 2.4766 148
-3.0762 -1.7871000000000001 -0.6196 160
-12.7031 -7.3789 0.1709 252
-3.1132999999999997 -1.8086000000000002 -0.5425 122
-12.6797 -7.3672 0.5103 229
-3.1055 -1.8047 -0.45649999999999996 2
-12.6953 -7.375 0.8515999999999999 174
-3.1464999999999996 -1.8291 -0.3779 186
-12.6875 -7.3711 1.1943000000000001 176
-3.1738 -1.8447 -0.2961 132
-12.6719 -7.363300000000001 1.5361000000000002 107
-11.9219 -6.925800000000001 1.7686000000000002 180
-6.457000000000001 -3.752 -0.259 252
-12.101600000000001 -7.0312 2.1289 164
-12.664100000000001 -7.355499999999999 -0.1703 239
-12.148399999999999 -7.0586 2.4707 198
-3.0664 -1.7675999999999998 -0.6167 85
-12.6953 -7.3164 0.1704 150
-3.0976999999999997 -1.7852000000000001 -0.5386 206
-12.6797 -7.3125 0.5093 34
-3.1016000000000004 -1.7881 -0.4551 85
-12.6875 -7.3125 0.8491 0
-3.1582 -1.8203 -0.3787 100
-12.6797 -7.3086 1.1914 0
-3.1699 -1.8281 -0.2952 41
-12.601600000000001 -7.265599999999999 1.5244 78
-3.2773000000000003 -1.8896000000000002 -0.21739999999999998 46
-11.9219 -6.8711 1.7637 132
-6.4609000000000005 -3.7245999999999997 -0.2585 235
-12.1094 -6.980499999999999 2.125 56
-12.664100000000001 -7.296900000000001 -0.17 224
-12.148399999999999 -7.0 2.4648 20
-3.0526999999999997 -1.7471 -0.6128 170
-12.6953 -7.265599999999999 0.1702 199
-3.0995999999999997 -1.7734 -0.5381 39
-12.6797 -7.2578 0.5083 27
-3.1055 -1.7772999999999999 -0.4548 146
-12.6719 -7.25 0.8467 19
-3.1367000000000003 -1.7949000000000002 -0.37520000000000003 174
-12.6797 -7.2578 1.1895 211
-3.1738 -1.8154 -0.2949 199
-12.289100000000001 -7.0352 1.4834 199
-3.2207 -1.8437999999999999 -0.2133 75
-11.9297 -6.828099999999999 1.7627000000000002 134
-6.4609000000000005 -3.6973000000000003 -0.2581 93
-12.1094 -6.9297 2.1211 93
-12.648399999999999 -7.238300000000001 -0.1696 64
-12.148399999999999 -6.949199999999999 2.4609 221
-3.0566000000000004 -1.7363 -0.6123 121
-12.7031 -7.2148 0.1699 61
-3.0879000000000003 -1.7538999999999998 -0.5352 209
-12.6875 -7.203099999999999 0.5078 153
-3.1074 -1.7646000000000002 -0.4543 163
-12.6719 -7.1953 0.8452 97
-3.1348000000000003 -1.7793 -0.3743 94
-12.6719 -7.1953 1.1865 129
-3.1620999999999997 -1.7949000000000002 -0.2932 87
-12.2969 -6.980499999999999 1.4813999999999998 155
-3.207 -1.8213 -0.2119 188
-11.914100000000001 -6.765599999999999 1.7578 253
-6.4609000000000005 -3.668 -0.2576 126
-12.101600000000001 -6.875 2.1152 248
-12.656199999999998 -7.1875 -0.1693 185
-12.148399999999999 -6.8984000000000005 2.4551 80
-3.0526999999999997 -1.7187999999999999 -0.6103999999999999 75
-12.710899999999999 -7.1562 0.1697 197
-3.0839999999999996 -1.7363 -0.5332 23
-12.6875 -7.144500000000001 0.5068 227
-3.1191000000000004 -1.7559 -0.4548 6
-12.6797 -7.140599999999999 0.8438 196
-3.1483999999999996 -1.7725 -0.375 44
-12.664100000000001 -7.1328 1.1836 217
-3.1543 -1.7763999999999998 -0.292 236
-12.2969 -6.921900000000001 1.4785 79
-3.1952999999999996 -1.7997999999999998 -0.2107 102
-11.914100000000001 -6.707000000000001 1.7529 7
-12.101600000000001 -6.8125 2.1113 115
-12.656199999999998 -7.125 -0.1689 246
-12.148399999999999 -6.8398 2.4512 143
-3.0702999999999996 -1.7138999999999998 -0.6123 122
-12.7031 -7.0938 0.1693 235
-3.0762 -1.7178 -0.5307999999999999 213
-12.664100000000001 -7.0703 0.5044 181
-3.1113 -1.7372999999999998 -0.45289999999999997 152
-12.6797 -7.082000000000001 0.8423 142
-3.1483999999999996 -1.7578 -0.37450000000000006 44
-12.6719 -7.078099999999999 1.1816 217
-3.1426 -1.7549000000000001 -0.2903 170
-12.273399999999999 -6.8515999999999995 1.4727000000000001 219
-3.1992000000000003 -1.7861000000000002 -0.2104 32
-11.914100000000001 -6.6562 1.75 31
-3.2754000000000003 -1.8291 -0.1293 79
-12.085899999999999 -6.75 2.1035 107
-12.6328 -7.050800000000001 -0.16820000000000002 247
-12.1406 -6.7773 2.4434 178
-3.0526999999999997 -1.6894999999999998 -0.6074 145
-12.7031 -7.0273 0.16879999999999998 132
-3.0858999999999996 -1.7080000000000002 -0.5312 196
-12.6797 -7.015599999999999 0.5044 145
-3.0976999999999997 -1.7147999999999999 -0.45 40
-12.6797 -7.019500000000001 0.8408 136
-3.1620999999999997 -1.75 -0.37520000000000003 177
-12.6797 -7.015599999999999 1.1797 127
-3.1426 -1.7393 -0.2898 157
-12.273399999999999 -6.792999999999999 1.4697 208
-3.1699 -1.7549000000000001 -0.20809999999999998 82
-11.9219 -6.5977 1.7480000000000002 95
-3.248 -1.7969 -0.1278 15
-12.085899999999999 -6.6875 2.0996 214
-12.648399999999999 -7.0 -0.16820000000000002 187
-12.1406 -6.7188 2.4395 247
-3.0469 -1.6719 -0.6054999999999999 184
-12.6875 -6.9609000000000005 0.16829999999999998 230
-3.0995999999999997 -1.7002000000000002 -0.5327000000000001 89
-12.6875 -6.9609000000000005 0.5034000000000001 86
-3.1035000000000004 -1.7031 -0.45 183
-12.6719 -6.953099999999999 0.8384 184
-12.593800000000002 -6.9102 1.1699 168
-3.1445 -1.7246000000000001 -0.2893 93
-12.2969 -6.7461 1.4697 236
-3.1757999999999997 -1.7422 -0.20800000000000002 99
-11.906199999999998 -6.5312 1.7412 84
-3.2441000000000004 -1.7793 -0.1274 240
-12.101600000000001 -6.640599999999999 2.0977 163
-12.648399999999999 -6.9414 -0.1678 208
-12.1328 -6.6562 2.4336 72
-3.0526999999999997 -1.6631 -0.6054999999999999 84
-12.6719 -6.9062 0.1678 109
-3.0801 -1.6777000000000002 -0.5283 218
-12.6719 -6.9062 0.5024000000000001 161
-3.1016000000000004 -1.6904 -0.449 220
-12.664100000000001 -6.8984000000000005 0.8364 40
-12.4453 -6.7812 1.1543 80
-3.1582 -1.7207 -0.29 253
-12.3125 -6.707000000000001 1.4687999999999999 199
-3.1699 -1.7266 -0.20739999999999997 108
-11.8906 -6.4765999999999995 1.7363 37
-3.2305 -1.7607 -0.1267 250
-12.085899999999999 -6.582000000000001 2.0918 92
-12.664100000000001 -6.8984000000000005 -0.1677 179
-12.1406 -6.613300000000001 2.4297 74
-3.0605 -1.6543 -0.606 93
-12.648399999999999 -6.8359000000000005 0.1672 223
-3.0742000000000003 -1.6621000000000001 -0.5264 235
-12.5469 -6.7812 0.4963 231
-3.1055 -1.6777000000000002 -0.4485 141
-12.5 -6.7539 0.8242 184
-12.3906 -6.6953 1.1465 178
-3.1582 -1.7069999999999999 -0.2896 42
-12.3203 -6.6562 1.4668 177
-3.1738 -1.7158000000000002 -0.2073 19
-11.898399999999999 -6.4336 1.7344 84
-3.2148000000000003 -1.7372999999999998 -0.1257 22
-12.101600000000001 -6.5390999999999995 2.0898 222
-3.3301 -1.7997999999999998 -0.0434 249
-12.1719 -6.578099999999999 2.4316 212
-3.0586 -1.6387 -0.6045 2
-12.5078 -6.699199999999999 0.165 55
-3.082 -1.6503999999999999 -0.5264 238
-12.4531 -6.671900000000001 0.4917 48
-3.0938 -1.6572 -0.4458 150
-12.476600000000001 -6.6875 0.8212999999999999 227
-12.414100000000001 -6.6523 1.1465 61
-12.351600000000001 -6.6172 1.4678 7
-3.1757999999999997 -1.7012 -0.2069 196
-11.9219 -6.386699999999999 1.7344 113
-3.2108999999999996 -1.7197 -0.12539999999999998 232
-12.156199999999998 -6.511699999999999 2.0957 213
-3.2637 -1.7480000000000002 -0.0424 142
-12.2031 -6.5390999999999995 2.4336 110
-3.043 -1.6162 -0.6001 45
-12.5078 -6.644500000000001 0.16469999999999999 37
-3.0723000000000003 -1.6328 -0.5239 33
-12.460899999999999 -6.6211 0.491 112
-3.0879000000000003 -1.6406 -0.4443 65
-12.468800000000002 -6.625 0.8188 74
-12.4375 -6.605499999999999 1.1465 154
-12.3672 -6.5703 1.4678 84
-3.1641000000000004 -1.6816 -0.20579999999999998 143
-11.8906 -6.3164 1.7266 3
-3.2031 -1.7021000000000002 -0.1249 165
-12.1719 -6.4648 2.0957 135
-3.2363 -1.7197 -0.042 181
-12.2031 -6.480499999999999 2.4297 102
-3.043 -1.6035 -0.5991 91
-12.5 -6.5859000000000005 0.1643 114
-3.082 -1.624 -0.5249 84
-12.4922 -6.582000000000001 0.49119999999999997 245
-3.0918 -1.6299000000000001 -0.44409999999999994 219
-12.4922 -6.582000000000001 0.8188 72
-12.468800000000002 -6.574199999999999 1.1475 1
-12.3672 -6.519500000000001 1.4647999999999999 207
-3.1797000000000004 -1.6758000000000002 -0.2064 166
-11.875 -6.2578 1.7216999999999998 175
-3.2168 -1.6953 -0.1251 176
-12.1719 -6.4140999999999995 2.0918 214
-3.2266000000000004 -1.7012 -0.0417 6
-12.1875 -6.421900000000001 2.4219 118
-3.0488 -1.5937999999999999 -0.5991 151
-12.5469 -6.5625 0.16469999999999999 124
-3.0702999999999996 -1.6044999999999998 -0.5215 244
-12.523399999999999 -6.550800000000001 0.4917 215
-3.0995999999999997 -1.6200999999999999 -0.4443 241
-12.531199999999998 -6.550800000000001 0.8203 109
-12.4844 -6.5273 1.1475 233
-12.3906 -6.4765999999999995 1.4647999999999999 53
-11.8594 -6.203099999999999 1.7168 190
-3.2031 -1.6738 -0.1244 227
-12.1719 -6.363300000000001 2.0879 11
-3.2363 -1.6913999999999998 -0.0418 187
-12.1953 -6.375 2.4199 74
-3.0526999999999997 -1.5819999999999999 -0.5991 42
-3.0469 -1.5791 -0.5171 196
-12.5625 -6.5078 0.49219999999999997 47
-3.0957 -1.6044999999999998 -0.44310000000000005 42
-12.601600000000001 -6.5312 0.8231999999999999 222
-12.523399999999999 -6.488300000000001 1.1484 55
-12.375 -6.4102 1.46 73
-11.875 -6.1523 1.7147999999999999 62
-3.1952999999999996 -1.6553 -0.12380000000000001 243
-12.164100000000001 -6.3047 2.084 115
-3.2422000000000004 -1.6797 -0.0418 55
-12.2031 -6.324199999999999 2.416 238
-3.0410000000000004 -1.5625 -0.5957 108
-3.4882999999999997 -1.7919999999999998 0.045 62
-3.0566000000000004 -1.5703 -0.5176 179
-12.625 -6.488300000000001 0.4939 231
-3.0762 -1.5800999999999998 -0.43920000000000003 182
-12.6719 -6.5078 0.8262 24
-12.5625 -6.453099999999999 1.1504 102
-12.375 -6.355499999999999 1.4569999999999999 37
-11.875 -6.1015999999999995 1.7119 18
-3.2108999999999996 -1.6494 -0.1243 234
-12.156199999999998 -6.2422 2.0762 52
-3.2207 -1.6543 -0.0414 95
-8.4062 -4.3203 1.6591999999999998 144
-3.043 -1.5497999999999998 -0.5947 100
-3.4160000000000004 -1.7402000000000002 0.043899999999999995 126
-3.0664 -1.5625 -0.5186 158
-12.664100000000001 -6.449199999999999 0.49439999999999995 205
-3.0839999999999996 -1.5713 -0.4397 53
-12.6719 -6.453099999999999 0.8247 133
-12.6719 -6.453099999999999 1.1572 148
-12.351600000000001 -6.292999999999999 1.4531 211
-11.875 -6.050800000000001 1.709 95
-3.2168 -1.6387 -0.1243 178
-12.164100000000001 -6.1953 2.0742 45
-3.207 -1.6338 -0.0412 94
-8.4219 -4.2891 1.6582 156
-3.0391000000000004 -1.5341999999999998 -0.5928 220
-3.4043 -1.7187999999999999 0.0437 70
-3.0742000000000003 -1.5527000000000002 -0.5186 97
-12.6875 -6.4062 0.49439999999999995 217
-3.082 -1.5566 -0.4387 214
-12.726600000000001 -6.425800000000001 0.8267 45
-12.7578 -6.4414 1.1641 235
-12.3672 -6.2461 1.4521000000000002 152
-11.8672 -5.9922 1.7041 70
-8.7031 -4.3945 1.4794999999999998 131
-3.2226999999999997 -1.6269999999999998 -0.041299999999999996 19
-7.988300000000001 -4.0352 1.5703 243
-3.0332 -1.5175999999999998 -0.5908 75
-3.3613 -1.6816 0.043 108
-3.0547000000000004 -1.5283000000000002 -0.5146000000000001 76
-12.7969 -6.4023 0.4978 250
-3.082 -1.5419999999999998 -0.43770000000000003 251
-12.835899999999999 -6.421900000000001 0.8325 121
-12.8047 -6.4062 1.166 4
-12.375 -6.1953 1.4502000000000002 80
-11.8594 -5.9336 1.7002000000000002 212
-12.1719 -6.0898 2.0684 61
-3.2207 -1.6113 -0.0412 106
-7.949199999999999 -3.9766000000000004 1.5596 253
-3.0391000000000004 -1.5068000000000001 -0.5908 161
-3.3125 -1.6425999999999998 0.042300000000000004 28
-3.0507999999999997 -1.5127000000000002 -0.5127 73
-12.8906 -6.390599999999999 0.5005 16
-3.0858999999999996 -1.5303 -0.4375 153
-12.9453 -6.421900000000001 0.8384 121
-12.9844 -6.4414 1.1806999999999999 160
-12.3828 -6.144500000000001 1.4482 76
-11.8906 -5.8984000000000005 1.7021000000000002 162
-12.156199999999998 -6.0312 2.0625 39
-3.2148000000000003 -1.5937999999999999 -0.040999999999999995 31
-7.984400000000001 -3.9608999999999996 1.5644999999999998 82
-3.0332 -1.4912 -0.5884 245
-3.332 -1.6387 0.0425 141
-3.0664 -1.5078 -0.5146000000000001 127
-13.0078 -6.3984000000000005 0.5044 154
-3.0858999999999996 -1.5186000000000002 -0.43700000000000006 242
-13.0547 -6.421900000000001 0.8438 65
-13.085899999999999 -6.4375 1.1875 11
