# .PCD v0.7 - Point Cloud Data file format
VERSION 0.7
FIELDS x y z intensity
SIZE 4 4 4 4
TYPE F F F F
COUNT 1 1 1 1
WIDTH 1234
HEIGHT 1
VIEWPOINT 0 0 0 1 0 0 0
POINTS 1234
DATA ascii
-8.0859 -3.4863 1.127 93
-8.9844 -3.875 1.4863 33
-12.1719 -5.25 2.3301 115
-3.0077999999999996 -1.2852000000000001 -0.5693 60
-3.2363 -1.3828 0.0403 39
-3.0449 -1.3008000000000002 -0.4985 181
-13.6406 -5.828099999999999 0.5161 183
-3.0918 -1.3203 -0.42700000000000005 98
-13.664100000000001 -5.8359000000000005 0.8618000000000001 207
-13.664100000000001 -5.8359000000000005 1.21 207
-8.0469 -3.4395 0.9155 210
-8.125 -3.4707 1.1309 187
-8.8438 -3.7773000000000003 1.46 245
-8.8359 -3.7754000000000003 1.6875 34
-3.0117000000000003 -1.2734 -0.5693 199
-3.2382999999999997 -1.3700999999999999 0.04019999999999999 17
-3.0410000000000004 -1.2861000000000002 -0.4971 131
-13.6719 -5.7812 0.5166 204
-3.1620999999999997 -1.3378999999999999 -0.4363 191
-13.648399999999999 -5.7734000000000005 0.8593999999999999 133
-13.664100000000001 -5.7773 1.208 63
-8.0312 -3.3964999999999996 0.9120999999999999 185
-8.2969 -3.5117000000000003 1.1533 220
-11.8906 -5.0273 1.9619 52
-12.1719 -5.1484000000000005 2.3223 146
-3.0156 -1.2637 -0.5693 252
-3.248 -1.3603999999999998 0.0403 3
-3.0351999999999997 -1.2715 -0.4951 5
-13.6719 -5.7265999999999995 0.5156000000000001 151
-3.1308999999999996 -1.3115 -0.43119999999999997 116
-13.664100000000001 -5.7265999999999995 0.8593999999999999 197
-13.648399999999999 -5.7188 1.2051 159
-12.406199999999998 -5.199199999999999 1.4091999999999998 230
-12.210899999999999 -5.1172 1.6972999999999998 153
-11.8906 -4.9844 1.96 37
-12.1719 -5.1016 2.3203 46
-3.0156 -1.252 -0.5684 222
-3.2363 -1.3428 0.0401 155
-3.0254000000000003 -1.2559 -0.4932 118
-13.656199999999998 -5.667999999999999 0.5146000000000001 219
-3.1504000000000003 -1.3066 -0.43310000000000004 34
-13.6797 -5.675800000000001 0.8589 49
-13.6406 -5.6602 1.2021 48
-12.406199999999998 -5.1523 1.4072 192
-12.2344 -5.0781 1.6982 107
-11.851600000000001 -4.918 1.9502000000000002 159
-12.1406 -5.0391 2.3105 186
-3.0233999999999996 -1.2431999999999999 -0.5693 192
-3.2344 -1.3300999999999998 0.04 56
-3.0332 -1.2470999999999999 -0.49369999999999997 252
-13.664100000000001 -5.6172 0.5142 54
-3.0839999999999996 -1.2676 -0.4233 83
-12.4453 -5.1172 1.0957 140
-12.398399999999999 -5.0977 1.4043 35
-12.226600000000001 -5.0273 1.6943000000000001 183
-11.8672 -4.8789 1.9502000000000002 137
-12.1406 -4.9922 2.3086 85
-3.0176 -1.2275 -0.5669 172
-3.2422000000000004 -1.3193000000000001 0.04 12
-3.0312 -1.2334 -0.4924 228
-12.4297 -5.0586 0.4668 59
-3.1582 -1.2852000000000001 -0.43310000000000004 191
-12.4219 -5.0547 0.7773 42
-12.4375 -5.0586 1.0928 155
-12.3906 -5.043 1.4013999999999998 206
-12.226600000000001 -4.9766 1.6924000000000001 71
-8.75 -3.5586 1.4336000000000002 226
-12.125 -4.9336 2.3008 223
-3.0117000000000003 -1.2129 -0.5649000000000001 209
-3.2285000000000004 -1.2997999999999998 0.0398 42
-3.0351999999999997 -1.2227 -0.4924 108
-12.4297 -5.0078 0.4661 214
-3.0938 -1.2461 -0.4233 58
-12.406199999999998 -4.9961 0.7754000000000001 177
-12.4219 -5.0039 1.0908 131
-12.3906 -4.9922 1.3994 249
-12.226600000000001 -4.9258 1.6894999999999998 170
-8.7734 -3.5351999999999997 1.4365 250
-12.125 -4.8828 2.2969 130
-3.0058999999999996 -1.1982 -0.563 44
-3.2226999999999997 -1.2852000000000001 0.0397 84
-3.0214999999999996 -1.2051 -0.48950000000000005 228
-3.0995999999999997 -1.2354 -0.4236 147
-12.406199999999998 -4.9453 0.7744 218
-12.414100000000001 -4.9531 1.0879 157
-12.3906 -4.9414 1.3975 76
-12.210899999999999 -4.8711 1.6855000000000002 224
-8.8516 -3.5293 1.4463 0
-12.1094 -4.8281 2.291 105
-3.0117000000000003 -1.1885 -0.5635 151
-3.2401999999999997 -1.2793 0.0398 53
-3.0293 -1.1953 -0.49 247
-3.4043 -1.3437999999999999 0.126 92
-3.1406 -1.2393 -0.42869999999999997 237
-12.4297 -4.9062 0.7748999999999999 251
-12.468800000000002 -4.9219 1.0908 40
-12.3906 -4.8906 1.3955000000000002 3
-12.2031 -4.8164 1.6825999999999999 12
-8.8828 -3.5039 1.4491999999999998 1
-12.1172 -4.7852 2.291 4
-3.0156 -1.1787 -0.5635 39
-3.2344 -1.2637 0.0397 59
-3.0312 -1.1845999999999999 -0.48969999999999997 147
-3.3711 -1.3174000000000001 0.1246 154
-3.1074 -1.2139 -0.4236 105
-12.476600000000001 -4.875 0.7764 116
-12.5078 -4.8867 1.0928 17
-12.3828 -4.8398 1.3925999999999998 203
-12.218800000000002 -4.7734 1.6816 74
-11.843800000000002 -4.6289 1.9325999999999999 90
-12.1172 -4.7344 2.2852 57
-3.0058999999999996 -1.1621 -0.5605 85
-3.252 -1.2568000000000001 0.039900000000000005 38
-3.0370999999999997 -1.1748 -0.49 146
-3.3827999999999996 -1.3086000000000002 0.1249 129
-3.0858999999999996 -1.1934 -0.4202 159
-12.539100000000001 -4.8477 0.7798 109
-12.601600000000001 -4.8711 1.0996 20
-12.3906 -4.793 1.3916 186
-12.210899999999999 -4.7227 1.6787 49
-11.835899999999999 -4.5781 1.9287 36
-12.1172 -4.6836 2.2832 41
-2.9941000000000004 -1.1455 -0.5581 43
-3.2226999999999997 -1.2334 0.0394 236
-3.0469 -1.166 -0.491 15
-3.3887 -1.2969 0.1249 21
-3.1151999999999997 -1.1924 -0.4236 158
-13.5156 -5.171900000000001 0.8393999999999999 173
-13.5547 -5.1875 1.1816 92
-9.0234 -3.4512 1.0107 186
-8.8906 -3.4004000000000003 1.2187999999999999 198
-11.843800000000002 -4.5312 1.9277000000000002 27
-12.101600000000001 -4.6328 2.2773 81
-2.998 -1.1357 -0.5581 84
-3.2305 -1.2227 0.0395 54
-3.0351999999999997 -1.1494 -0.48829999999999996 109
-3.3887 -1.2832 0.12480000000000001 36
-3.1464999999999996 -1.1914 -0.42719999999999997 141
-13.531199999999998 -5.125 0.8393999999999999 105
-13.539100000000001 -5.125 1.1787 168
-9.0078 -3.4120999999999997 1.0078 24
-8.8828 -3.3632999999999997 1.2168 16
-11.851600000000001 -4.4883 1.9258000000000002 253
-10.0078 -3.7891000000000004 1.8799000000000001 109
-3.0 -1.124 -0.5576 118
-3.2441000000000004 -1.2148 0.039599999999999996 32
-3.0233999999999996 -1.1328 -0.4858 41
-3.3926 -1.2715 0.12480000000000001 17
-3.125 -1.1709 -0.4236 69
-13.531199999999998 -5.0703 0.8384 145
-13.523399999999999 -5.0664 1.1758 187
-8.9766 -3.3632999999999997 1.0029000000000001 177
-8.8906 -3.3301 1.2158 103
-8.8516 -3.3145 1.4346 104
-12.1094 -4.5391 2.2734 34
-3.0077999999999996 -1.1152 -0.5581 136
-3.2422000000000004 -1.2021 0.039599999999999996 144
-3.0312 -1.124 -0.4863 27
-3.3711 -1.25 0.12380000000000001 7
-3.0995999999999997 -1.1484 -0.41969999999999996 241
-13.539100000000001 -5.0195 0.8373999999999999 36
-13.531199999999998 -5.0156 1.1748 202
-9.0 -3.3358999999999996 1.0039 19
-12.0625 -4.4727 1.6494 219
-8.8438 -3.2773000000000003 1.4316 118
-9.9766 -3.6973000000000003 1.8681999999999999 186
-2.9901999999999997 -1.0967 -0.5542 70
-3.2539 -1.1934 0.039599999999999996 136
-3.0370999999999997 -1.1133 -0.4868 214
-3.3516000000000004 -1.2295 0.1229 92
-3.1699 -1.1621 -0.42869999999999997 104
-13.523399999999999 -4.957 0.8354 41
-13.523399999999999 -4.9609 1.1729 247
-8.9844 -3.2949 1.001 135
-12.0469 -4.418 1.6455000000000002 61
-8.8672 -3.252 1.4336000000000002 238
-12.101600000000001 -4.4375 2.2656 98
-3.0 -1.0879 -0.5552 124
-3.2363 -1.1738 0.0393 67
-3.0391000000000004 -1.1025 -0.4863 215
-3.3848000000000003 -1.2275 0.12390000000000001 169
-3.1367000000000003 -1.1377 -0.4236 146
-13.523399999999999 -4.9062 0.8345 145
-13.523399999999999 -4.9062 1.1709 132
-9.0156 -3.2695 1.0029000000000001 179
-12.156199999999998 -4.4102 1.6572 44
-11.843800000000002 -4.2969 1.915 122
-8.8594 -3.2129000000000003 1.6543 197
-2.9941000000000004 -1.0752 -0.5537 17
-3.2539 -1.168 0.039599999999999996 81
-3.0312 -1.0879 -0.48460000000000003 206
-3.3848000000000003 -1.2148 0.12380000000000001 179
-3.1406 -1.1279000000000001 -0.4236 81
-13.523399999999999 -4.8555 0.8334999999999999 79
-13.531199999999998 -4.8594 1.1709 116
-9.0312 -3.2441000000000004 1.0039 142
-12.1875 -4.3789 1.6611000000000002 96
-8.8672 -3.1855 1.6543 76
-3.002 -1.0664 -0.5542 138
-3.3105 -1.1768 0.04019999999999999 70
-3.0214999999999996 -1.0732 -0.4824 144
-3.3808999999999996 -1.2012 0.1235 1
-3.1094 -1.1055 -0.4192 74
-13.5156 -4.8008 0.8315 145
-13.5156 -4.8008 1.168 104
-9.0547 -3.2168 1.0049 138
-12.1953 -4.3359 1.6602000000000001 242
-11.8203 -4.1992 1.9062000000000001 233
-3.0117000000000003 -1.0576 -0.5557 7
-3.2733999999999996 -1.1494 0.0397 75
-3.0195 -1.0605 -0.4817 54
-3.3516000000000004 -1.1768 0.1223 32
-3.1483999999999996 -1.1055 -0.4236 159
-13.523399999999999 -4.75 0.8315 89
-13.523399999999999 -4.75 1.167 39
-9.0859 -3.1895 1.0068000000000001 243
-12.1953 -4.2812 1.6572 31
-11.8047 -4.1484 1.9022999999999999 154
-8.9062 -3.127 1.6562000000000001 115
-2.9863 -1.0371 -0.5498 144
-3.293 -1.1436 0.039900000000000005 237
-3.0332 -1.0537 -0.4832 123
-3.3476999999999997 -1.1621 0.1219 171
-3.1035000000000004 -1.0771 -0.41700000000000004 214
-13.5156 -4.6953 0.8295999999999999 48
-13.531199999999998 -4.6992 1.166 142
-12.343800000000002 -4.2852 1.3691 176
-12.218800000000002 -4.2422 1.6582 134
-11.8203 -4.1055 1.9013999999999998 141
-8.9297 -3.0995999999999997 1.6591999999999998 12
-2.9824 -1.0234 -0.5488000000000001 129
-3.332 -1.1436 0.0403 221
-3.0293 -1.04 -0.4819 86
-3.3867000000000003 -1.1621 0.1232 233
-3.1562 -1.083 -0.4236 20
-13.5469 -4.6484 0.8306 188
-9.1172 -3.127 0.7831999999999999 28
-12.3594 -4.2422 1.3681999999999999 35
-9.3125 -3.1973000000000003 1.2617 28
-8.5078 -2.9199 1.3652000000000002 112
-12.085899999999999 -4.1484 2.2461 73
-2.9824 -1.0117 -0.5478999999999999 39
-3.0233999999999996 -1.0254 -0.4805 195
-3.375 -1.1445 0.12269999999999999 87
-3.1289 -1.0615 -0.41969999999999996 185
-13.6875 -4.6445 0.8384 42
-9.1016 -3.0879000000000003 0.7812 17
-9.2422 -3.1367000000000003 1.0215 10
-9.3281 -3.1641000000000004 1.2617 230
-9.6094 -3.2598000000000003 1.541 27
-8.0625 -2.7344 1.4931999999999999 132
-2.9863 -1.001 -0.5478999999999999 18
-3.0156 -1.0117 -0.47850000000000004 175
-3.3339999999999996 -1.1181999999999999 0.121 214
-3.1641000000000004 -1.0605 -0.4236 213
-14.0469 -4.7109 0.8593999999999999 1
-9.0859 -3.0469 0.7787999999999999 112
-9.25 -3.1016000000000004 1.0205 148
-12.1875 -4.0859 1.6484 62
-9.5234 -3.1933999999999996 1.5253999999999999 143
-8.0859 -2.7129000000000003 1.4971 202
-2.9863 -0.9897 -0.5474 124
-3.0214999999999996 -1.002 -0.479 254
-3.3262 -1.1025 0.12050000000000001 22
-3.168 -1.0498 -0.4236 36
-14.226600000000001 -4.7148 0.8691 89
-9.1094 -3.0195 0.7803 214
-9.2578 -3.0683999999999996 1.0205 103
-12.210899999999999 -4.0469 1.6494 148
-9.5625 -3.1699 1.5293 20
-8.125 -2.6933999999999996 1.5019999999999998 95
-2.9785000000000004 -0.9761 -0.5449 40
-3.0332 -0.9941 -0.48 102
-3.3516000000000004 -1.0986 0.12140000000000001 37
-3.1699 -1.0391 -0.4236 70
-9.1406 -2.9961 0.5566 247
-9.1328 -2.9941000000000004 0.7812 206
-12.351600000000001 -4.0469 1.3613 106
-12.2031 -4.0 1.6465 85
-8.0469 -2.6367000000000003 1.2841999999999998 214
-12.093800000000002 -3.9648000000000003 2.2363 80
-2.9745999999999997 -0.9643999999999999 -0.5439 161
-3.0293 -0.9819 -0.4792 109
-3.3711 -1.0928 0.1219 116
-3.1738 -1.0293 -0.4236 81
-9.125 -2.957 0.5552 97
-9.1719 -2.9745999999999997 0.7842 24
-12.343800000000002 -4.0039 1.3594 78
-12.1875 -3.9512 1.6425999999999998 137
-8.0859 -2.6211 1.29 40
-8.8828 -2.8789 1.6387 102
-2.9824 -0.9541 -0.5449 130
-3.0214999999999996 -0.9662999999999999 -0.4771 46
-3.3516000000000004 -1.0723 0.1211 122
-3.1776999999999997 -1.0166 -0.4236 127
-9.1094 -2.9141000000000004 0.5537 37
-14.7578 -4.7227 1.2617 14
-12.3594 -3.9531 1.3584 152
-12.1797 -3.8964999999999996 1.6396000000000002 128
-11.9453 -3.8223000000000003 1.9062000000000001 1
-8.9141 -2.8516000000000004 1.6425999999999998 247
-2.9941000000000004 -0.9462999999999999 -0.5464 160
-3.0214999999999996 -0.9551000000000001 -0.4768 172
-3.3223000000000003 -1.0498 0.1199 179
-3.1816000000000004 -1.0059 -0.4236 142
-9.125 -2.8848000000000003 0.5542 17
-14.875 -4.7031 1.2705 211
-12.3594 -3.9062 1.3574000000000002 10
-12.1797 -3.8495999999999997 1.6377000000000002 33
-12.0703 -3.8164 2.2246 193
-2.9961 -0.9359999999999999 -0.5464 5
-3.0117000000000003 -0.9409000000000001 -0.4746 76
-3.2949 -1.0293 0.11869999999999999 139
-9.1016 -2.8438 0.5522 229
-15.085899999999999 -4.7109 1.2871000000000001 44
-12.351600000000001 -3.8574 1.3555000000000001 155
-12.148399999999999 -3.7949 1.6318000000000001 209
-12.085899999999999 -3.7754000000000003 2.2246 130
-2.9785000000000004 -0.9198999999999999 -0.5425 3
-3.0254000000000003 -0.9340999999999999 -0.47609999999999997 217
-3.3026999999999997 -1.0195 0.1189 117
-9.1016 -2.8086 0.5513 221
-15.25 -4.7109 1.2997999999999998 90
-12.351600000000001 -3.8145 1.3544999999999998 156
-12.1328 -3.7461 1.6279 76
-8.9453 -2.7617000000000003 1.4209 231
-12.0781 -3.7305 2.2227 198
-2.9726999999999997 -0.9062 -0.5405 100
-3.0195 -0.9204000000000001 -0.47490000000000004 99
-3.3202999999999996 -1.0117 0.11939999999999999 208
-9.1016 -2.7733999999999996 0.5508 162
-9.125 -2.7812 0.7759 212
-12.343800000000002 -3.7637 1.3516 191
-12.156199999999998 -3.7051 1.6299000000000001 202
-8.9219 -2.7188 1.416 191
-12.0781 -3.6816000000000004 2.2188 164
-2.9785000000000004 -0.8965000000000001 -0.541 227
-3.0156 -0.9077 -0.4739 216
-3.3047000000000004 -0.9945999999999999 0.11869999999999999 204
-9.125 -2.7461 0.5518 67
-9.0938 -2.7382999999999997 0.7725 132
-12.3594 -3.7188 1.3516 162
-12.164100000000001 -3.6601999999999997 1.6279 103
-8.9844 -2.7051 1.4247999999999998 64
-12.0781 -3.6348000000000003 2.2168 245
-2.9863 -0.8876999999999999 -0.542 186
-3.0117000000000003 -0.895 -0.4727 210
-3.2773000000000003 -0.9741 0.1176 204
-3.1992000000000003 -0.9501999999999999 -0.4236 152
-9.1719 -2.7266000000000004 0.5542 153
-9.1094 -2.707 0.7725 99
-9.0859 -2.7012 0.9917 104
-12.1797 -3.6191000000000004 1.6288999999999998 237
-11.8125 -3.5117000000000003 1.8730000000000002 199
-12.085899999999999 -3.5898000000000003 2.2148 70
-2.9844 -0.8755 -0.541 61
-3.0137 -0.8843000000000001 -0.4727 109
-3.2812 -0.9629000000000001 0.1176 143
-15.4531 -4.5352 0.9346 238
-9.1406 -2.6816000000000004 0.7744 61
-9.0703 -2.6601999999999997 0.9887999999999999 126
-12.1875 -3.5742000000000003 1.6279 137
-11.7969 -3.4608999999999996 1.8681999999999999 79
-8.8203 -2.5879000000000003 1.6143 109
-2.9824 -0.8633 -0.54 195
-3.0214999999999996 -0.875 -0.4731 189
-3.2773000000000003 -0.9492 0.1174 113
-3.2051 -0.9281999999999999 -0.4236 67
-9.1875 -2.6620999999999997 0.7778 104
-9.0859 -2.6308999999999996 0.9893000000000001 135
-12.1875 -3.5293 1.6269999999999998 150
-11.789100000000001 -3.4120999999999997 1.8643 172
-12.085899999999999 -3.5 2.2109 162
-2.9707 -0.8491 -0.5376 147
-3.0098000000000003 -0.8599 -0.4707 71
-3.293 -0.9409000000000001 0.1177 114
-15.4531 -4.418 1.3096 124
-12.3594 -3.5312 1.3466999999999998 76
-8.9609 -2.5605 1.1934 66
-8.9062 -2.5469 1.4062000000000001 99
-12.0781 -3.4512 2.207 113
-2.9785000000000004 -0.8398 -0.5381 123
-3.0039 -0.8477 -0.46950000000000003 5
-3.2910000000000004 -0.9281999999999999 0.1176 58
-15.4531 -4.3594 0.9316 185
-15.4453 -4.3555 1.3066 110
-9.2969 -2.623 1.0107 29
-8.9609 -2.5273 1.1924 191
-8.9453 -2.5215 1.4102000000000001 249
-12.0781 -3.4062 2.2051 238
-2.9805 -0.8295999999999999 -0.5381 32
-2.9941000000000004 -0.833 -0.4675 170
-3.2714999999999996 -0.9102 0.1168 164
-15.4375 -4.2969 1.3056999999999999 210
-9.2969 -2.5858999999999996 1.0098 81
-11.843800000000002 -3.2949 1.8681999999999999 55
-12.0781 -3.3594 2.2031 64
-2.9844 -0.8193 -0.5381 181
-3.002 -0.8242 -0.4683 98
-3.2832 -0.9009 0.11710000000000001 238
-21.9375 -6.0234000000000005 1.3213 92
-15.4453 -4.2383 1.3047 210
-9.2969 -2.5527 1.0088 247
-12.1953 -3.3476999999999997 1.6211000000000002 135
-11.7969 -3.2382999999999997 1.8584 203
-12.093800000000002 -3.3202999999999996 2.2051 197
-2.9707 -0.8047 -0.5356000000000001 232
-3.0098000000000003 -0.8149 -0.469 234
-3.2617000000000003 -0.8833 0.1162 251
-20.7344 -5.613300000000001 1.2470999999999999 202
-15.4531 -4.1836 1.3037 197
-9.3125 -2.5215 1.0098 152
-12.226600000000001 -3.3105 1.6230000000000002 75
-8.8203 -2.3887 1.3866999999999998 29
-12.0781 -3.2695 2.1992 142
-2.9648000000000003 -0.7925 -0.5337 222
-3.0117000000000003 -0.8051999999999999 -0.469 164
-3.2851999999999997 -0.8784000000000001 0.11689999999999999 27
-19.5156 -5.2188 1.1729 206
-15.4531 -4.1328 1.3027000000000002 11
-9.3203 -2.4922 1.0098 135
-12.210899999999999 -3.2656 1.6200999999999999 96
-8.8984 -2.3789 1.3984 197
-12.0625 -3.2266000000000004 2.1953 25
-2.9668 -0.7827 -0.5337 95
-3.0156 -0.7954000000000001 -0.469 185
-3.2754000000000003 -0.8643000000000001 0.1165 41
-3.2266000000000004 -0.8511 -0.4236 169
-19.6719 -5.1914 1.1816 149
-15.4375 -4.0742 1.3008000000000002 251
-9.3594 -2.4688 1.0127 165
-12.2031 -3.2188 1.6181999999999999 219
-9.0625 -2.3906 1.4228999999999998 119
-12.0703 -3.1855 2.1953 68
-2.9785000000000004 -0.7734000000000001 -0.5352 158
-2.9882999999999997 -0.7764 -0.4644 163
-3.2637 -0.8477 0.11599999999999999 25
-3.1211 -0.8109999999999999 -0.4094 150
-19.8906 -5.167999999999999 1.1934 13
-15.5 -4.0273 1.3047 61
-9.3984 -2.4395 1.0156 194
-12.2031 -3.168 1.6162 53
-9.1016 -2.3633 1.4277000000000002 11
-8.6797 -2.2559 1.5741999999999998 70
-2.9805 -0.7631999999999999 -0.5352 10
-2.998 -0.7676000000000001 -0.4653 64
-3.2695 -0.8373999999999999 0.1161 196
-3.1523000000000003 -0.8066 -0.4131 161
-12.3906 -3.1719 0.7417 18
-3.0898000000000003 -0.7915000000000001 -0.3308 94
-12.398399999999999 -3.1757999999999997 1.042 20
-3.1055 -0.7948999999999999 -0.2581 183
-9.4062 -2.4082 1.0156 116
-12.218800000000002 -3.1289 1.6172 83
-11.781199999999998 -3.0176 1.8486000000000002 16
-12.0156 -3.0762 2.1797 202
-2.9707 -0.75 -0.5332 151
-3.0117000000000003 -0.7603 -0.467 90
-3.2558999999999996 -0.8223 0.1155 134
-12.3594 -3.1211 0.7393000000000001 81
-3.1289 -0.7896 -0.3345 221
-12.3672 -3.1211 1.0381 186
-3.127 -0.7896 -0.25980000000000003 151
-9.4297 -2.3809 1.0176 25
-3.1151999999999997 -0.7866 -0.18420000000000003 84
-12.218800000000002 -3.0839999999999996 1.6152000000000002 101
-11.781199999999998 -2.9745999999999997 1.8466999999999998 167
-11.9453 -3.0156 2.1641 139
-2.9745999999999997 -0.7402 -0.5332 8
-3.0077999999999996 -0.7490000000000001 -0.46630000000000005 121
-3.2577999999999996 -0.8109999999999999 0.1155 155
-12.335899999999999 -3.0702999999999996 0.7368000000000001 166
-3.0957 -0.7709999999999999 -0.3308 187
-12.3672 -3.0801 1.0371 62
-3.1757999999999997 -0.7905 -0.2637 232
-9.4844 -2.3594 1.0225 139
-12.226600000000001 -3.0449 1.6152000000000002 92
-3.1641000000000004 -0.7876000000000001 -0.1121 183
-11.789100000000001 -2.9355 1.8457 236
-11.8594 -2.9531 2.1484 196
-2.9648000000000003 -0.7261 -0.5307999999999999 194
-2.998 -0.7339 -0.46409999999999996 128
-3.2656 -0.7998000000000001 0.11560000000000001 134
-12.351600000000001 -3.0254000000000003 0.7373000000000001 181
-3.0879000000000003 -0.7559 -0.3296 208
-12.3906 -3.0351999999999997 1.0381 145
-3.1327999999999996 -0.7670999999999999 -0.25980000000000003 99
-9.5312 -2.334 1.0264 52
-12.226600000000001 -2.9941000000000004 1.6143 89
-11.8125 -2.8926 1.8477000000000001 168
-3.1504000000000003 -0.7715000000000001 -0.037000000000000005 229
-11.8125 -2.8926 2.1367 172
-2.9745999999999997 -0.7178 -0.5322 168
-2.9901999999999997 -0.7212000000000001 -0.46259999999999996 13
-3.248 -0.7837000000000001 0.1149 39
-12.3828 -2.9863 0.7383 198
-3.0742000000000003 -0.7417 -0.32789999999999997 146
-12.398399999999999 -2.9901999999999997 1.0381 242
-3.1151999999999997 -0.7515000000000001 -0.2581 118
-9.6328 -2.3242 1.0371 42
-9.6641 -2.3301 1.2725 226
-11.851600000000001 -2.8574 1.8525 27
-9.2031 -2.2207 1.6621000000000001 84
-2.9745999999999997 -0.7065 -0.5317000000000001 56
-3.0058999999999996 -0.7139 -0.4648 4
-3.2245999999999997 -0.7656000000000001 0.114 139
-12.414100000000001 -2.9492000000000003 0.7397 57
-3.1387 -0.7456 -0.3345 9
-12.4844 -2.9648000000000003 1.0439 5
-3.0995999999999997 -0.7358 -0.2566 80
-12.414100000000001 -2.9492000000000003 1.3369 253
-9.6484 -2.291 1.2705 233
-9.6484 -2.293 1.5059 38
-9.2188 -2.1895 1.6631 174
-2.9688 -0.6943 -0.5303 200
-3.0058999999999996 -0.7026 -0.46409999999999996 124
-3.25 -0.7598 0.11470000000000001 147
-3.1523000000000003 -0.7368000000000001 -0.41090000000000004 176
-12.4922 -2.9199 0.7437 110
-3.0957 -0.7236 -0.3296 68
-13.468800000000002 -3.1504000000000003 1.126 125
-3.0938 -0.7236 -0.2559 79
-12.5 -2.9219 1.3447 102
-9.6484 -2.2559 1.2695 246
-9.6641 -2.2598 1.5068000000000001 131
-11.789100000000001 -2.7577999999999996 2.127 70
-2.9688 -0.6840999999999999 -0.5297999999999999 221
-3.0098000000000003 -0.6934 -0.4644 63
-3.2363 -0.7456 0.1142 7
-3.0586 -0.7041 -0.3982 247
-13.468800000000002 -3.1016000000000004 0.8012999999999999 243
-3.1094 -0.7158 -0.3308 153
-13.476600000000001 -3.1035000000000004 1.126 61
-3.1074 -0.7158 -0.2568 33
-13.460899999999999 -3.1016000000000004 1.4472999999999998 36
-9.6797 -2.2285 1.2725 138
-9.6797 -2.2305 1.5088 12
-9.5938 -2.209 1.7285 24
-2.9668 -0.6733 -0.5293 222
-3.0 -0.6807 -0.46259999999999996 113
-3.2422000000000004 -0.7354 0.1143 61
-3.1113 -0.7056 -0.4048 115
-13.476600000000001 -3.0566000000000004 0.8012999999999999 1
-3.1113 -0.7056 -0.3308 14
-13.476600000000001 -3.0566000000000004 1.125 105
-3.1113 -0.7056 -0.2568 196
-13.4844 -3.0586 1.4491999999999998 255
-3.2617000000000003 -0.7397 -0.19190000000000002 84
-9.7266 -2.207 1.5146000000000002 112
-9.5703 -2.1719 1.7236000000000002 94
-2.9707 -0.6620999999999999 -0.5293 90
-3.0 -0.6689 -0.46240000000000003 65
-3.2285000000000004 -0.7197 0.1137 213
-3.0781 -0.6865000000000001 -0.40009999999999996 192
-13.476600000000001 -3.0058999999999996 0.8008 53
-3.0858999999999996 -0.6884999999999999 -0.32789999999999997 52
-13.460899999999999 -3.002 1.123 59
-3.0898000000000003 -0.6890000000000001 -0.25489999999999996 152
-13.4922 -3.0077999999999996 1.4482 87
-12.226600000000001 -2.7266000000000004 1.6063999999999998 32
-9.8281 -2.1914 1.5283000000000002 200
-9.5938 -2.1387 1.7256 159
-2.9688 -0.6509 -0.5283 76
-3.0077999999999996 -0.6597 -0.4629 181
-3.2344 -0.7095 0.11380000000000001 185
-3.0801 -0.6758 -0.40009999999999996 77
-13.476600000000001 -2.957 0.8003 79
-3.0898000000000003 -0.6777 -0.32789999999999997 26
-13.476600000000001 -2.9551 1.123 58
-3.1113 -0.6826000000000001 -0.2566 24
-13.4844 -2.957 1.4463 78
-3.2129000000000003 -0.7045999999999999 -0.1886 255
-12.2422 -2.6855 1.6074000000000002 87
-9.875 -2.166 1.5352000000000001 74
-9.5859 -2.1016 1.7227000000000001 238
-2.9629000000000003 -0.6392 -0.5268999999999999 128
-3.0039 -0.6479 -0.4619 205
-3.2324 -0.6968000000000001 0.11359999999999999 53
-3.0683999999999996 -0.6616 -0.3982 232
-13.468800000000002 -2.9043 0.7993000000000001 148
-3.0762 -0.6636 -0.3262 193
-13.468800000000002 -2.9043 1.1220999999999999 41
-3.1132999999999997 -0.6714 -0.2566 32
-13.4531 -2.9023000000000003 1.4424000000000001 145
-3.1523000000000003 -0.6797 -0.18489999999999998 125
-12.2578 -2.6426 1.6074000000000002 254
-12.031199999999998 -2.5957 1.8711000000000002 59
-9.8516 -2.123 1.7686000000000002 41
-2.9531 -0.6265 -0.5249 93
-3.0098000000000003 -0.6382 -0.46259999999999996 225
-3.2363 -0.6859999999999999 0.1137 162
-3.0781 -0.6523 -0.3992 51
-13.468800000000002 -2.8555 0.7983 81
-3.0702999999999996 -0.6509 -0.32520000000000004 2
-13.4844 -2.8594 1.1220999999999999 190
-3.1151999999999997 -0.6606000000000001 -0.2566 246
-13.468800000000002 -2.8555 1.4424000000000001 175
-3.1464999999999996 -0.667 -0.1844 52
-12.2422 -2.5957 1.6044999999999998 203
-12.0703 -2.5586 1.875 30
-9.8828 -2.0957 1.7744 233
-2.9629000000000003 -0.6172 -0.5264 130
-3.0 -0.6245 -0.4607 23
-3.248 -0.6762999999999999 0.11410000000000001 92
-3.0526999999999997 -0.6357 -0.39549999999999996 131
-13.460899999999999 -2.8026999999999997 0.7974 185
-3.0995999999999997 -0.6455 -0.3281 63
-13.468800000000002 -2.8026999999999997 1.1201 102
-3.123 -0.6498999999999999 -0.2568 82
-13.4844 -2.8086 1.4434 210
-3.1523000000000003 -0.6562 -0.18469999999999998 60
-12.25 -2.5508 1.6044999999999998 62
-12.085899999999999 -2.5156 1.875 231
-11.75 -2.4473 2.1094 89
-2.9688 -0.6069 -0.5268999999999999 70
-2.9941000000000004 -0.6123 -0.4597 135
-3.2207 -0.6587000000000001 0.113 3
-3.0391000000000004 -0.6215999999999999 -0.3936 247
-13.539100000000001 -2.7695 0.8012999999999999 111
-3.082 -0.6304 -0.3262 111
-13.539100000000001 -2.7695 1.125 248
-3.0976999999999997 -0.6333 -0.2546 183
-13.476600000000001 -2.7558999999999996 1.4404 135
-3.1582 -0.6459999999999999 -0.18489999999999998 57
-12.2578 -2.5078 1.6044999999999998 101
-3.2245999999999997 -0.6597 -0.11320000000000001 128
-12.085899999999999 -2.4727 1.875 150
-11.7656 -2.4062 2.1094 136
-2.9707 -0.5972 -0.5268999999999999 144
-3.002 -0.604 -0.4604 57
-3.2168 -0.647 0.1128 125
-3.0839999999999996 -0.6201 -0.3992 48
-13.5625 -2.7266000000000004 0.8022 105
-3.0879000000000003 -0.6211 -0.3267 102
-13.5703 -2.7285000000000004 1.127 30
-3.0839999999999996 -0.6201 -0.2532 229
-13.468800000000002 -2.7089999999999996 1.4394999999999998 52
-3.1699 -0.6372 -0.18539999999999998 89
-12.25 -2.4629 1.6025 99
-3.1327999999999996 -0.6299 -0.10980000000000001 17
-12.085899999999999 -2.4297 1.8730000000000002 170
-3.1523000000000003 -0.6338 -0.036699999999999997 81
-11.7656 -2.3652 2.1094 28
-2.9648000000000003 -0.5859000000000001 -0.5254 85
-3.3613 -0.6640999999999999 0.0392 65
-3.0077999999999996 -0.5947 -0.4612 100
-3.2188 -0.6362 0.1128 144
-13.5703 -2.6836 0.8022 19
-13.5703 -2.6836 1.127 83
-13.468800000000002 -2.6620999999999997 1.4385 216
-12.25 -2.4219 1.6006 155
-3.2305 -0.6382 -0.11320000000000001 57
-12.093800000000002 -2.3906 1.874 22
-3.1933999999999996 -0.6313 -0.037200000000000004 55
-11.7656 -2.3262 2.1074 136
-2.9551 -0.5722999999999999 -0.5234000000000001 19
-3.2188 -0.623 0.0374 185
-3.0077999999999996 -0.5825 -0.4607 181
-3.2245999999999997 -0.6245 0.11289999999999999 68
-13.5781 -2.6289 0.8018000000000001 40
-13.6094 -2.6367000000000003 1.1289 49
-13.468800000000002 -2.6094 1.4375 197
-12.25 -2.373 1.5996000000000001 213
-12.101600000000001 -2.3438 1.8730000000000002 0
-11.7656 -2.2793 2.1055 218
-2.9608999999999996 -0.5625 -0.5239 39
-3.0 -0.5698 -0.45899999999999996 12
-3.2401999999999997 -0.6157 0.1133 205
-13.585899999999999 -2.582 0.8018000000000001 91
-13.585899999999999 -2.582 1.126 203
-13.468800000000002 -2.5605 1.4365 188
-12.2422 -2.3262 1.5966999999999998 140
-11.8594 -2.2539 1.834 228
-11.773399999999999 -2.2363 2.1055 107
-2.9707 -0.5547 -0.5254 202
-2.9863 -0.5581 -0.4568 215
-3.2108999999999996 -0.5996 0.11220000000000001 16
-13.593800000000002 -2.5391 0.8018000000000001 151
-13.5781 -2.5352 1.124 159
-13.476600000000001 -2.5176 1.4365 121
-12.25 -2.2871 1.5977000000000001 147
-11.843800000000002 -2.2129 1.8311000000000002 96
-11.7656 -2.1973 2.1035 212
-2.9688 -0.5444 -0.5244 241
-2.998 -0.5498 -0.4585 14
-3.2245999999999997 -0.5913 0.1127 142
-13.585899999999999 -2.4902 0.8008 137
-13.5703 -2.4883 1.123 168
-13.468800000000002 -2.4688 1.4346 115
-12.25 -2.2461 1.5966999999999998 236
-11.843800000000002 -2.1719 1.8300999999999998 198
-11.773399999999999 -2.1602 2.1035 204
-2.9551 -0.5307999999999999 -0.522 205
-3.0 -0.5390999999999999 -0.4585 39
-3.2226999999999997 -0.5786 0.1125 95
-13.5703 -2.4375 0.7998000000000001 4
-13.593800000000002 -2.4414 1.125 241
-13.468800000000002 -2.418 1.4336000000000002 210
-12.25 -2.2012 1.5957 19
-11.875 -2.1328 1.8330000000000002 162
-11.773399999999999 -2.1133 2.1016 232
-2.957 -0.52 -0.522 58
-3.0077999999999996 -0.5293 -0.4592 235
-3.2401999999999997 -0.5703 0.1131 59
-13.5703 -2.3887 0.7993000000000001 122
-13.593800000000002 -2.3926 1.124 204
-13.4844 -2.373 1.4346 33
-12.2578 -2.1562 1.5957 12
-12.101600000000001 -2.1309 1.8672 35
-11.7656 -2.0703 2.0996 160
-2.9589999999999996 -0.5097999999999999 -0.522 15
-3.0 -0.5171 -0.4578 115
-3.25 -0.5600999999999999 0.1133 69
-13.5703 -2.3398 0.7983 103
-13.5781 -2.3398 1.1220999999999999 142
-13.4922 -2.3262 1.4346 202
-12.25 -2.1113 1.5937999999999999 26
-12.125 -2.0898 1.8700999999999999 116
-11.7656 -2.0273 2.0977 158
-2.9648000000000003 -0.5005 -0.5229 157
-2.9961 -0.5059 -0.4568 227
-3.2245999999999997 -0.5444 0.1124 225
-13.5703 -2.291 0.7979 254
-13.5625 -2.2891 1.1201 140
-13.5078 -2.2812 1.4355000000000002 234
-12.2578 -2.0684 1.5937999999999999 38
-12.101600000000001 -2.043 1.8652000000000002 205
-11.7656 -1.9853999999999998 2.0957 154
-2.9629000000000003 -0.489 -0.5225 235
-2.9961 -0.49439999999999995 -0.45649999999999996 119
-3.2266000000000004 -0.5322 0.1124 113
-13.5703 -2.2383 0.7974 41
-13.5625 -2.2383 1.1191 178
-13.4922 -2.2266 1.4325999999999999 222
-12.273399999999999 -2.0254 1.5937999999999999 205
-12.101600000000001 -1.9971 1.8633000000000002 45
-11.7656 -1.9413999999999998 2.0957 17
-2.957 -0.4775 -0.521 241
-2.998 -0.4839 -0.45649999999999996 136
-3.2089999999999996 -0.5181 0.1117 114
-13.5547 -2.1875 0.7959 166
-13.5625 -2.1895 1.1191 183
-13.4922 -2.1777 1.4316 52
-12.273399999999999 -1.9813999999999998 1.5937999999999999 207
-12.1172 -1.9561000000000002 1.8652000000000002 182
-11.7578 -1.8984 2.0918 56
-2.9531 -0.4668 -0.52 126
-3.0 -0.47409999999999997 -0.45649999999999996 211
-3.2344 -0.5112 0.1125 224
-13.523399999999999 -2.1367 0.7939 207
-13.4844 -2.1309 1.1113 100
-13.4531 -2.125 1.4268 179
-12.2656 -1.9385 1.5928 100
-12.1172 -1.915 1.8643 51
-11.75 -1.8563999999999998 2.0898 227
-2.9589999999999996 -0.4575 -0.5205 114
-2.9941000000000004 -0.4629 -0.45530000000000004 232
-3.2245999999999997 -0.4985 0.1121 94
-13.4375 -2.0781 0.7886 92
-13.4375 -2.0781 1.1074 251
-13.468800000000002 -2.082 1.4277000000000002 101
-12.2578 -1.8944999999999999 1.5897999999999999 168
-12.125 -1.875 1.8643 218
-11.7578 -1.8184 2.0898 224
-2.9589999999999996 -0.44630000000000003 -0.52 49
-2.9941000000000004 -0.45189999999999997 -0.45530000000000004 247
-3.2207 -0.4861 0.11199999999999999 245
-13.4453 -2.0293 0.7886 207
-13.4297 -2.0254 1.1055 236
-13.460899999999999 -2.0312 1.4258000000000002 23
-12.2656 -1.8516 1.5908000000000002 9
-12.1172 -1.8281 1.8613 155
-11.7578 -1.7744 2.0898 86
-2.9589999999999996 -0.436 -0.52 101
-2.9863 -0.4399 -0.4539 49
-3.2031 -0.4719 0.11130000000000001 242
-13.4453 -1.9813999999999998 0.7881 182
-13.4453 -1.9805000000000001 1.1064 183
-13.4453 -1.9805000000000001 1.4238 190
-12.273399999999999 -1.8086000000000002 1.5908000000000002 77
-12.101600000000001 -1.7832 1.8584 60
-11.773399999999999 -1.7344 2.0898 100
-2.9452999999999996 -0.4229 -0.5176 77
-2.9901999999999997 -0.4294 -0.45409999999999995 252
-3.2089999999999996 -0.4607 0.1114 246
-13.4375 -1.9287 0.7870999999999999 144
-13.4453 -1.9306999999999999 1.1055 216
-13.4375 -1.9297 1.4228999999999998 167
-12.289100000000001 -1.7646000000000002 1.5918 186
-12.1094 -1.7383000000000002 1.8594 13
-11.7656 -1.6885 2.0879 229
-2.9355 -0.41090000000000004 -0.5151 176
-3.0058999999999996 -0.42090000000000005 -0.45630000000000004 164
-3.2148000000000003 -0.45020000000000004 0.1116 195
-13.4375 -1.8809 0.7866 190
-13.4453 -1.8828 1.1055 209
-13.4453 -1.8818000000000001 1.4219 1
-12.2656 -1.7178 1.5878999999999999 109
-12.1172 -1.6963 1.8584 69
-11.7578 -1.6455000000000002 2.0859 111
-2.9452999999999996 -0.4023 -0.5166 157
-2.9882999999999997 -0.4082 -0.4534 254
-3.2168 -0.4395 0.1116 87
-13.4375 -1.8359 0.7861 180
-13.4375 -1.8359 1.1045 192
-13.4531 -1.8378999999999999 1.4228999999999998 200
-12.2656 -1.6758000000000002 1.5869 2
-12.1172 -1.6562000000000001 1.8584 33
-11.7422 -1.6044999999999998 2.082 236
-2.957 -0.39399999999999996 -0.5186 21
-2.9824 -0.3975 -0.4524 100
-3.1933999999999996 -0.4255 0.1107 90
-13.4375 -1.79 0.7856000000000001 186
-12.4922 -1.665 1.0264 208
-12.523399999999999 -1.6688999999999998 1.3232 142
-12.2656 -1.6347999999999998 1.5859 6
-12.1172 -1.6143 1.8574000000000002 101
-11.75 -1.5654 2.082 2
-2.9629000000000003 -0.3833 -0.5195000000000001 194
-2.9882999999999997 -0.3865 -0.45289999999999997 135
-3.1992000000000003 -0.4138 0.1108 112
-12.523399999999999 -1.6191 0.7319 158
-12.5156 -1.6181999999999999 1.0273 127
-12.5078 -1.6181999999999999 1.3213 48
-12.281199999999998 -1.5888999999999998 1.5878999999999999 161
-12.1172 -1.5663999999999998 1.8563999999999998 173
-11.7578 -1.5215 2.084 117
-2.9452999999999996 -0.3704 -0.5161 14
-3.002 -0.37770000000000004 -0.4548 155
-3.2051 -0.4031 0.111 208
-12.5078 -1.5741999999999998 0.731 47
-12.5078 -1.5732 1.0264 114
-12.4531 -1.5663999999999998 1.3144999999999998 3
-12.2656 -1.5430000000000001 1.585 106
-11.9375 -1.501 1.8281 161
-11.75 -1.4775 2.0801 209
-2.9375 -0.3599 -0.5146000000000001 33
-2.998 -0.36719999999999997 -0.45409999999999995 254
-3.2226999999999997 -0.3945 0.1116 230
-12.3828 -1.5166 0.7231000000000001 117
-12.3906 -1.5166 1.0156 212
-12.3594 -1.5127000000000002 1.3037 59
-12.2656 -1.5019999999999998 1.584 99
-11.875 -1.4541 1.8184 123
-11.7344 -1.4375 2.0781 91
-2.9355 -0.3496 -0.5136999999999999 26
-2.9882999999999997 -0.3557 -0.4524 2
-3.207 -0.3818 0.111 233
-12.3047 -1.4647999999999999 0.7182999999999999 164
-12.3281 -1.4678 1.0107 223
-12.3125 -1.4658000000000002 1.2988 114
-12.25 -1.459 1.5819999999999999 78
-11.8906 -1.415 1.8193000000000001 214
-11.75 -1.3994 2.0801 219
-2.9512 -0.3398 -0.5161 44
-2.9844 -0.3435 -0.4514 119
-3.1816000000000004 -0.3665 0.11 31
-12.2969 -1.416 0.7173 211
-12.3047 -1.4169999999999998 1.0078 112
-12.2969 -1.416 1.2959 42
-12.2578 -1.4121000000000001 1.5819999999999999 74
-11.8828 -1.3691 1.8174000000000001 95
-11.7422 -1.3525 2.0762 221
-2.9512 -0.3296 -0.5161 119
-2.9863 -0.3335 -0.4517 192
-3.1973000000000003 -0.3569 0.1106 26
-12.3047 -1.374 0.7178 26
-12.3047 -1.374 1.0078 19
-12.2969 -1.3730000000000002 1.2959 237
-12.2656 -1.3691 1.5819999999999999 177
-12.085899999999999 -1.3486000000000002 1.8477000000000001 183
-11.7656 -1.3135 2.0801 151
-2.9433999999999996 -0.3191 -0.5146000000000001 196
-2.9922000000000004 -0.3245 -0.4524 248
-3.207 -0.3479 0.1108 65
-12.3047 -1.335 0.7173 232
-12.343800000000002 -1.3388999999999998 1.0107 141
-12.3281 -1.3369 1.2988 146
-12.2578 -1.3291 1.5800999999999998 162
-12.1094 -1.3135 1.8516 129
-11.7422 -1.2734 2.0762 67
-2.9297000000000004 -0.3081 -0.5122 193
-3.0 -0.3154 -0.4536 38
-3.2012 -0.33640000000000003 0.1106 153
-12.3047 -1.2938999999999998 0.7173 165
-12.343800000000002 -1.2978999999999998 1.0107 227
-12.375 -1.2997999999999998 1.3027000000000002 150
-12.2578 -1.2881 1.5800999999999998 154
-12.1094 -1.2725 1.8496000000000001 136
-11.7344 -1.2334 2.0742 35
-2.9473000000000003 -0.2988 -0.5151 236
-2.9863 -0.30269999999999997 -0.4512 110
-3.2207 -0.3267 0.11130000000000001 135
-12.335899999999999 -1.251 0.7188 98
-12.4297 -1.2607 1.0166 121
-12.4453 -1.2617 1.3096 108
-12.3203 -1.25 1.5878999999999999 172
-12.1094 -1.2285 1.8496000000000001 92
-11.7422 -1.1904000000000001 2.0742 190
-2.9473000000000003 -0.28859999999999997 -0.5151 10
-2.9766000000000004 -0.2915 -0.4497 70
-3.2031 -0.3135 0.1106 164
-12.468800000000002 -1.2207 0.7261 62
-12.476600000000001 -1.2217 1.0205 62
-12.5078 -1.2236 1.3163999999999998 155
-12.414100000000001 -1.2148 1.5986000000000002 26
-12.1094 -1.1845999999999999 1.8486000000000002 50
-11.75 -1.1494 2.0742 42
-2.957 -0.2791 -0.5161 33
-2.9961 -0.2827 -0.4524 169
-3.1914 -0.3013 0.11019999999999999 235
-12.5156 -1.1806999999999999 0.7290000000000001 141
-12.5 -1.1797 1.0225 229
-12.5 -1.1797 1.3154 56
-12.4297 -1.1729 1.5996000000000001 134
-12.101600000000001 -1.1416 1.8477000000000001 109
-11.75 -1.1084 2.0742 255
-2.9452999999999996 -0.2676 -0.5142 40
-2.9922000000000004 -0.272 -0.4517 208
-3.1875 -0.2896 0.1099 93
-12.4844 -1.1338 0.7265999999999999 228
-12.5 -1.1357 1.0215 233
-12.4844 -1.1338 1.3135 48
-12.4844 -1.1338 1.6074000000000002 84
-12.335899999999999 -1.1201 1.8818000000000001 211
-11.7344 -1.0664 2.0703 40
-2.9395 -0.2571 -0.5127 45
-2.998 -0.2622 -0.4524 59
-3.2129000000000003 -0.2812 0.1108 72
-12.476600000000001 -1.0918 0.7261 115
-12.4922 -1.0928 1.0205 47
-12.4922 -1.0928 1.3135 45
-12.4844 -1.0918 1.6063999999999998 198
-12.351600000000001 -1.0811 1.8847999999999998 137
-11.726600000000001 -1.0254 2.0684 92
-2.9355 -0.24710000000000001 -0.5122 225
-2.9824 -0.251 -0.45 170
-3.2129000000000003 -0.2703 0.1108 214
-12.4844 -1.0508 0.7261 202
-12.4844 -1.0508 1.0195 148
-12.460899999999999 -1.0488 1.3096 27
-12.4453 -1.0479 1.6016 118
-12.351600000000001 -1.0391 1.8838 47
-11.7422 -0.9883 2.0703 91
-2.9492000000000003 -0.2373 -0.5142 49
-2.9726999999999997 -0.2391 -0.4482 61
-3.1952999999999996 -0.2571 0.11019999999999999 166
-12.4453 -1.001 0.7236 133
-12.4531 -1.002 1.0166 0
-12.476600000000001 -1.0039 1.3115 80
-12.4219 -0.9995 1.5977000000000001 125
-12.335899999999999 -0.9926999999999999 1.8809 131
-11.726600000000001 -0.9434 2.0664 26
-2.9492000000000003 -0.22690000000000002 -0.5142 231
-2.9726999999999997 -0.2288 -0.4482 31
-3.1855 -0.245 0.1097 100
-12.4922 -0.9614 0.7261 29
-12.476600000000001 -0.96 1.0186 130
-12.4844 -0.9609000000000001 1.3115 246
-12.4844 -0.9604 1.6055000000000001 120
-12.3281 -0.9487000000000001 1.8788999999999998 183
-11.726600000000001 -0.9023 2.0664 93
-2.9316000000000004 -0.2147 -0.5107 198
-2.9863 -0.2188 -0.45 242
-3.1816000000000004 -0.233 0.1096 87
-12.4922 -0.9155 0.7261 253
-12.5 -0.9155 1.0195 115
-12.476600000000001 -0.9140999999999999 1.3105000000000002 78
-12.476600000000001 -0.9140999999999999 1.6035 52
-12.3281 -0.9033 1.8788999999999998 219
-11.7344 -0.8599 2.0684 196
-2.9316000000000004 -0.2045 -0.5107 121
-2.9941000000000004 -0.2089 -0.4512 139
-3.2031 -0.2234 0.1103 116
-12.476600000000001 -0.8706 0.7251000000000001 219
-12.4922 -0.8715999999999999 1.0195 105
-12.4844 -0.8706 1.3105000000000002 236
-12.468800000000002 -0.8695999999999999 1.6025 193
-12.3594 -0.8623000000000001 1.8828 26
-11.726600000000001 -0.8179000000000001 2.0664 145
-2.9355 -0.19510000000000002 -0.5112 206
-2.9882999999999997 -0.1985 -0.45020000000000004 170
-3.1914 -0.2119 0.1099 179
-12.4844 -0.8291 0.7251000000000001 148
-12.4844 -0.8295999999999999 1.0186 193
-12.4844 -0.8295999999999999 1.3105000000000002 115
-12.468800000000002 -0.8281000000000001 1.6025 113
-12.460899999999999 -0.8276 1.8984 56
-11.8672 -0.7881 2.0898 42
-2.9375 -0.18530000000000002 -0.5112 128
-2.9766000000000004 -0.1877 -0.4482 9
-3.1992000000000003 -0.20190000000000002 0.11019999999999999 101
-12.4844 -0.7881 0.7256 156
-12.4844 -0.7876000000000001 1.0176 225
-12.476600000000001 -0.7870999999999999 1.3096 56
-12.468800000000002 -0.7866 1.6016 88
-12.406199999999998 -0.7827 1.8887 158
-12.351600000000001 -0.7793000000000001 2.1738 201
-2.9452999999999996 -0.17489999999999997 -0.5127 133
-2.9844 -0.1772 -0.4495 153
-3.1952999999999996 -0.1898 0.1099 101
-12.4844 -0.7417 0.7251000000000001 6
-12.476600000000001 -0.7417 1.0176 97
-12.4922 -0.7422 1.3105000000000002 12
-12.476600000000001 -0.7412000000000001 1.6016 137
-12.460899999999999 -0.7402 1.8965 222
-10.2031 -0.6064 1.7949000000000002 114
-2.9336 -0.1641 -0.5107 243
-2.9863 -0.16699999999999998 -0.4497 162
-3.2012 -0.179 0.11019999999999999 58
-12.4844 -0.6978 0.7245999999999999 95
-12.4844 -0.6978 1.0176 123
-12.468800000000002 -0.6973 1.3086000000000002 58
-12.476600000000001 -0.6978 1.6025 132
-12.476600000000001 -0.6973 1.8984 177
-10.1875 -0.5698 1.7919999999999998 140
-2.9395 -0.15410000000000001 -0.5112 181
-2.9901999999999997 -0.1566 -0.45 215
-3.1973000000000003 -0.16760000000000003 0.11 60
-12.476600000000001 -0.6537999999999999 0.7241 9
-12.4922 -0.6548 1.0186 155
-12.4844 -0.6543000000000001 1.3096 36
-12.476600000000001 -0.6537999999999999 1.6016 60
-12.476600000000001 -0.6543000000000001 1.8994 122
-12.3672 -0.6484000000000001 2.1758 50
-2.9414 -0.1438 -0.5117 238
-2.9785000000000004 -0.1456 -0.4482 114
-3.1816000000000004 -0.15560000000000002 0.1094 8
-12.4844 -0.6103999999999999 0.7245999999999999 196
-12.468800000000002 -0.6099 1.0166 53
-12.4922 -0.6108 1.3096 227
-12.468800000000002 -0.6099 1.5996000000000001 139
-12.476600000000001 -0.6099 1.8975 232
-10.2344 -0.5005 1.7988 90
-2.9452999999999996 -0.1338 -0.5127 74
-2.9766000000000004 -0.1351 -0.44780000000000003 198
-3.1973000000000003 -0.1451 0.1099 234
-12.4844 -0.5669 0.7241 111
-12.468800000000002 -0.5659000000000001 1.0156 51
-12.4922 -0.5674 1.3096 112
-12.468800000000002 -0.5664 1.6006 36
-12.460899999999999 -0.5659000000000001 1.8955000000000002 81
-12.3906 -0.5625 2.1797 254
-2.9473000000000003 -0.1235 -0.5127 74
-2.9745999999999997 -0.1247 -0.4475 183
-3.1816000000000004 -0.1333 0.1094 172
-12.4922 -0.5234000000000001 0.7245999999999999 217
-12.468800000000002 -0.5225 1.0156 47
-12.476600000000001 -0.5229 1.3075999999999999 193
-12.476600000000001 -0.5229 1.6006 144
-12.460899999999999 -0.5225 1.8955000000000002 114
-12.3828 -0.519 2.1777 44
-2.9297000000000004 -0.11359999999999999 -0.5097999999999999 3
-2.9824 -0.1157 -0.4487 141
-3.1757999999999997 -0.1231 0.1092 135
-12.476600000000001 -0.4836 0.7236 246
-12.4844 -0.4839 1.0166 163
-12.476600000000001 -0.4836 1.3075999999999999 37
-12.476600000000001 -0.4836 1.6006 209
-12.468800000000002 -0.48340000000000005 1.8965 103
-12.375 -0.4797 2.1758 124
-2.9297000000000004 -0.1038 -0.5093 251
-2.9961 -0.10619999999999999 -0.45039999999999997 148
-3.1933999999999996 -0.11320000000000001 0.10980000000000001 245
-12.476600000000001 -0.4421 0.7236 185
-12.4922 -0.4426 1.0176 225
-12.468800000000002 -0.4421 1.3066 19
-12.468800000000002 -0.44189999999999996 1.5996000000000001 109
-12.476600000000001 -0.4421 1.8965 9
-12.375 -0.4385 2.1758 103
-2.9355 -0.0928 -0.5103 159
-2.9766000000000004 -0.0941 -0.4475 75
-3.207 -0.1013 0.11019999999999999 128
-12.468800000000002 -0.39399999999999996 0.7231000000000001 41
-12.460899999999999 -0.39380000000000004 1.0146 202
-12.4922 -0.3948 1.3086000000000002 233
-12.4531 -0.3936 1.5977000000000001 161
-12.476600000000001 -0.3943 1.8975 1
-12.3594 -0.3906 2.1738 45
-2.9452999999999996 -0.0828 -0.5122 136
-2.9668 -0.0834 -0.446 20
-3.1875 -0.08960000000000001 0.1096 180
-12.476600000000001 -0.3508 0.7236 80
-12.468800000000002 -0.3503 1.0146 16
-12.4844 -0.35109999999999997 1.3086000000000002 107
-12.460899999999999 -0.3503 1.5986000000000002 67
-12.468800000000002 -0.3506 1.8955000000000002 238
-10.0391 -0.282 1.7627000000000002 247
-2.9414 -0.0724 -0.5112 158
-2.9785000000000004 -0.0733 -0.44780000000000003 109
-3.1875 -0.0784 0.1096 60
-12.4922 -0.30760000000000004 0.7245999999999999 43
-12.468800000000002 -0.3069 1.0156 70
-12.476600000000001 -0.3071 1.3066 129
-12.468800000000002 -0.3069 1.5996000000000001 38
-12.4531 -0.3064 1.8925999999999998 54
-12.398399999999999 -0.30519999999999997 2.1797 123
-2.9336 -0.062 -0.5103 183
-2.9785000000000004 -0.0629 -0.44780000000000003 65
-3.1836 -0.0673 0.1094 128
-12.476600000000001 -0.2634 0.7231000000000001 51
-12.4922 -0.2639 1.0166 203
-12.468800000000002 -0.2634 1.3066 11
-12.476600000000001 -0.2634 1.5996000000000001 245
-12.460899999999999 -0.2632 1.8936000000000002 94
-12.375 -0.2615 2.1758 94
-2.918 -0.051500000000000004 -0.5073 80
-2.9882999999999997 -0.0527 -0.4495 227
-3.1914 -0.056299999999999996 0.1097 199
-12.468800000000002 -0.2198 0.7227 65
-12.468800000000002 -0.2198 1.0156 129
-12.4844 -0.22010000000000002 1.3075999999999999 171
-12.460899999999999 -0.21960000000000002 1.5977000000000001 20
-12.468800000000002 -0.21969999999999998 1.8944999999999999 37
-12.3672 -0.218 2.1738 193
-2.9297000000000004 -0.0414 -0.5093 150
-2.9726999999999997 -0.042 -0.447 76
-3.1914 -0.0451 0.1097 22
-12.468800000000002 -0.17629999999999998 0.7227 132
-12.476600000000001 -0.1764 1.0156 69
-12.476600000000001 -0.1764 1.3066 216
-12.460899999999999 -0.1761 1.5977000000000001 98
-12.460899999999999 -0.1761 1.8936000000000002 2
-12.375 -0.17489999999999997 2.1738 1
-2.9433999999999996 -0.0313 -0.5112 232
-2.9766000000000004 -0.0317 -0.4475 62
-3.1992000000000003 -0.0341 0.1099 250
-12.468800000000002 -0.1328 0.7231000000000001 108
-12.460899999999999 -0.13269999999999998 1.0137 64
-12.476600000000001 -0.1328 1.3066 164
-12.460899999999999 -0.13269999999999998 1.5977000000000001 137
-12.460899999999999 -0.13269999999999998 1.8936000000000002 163
-12.3672 -0.1317 2.1738 22
-2.9433999999999996 -0.021099999999999997 -0.5112 197
-2.9785000000000004 -0.0213 -0.44780000000000003 62
-3.1601999999999997 -0.0226 0.10859999999999999 63
-12.4844 -0.08929999999999999 0.7236 72
-12.476600000000001 -0.08929999999999999 1.0156 4
-12.476600000000001 -0.08929999999999999 1.3066 128
-12.460899999999999 -0.0892 1.5977000000000001 197
-12.4531 -0.0891 1.8916 161
-12.3672 -0.0885 2.1738 250
-2.9316000000000004 -0.0118 -0.5093 245
-2.9805 -0.012 -0.44780000000000003 88
-3.1719 -0.0127 0.10890000000000001 213
-12.476600000000001 -0.0501 0.7231000000000001 116
-12.468800000000002 -0.0501 1.0156 180
-12.468800000000002 -0.05 1.3056999999999999 225
-12.476600000000001 -0.0501 1.5986000000000002 77
-12.4531 -0.05 1.8925999999999998 4
-12.375 -0.049699999999999994 2.1738 162
-2.9238 -0.002 -0.5078 91
-2.9863 -0.0021 -0.4487 67
-3.1875 -0.0022 0.1096 49
-12.4297 -0.0087 0.7206999999999999 58
-12.5078 -0.0087 1.0186 142
-12.5547 -0.0088 1.3154 69
-12.4531 -0.0087 1.5957 40
-12.460899999999999 -0.0087 1.8936000000000002 67
-12.375 -0.0086 2.1738 82
-2.9276999999999997 0.0092 -0.5088 39
-2.9766000000000004 0.009300000000000001 -0.4473 125
-3.1757999999999997 0.01 0.1091 146
-12.5547 0.0394 1.0215 130
-12.5781 0.0395 1.3174000000000001 84
-12.4531 0.0391 1.5957 105
-12.468800000000002 0.0392 1.8944999999999999 22
-12.3594 0.0388 2.1719 252
-2.9355 0.0195 -0.5103 239
-2.9629000000000003 0.0197 -0.44530000000000003 88
-3.1757999999999997 0.021099999999999997 0.1091 96
-12.5625 0.0833 0.728 233
-12.5703 0.0834 1.0234 1
-12.726600000000001 0.08439999999999999 1.3330000000000002 8
-12.4531 0.08259999999999999 1.5966999999999998 226
-12.4531 0.08259999999999999 1.8925999999999998 146
-12.3672 0.08199999999999999 2.1738 171
-2.9355 0.0297 -0.5103 15
-2.9726999999999997 0.0301 -0.447 147
-3.1757999999999997 0.0322 0.1091 208
-12.7344 0.12890000000000001 0.7383 226
-12.7578 0.1292 1.0381 81
-12.7578 0.1292 1.3359 169
-12.4531 0.1261 1.5966999999999998 12
-12.4453 0.126 1.8916 212
-12.375 0.1252 2.1758 221
-2.9257999999999997 0.039900000000000005 -0.5088 14
-2.9785000000000004 0.0406 -0.44780000000000003 92
-3.168 0.0431 0.10880000000000001 166
-12.7422 0.17350000000000002 0.7387999999999999 228
-12.773399999999999 0.174 1.04 226
-12.7578 0.17370000000000002 1.3369 44
-12.460899999999999 0.1697 1.5977000000000001 98
-12.4453 0.16940000000000002 1.8916 48
-12.3672 0.16829999999999998 2.1738 229
-2.9141000000000004 0.0493 -0.5068 47
-2.9863 0.0506 -0.449 31
-3.1875 0.054000000000000006 0.1096 129
-12.7422 0.2157 0.7387999999999999 185
-12.781199999999998 0.2164 1.041 174
-12.7578 0.2161 1.3369 22
-12.4531 0.2108 1.5966999999999998 121
-12.4531 0.2109 1.8936000000000002 249
-12.3594 0.20920000000000002 2.1719 110
-2.9257999999999997 0.0593 -0.5088 8
-2.9745999999999997 0.0602 -0.4473 100
-3.1757999999999997 0.0643 0.1091 230
-12.7578 0.2583 0.7397 172
-12.7656 0.2585 1.0391 123
-12.7656 0.2585 1.3369 1
-12.4453 0.252 1.5957 91
-12.460899999999999 0.25239999999999996 1.8944999999999999 49
-12.351600000000001 0.2502 2.1719 189
-2.9297000000000004 0.0696 -0.5093 9
-2.9648000000000003 0.0704 -0.4458 42
-3.1875 0.0757 0.1096 192
-12.726600000000001 0.302 0.7378 154
-12.75 0.30269999999999997 1.0381 218
-12.7656 0.303 1.3369 128
-12.4453 0.2954 1.5957 55
-12.4531 0.2957 1.8925999999999998 60
-12.3594 0.29350000000000004 2.1719 148
-2.9336 0.0794 -0.5103 119
-2.9726999999999997 0.08039999999999999 -0.447 90
-3.1620999999999997 0.08560000000000001 0.10869999999999999 77
-12.75 0.345 0.7393000000000001 247
-12.75 0.345 1.0381 109
-12.7578 0.3452 1.3369 188
-12.4453 0.3369 1.5966999999999998 108
-12.4453 0.3367 1.8916 40
-12.3594 0.3345 2.1719 246
-2.9297000000000004 0.09050000000000001 -0.5093 247
-2.9805 0.09210000000000002 -0.4482 198
-3.1543 0.0975 0.1084 190
