# .PCD v0.7 - Point Cloud Data file format
VERSION 0.7
FIELDS x y z intensity
SIZE 4 4 4 4
TYPE F F F F
COUNT 1 1 1 1
WIDTH 1227
HEIGHT 1
VIEWPOINT 0 0 0 1 0 0 0
POINTS 1227
DATA ascii
-6.796900000000001 -5.5390999999999995 -1.5381 67
-12.789100000000001 -10.4219 0.192 178
-6.8164 -5.5547 -1.335 165
-12.773399999999999 -10.406199999999998 0.5737 76
-6.8438 -5.578099999999999 -1.1299 124
-12.7656 -10.406199999999998 0.9556 169
-6.9922 -5.699199999999999 -0.9438 231
-12.781199999999998 -10.414100000000001 1.3428 208
-7.5977 -6.1914 -0.7968999999999999 13
-12.6875 -10.335899999999999 1.7158000000000002 143
-12.7578 -10.398399999999999 -0.9551000000000001 169
-12.75 -10.3906 2.1094 85
-12.7969 -10.4297 -0.5747 156
-11.1328 -9.0781 2.1836 132
-12.7578 -10.398399999999999 -0.19149999999999998 120
-9.9375 -8.1016 2.2539 238
-6.824199999999999 -5.5234000000000005 -1.541 198
-12.789100000000001 -10.351600000000001 0.19149999999999998 213
-6.8398 -5.5390999999999995 -1.3359 207
-12.7656 -10.335899999999999 0.5718 198
-6.8789 -5.5664 -1.1328 222
-12.7656 -10.335899999999999 0.9526 222
-7.0312 -5.6914 -0.9458 216
-12.7656 -10.335899999999999 1.3378999999999999 161
-7.6562 -6.199199999999999 -0.8008 223
-12.6719 -10.2578 1.709 166
-12.7578 -10.3281 -0.9521 171
-12.7344 -10.3125 2.1016 143
-12.773399999999999 -10.343800000000002 -0.5722999999999999 88
-12.75 -10.3203 2.4961 225
-12.75 -10.3203 -0.1909 9
-9.9844 -8.0859 2.2578 203
-6.875 -5.5234000000000005 -1.5478999999999998 36
-12.789100000000001 -10.281199999999998 0.191 186
-6.863300000000001 -5.511699999999999 -1.3359 146
-12.773399999999999 -10.2578 0.5703 204
-6.9140999999999995 -5.5547 -1.1348 129
-12.7656 -10.2578 0.9501999999999999 37
-7.074199999999999 -5.6836 -0.9492 37
-12.75 -10.2422 1.3319999999999999 29
-7.6914 -6.1797 -0.8022 207
-12.6719 -10.1797 1.7041 128
-12.7656 -10.2578 -0.9501999999999999 217
-12.7422 -10.2422 2.0977 19
-12.7578 -10.25 -0.5698 109
-11.4453 -9.1953 2.2324 98
-12.75 -10.2422 -0.19030000000000002 145
-10.1172 -8.1328 2.2812 236
-6.925800000000001 -5.5234000000000005 -1.5547 134
-12.7969 -10.2031 0.19039999999999999 141
-6.890599999999999 -5.4961 -1.3378999999999999 206
-12.75 -10.1719 0.5679 178
-6.9414 -5.5352 -1.1367 91
-12.7578 -10.1719 0.9468000000000001 165
-7.1211 -5.6797 -0.9526 220
-12.7578 -10.1797 1.3291 212
-7.7539 -6.1836 -0.8066 92
-12.656199999999998 -10.0938 1.6963 67
-12.7578 -10.1797 -0.9468000000000001 230
-12.75 -10.1719 2.0918 51
-12.7656 -10.1797 -0.5684 64
-11.0078 -8.7812 2.1406 44
-12.7422 -10.1641 -0.18969999999999998 153
-10.1094 -8.0703 2.2734 110
-6.9336 -5.488300000000001 -1.5518 224
-12.7969 -10.1328 0.19010000000000002 15
-6.9414 -5.4961 -1.3428 228
-12.7656 -10.1094 0.5669 50
-6.984400000000001 -5.5273 -1.1406 236
-12.7578 -10.1016 0.9443 157
-7.167999999999999 -5.675800000000001 -0.9565 210
-12.7656 -10.1094 1.3262 4
-7.8125 -6.1836 -0.8101 196
-12.6719 -10.0391 1.6943000000000001 244
-12.710899999999999 -10.0625 -0.9409000000000001 17
-12.7422 -10.0859 2.0859 164
-12.773399999999999 -10.1172 -0.5674 101
-10.9922 -8.7031 2.1309 203
-12.6953 -10.0547 -0.1885 31
-12.835899999999999 -10.1641 2.8808999999999996 1
-6.9648 -5.4765999999999995 -1.5547 222
-12.7578 -10.0234 0.1888 208
-12.7656 -10.0391 0.5654 196
-7.015599999999999 -5.515599999999999 -1.1426 69
-12.789100000000001 -10.0469 0.9434 91
-7.203099999999999 -5.6640999999999995 -0.9584999999999999 124
-12.773399999999999 -10.0391 1.3232 169
-7.855499999999999 -6.175800000000001 -0.8125 75
-12.656199999999998 -9.9531 1.6875 58
-12.7031 -9.9844 -0.9375 198
-12.7422 -10.0156 2.0801 226
-12.7422 -10.0156 -0.564 19
-10.9453 -8.6094 2.1172 89
-12.7422 -10.0156 -0.1886 9
-10.9297 -8.5938 2.4434 28
-7.0039 -5.4688 -1.5596 136
-12.8203 -10.0078 0.1892 201
-12.835899999999999 -10.0156 0.5669 115
-7.0703 -5.519500000000001 -1.1484 120
-12.835899999999999 -10.0234 0.9448000000000001 122
-7.230499999999999 -5.644500000000001 -0.9595 254
-12.75 -9.9531 1.3184 69
-7.8828 -6.1523 -0.8134999999999999 108
-12.664100000000001 -9.8906 1.6846 108
-12.710899999999999 -9.9219 -0.9355 118
-12.726600000000001 -9.9375 2.0723 227
-12.7969 -9.9922 -0.5649000000000001 147
-11.585899999999999 -9.0469 2.2344 59
-12.789100000000001 -9.9844 -0.1888 37
-11.1328 -8.6953 2.4824 252
-7.0625 -5.4765999999999995 -1.5684 236
-12.835899999999999 -9.9531 0.18899999999999997 91
-12.851600000000001 -9.9688 0.5659000000000001 4
-7.1172 -5.519500000000001 -1.1533 108
-12.8672 -9.9766 0.9443 118
-7.2773 -5.640599999999999 -0.9629000000000001 246
-12.75 -9.8828 1.3144999999999998 179
-7.9062 -6.1289 -0.8134999999999999 213
-12.6719 -9.8203 1.6806999999999999 172
-12.726600000000001 -9.8672 -0.9346 166
-12.7344 -9.875 2.0664 14
-12.8203 -9.9375 -0.5645 134
-11.593800000000002 -8.9922 2.2305 119
-12.843800000000002 -9.9609 -0.1892 165
-11.1328 -8.6328 2.4766 181
-7.1015999999999995 -5.4648 -1.5722999999999998 244
-12.8828 -9.9141 0.1892 130
-12.8906 -9.9219 0.5664 75
-7.1523 -5.5039 -1.1553 36
-12.976600000000001 -9.9922 0.9501999999999999 23
-7.3203 -5.6328 -0.9662999999999999 158
-12.75 -9.8125 1.3105000000000002 109
-12.7422 -9.8047 -1.3096 236
-12.6719 -9.75 1.6758000000000002 198
-12.7344 -9.8047 -0.9326000000000001 213
-12.7344 -9.7969 2.0605 94
-12.8906 -9.9219 -0.5664 27
-12.8281 -9.875 2.4609 229
-12.8672 -9.8984 -0.18899999999999997 70
-13.0 -10.0078 2.8848000000000003 116
-7.144500000000001 -5.457000000000001 -1.5781 31
-12.875 -9.8359 0.1886 225
-13.023399999999999 -9.9531 0.5708 176
-7.1875 -5.4922 -1.1582 240
-13.039100000000001 -9.9609 0.9521 205
-7.3828 -5.640599999999999 -0.9717 164
-12.7578 -9.75 1.3075999999999999 125
-12.7578 -9.7422 -1.3075999999999999 81
-12.656199999999998 -9.6641 1.6688999999999998 122
-12.726600000000001 -9.7266 -0.9292 191
-12.7344 -9.7266 2.0566 72
-12.960899999999999 -9.8984 -0.5679 44
-12.8047 -9.7812 2.4512 169
-12.9844 -9.9219 -0.1902 234
-10.851600000000001 -8.2891 2.4004 176
-7.1953 -5.457000000000001 -1.585 8
-12.898399999999999 -9.7812 0.1885 198
-13.0469 -9.8906 0.5698 230
-13.0469 -9.8906 0.9497 231
-7.4297 -5.6328 -0.9756 133
-12.75 -9.6719 1.3037 152
-12.7578 -9.6719 -1.3047 21
-12.625 -9.5703 1.6602000000000001 100
-12.718800000000002 -9.6484 -0.9262999999999999 100
-12.726600000000001 -9.6484 2.0488 46
-13.031199999999998 -9.8828 -0.5693 233
-10.851600000000001 -8.2266 2.0703 230
-12.976600000000001 -9.8359 -0.18960000000000002 232
-11.1719 -8.4688 2.4648 33
-7.2422 -5.453099999999999 -1.5908000000000002 188
-12.8047 -9.6406 0.1865 97
-13.085899999999999 -9.8516 0.5703 79
-13.0625 -9.8359 0.9487000000000001 166
-7.484400000000001 -5.6328 -0.98 201
-12.7422 -9.5938 1.2988 213
-12.75 -9.5938 -1.2997999999999998 190
-12.664100000000001 -9.5312 1.6611000000000002 143
-12.7422 -9.5938 -0.9253 232
-12.718800000000002 -9.5781 2.043 254
-12.976600000000001 -9.7656 -0.5654 24
-10.773399999999999 -8.1094 2.0508 169
-12.960899999999999 -9.7578 -0.1888 77
-11.031199999999998 -8.3047 2.4277 213
-7.3125 -5.4648 -1.6025 55
-12.8672 -9.625 0.187 49
-7.363300000000001 -5.5078 -1.3955000000000002 195
-13.0547 -9.7578 0.5674 195
-7.363300000000001 -5.5039 -1.1768 138
-13.0625 -9.7656 0.9462999999999999 146
-7.5390999999999995 -5.636699999999999 -0.9849 194
-12.726600000000001 -9.5156 1.2938999999999998 157
-12.75 -9.5312 -1.2969 159
-12.6953 -9.4922 1.6611000000000002 198
-12.7344 -9.5234 -0.9229 51
-12.718800000000002 -9.5078 2.0371 190
-13.039100000000001 -9.75 -0.5669 198
-12.7656 -9.5391 2.4238 226
-13.023399999999999 -9.7344 -0.1892 161
-12.9922 -9.7109 2.8535000000000004 143
-12.851600000000001 -9.5391 0.1863 64
-7.425800000000001 -5.511699999999999 -1.4033000000000002 146
-13.039100000000001 -9.6797 0.5654 6
-7.4414 -5.5234000000000005 -1.1865 31
-13.0469 -9.6875 0.9429000000000001 191
-7.6015999999999995 -5.644500000000001 -0.9906999999999999 231
-12.7422 -9.4531 1.2919999999999998 153
-12.7422 -9.4531 -1.2919999999999998 169
-12.656199999999998 -9.3984 1.6522999999999999 103
-12.7344 -9.4531 -0.9204000000000001 158
-12.718800000000002 -9.4453 2.0332 41
-12.9922 -9.6484 -0.5635 30
-12.75 -9.4609 2.4141 74
-12.9844 -9.6406 -0.1882 80
-12.9844 -9.6406 2.8438 23
-8.3359 -6.144500000000001 -1.8184 23
-12.8828 -9.4922 0.1863 204
-7.453099999999999 -5.4922 -1.4053 186
-13.0703 -9.6328 0.5649000000000001 62
-7.5664 -5.574199999999999 -1.2031 185
-13.0703 -9.625 0.9419 12
-7.6836 -5.6602 -0.9984999999999999 136
-12.7344 -9.3828 1.2881 66
-12.75 -9.3906 -1.29 21
-12.664100000000001 -9.3281 1.6484 3
-12.7344 -9.3828 -0.9179999999999999 189
-12.726600000000001 -9.375 2.0273 255
-13.039100000000001 -9.6094 -0.564 223
-11.1172 -8.1875 2.0977 203
-13.039100000000001 -9.6094 -0.1885 175
-12.9844 -9.5625 2.8358999999999996 252
-8.3203 -6.0859000000000005 -1.8096 126
-12.843800000000002 -9.3984 0.1852 187
-7.5039 -5.488300000000001 -1.4111000000000002 196
-13.0703 -9.5625 0.564 46
-7.707000000000001 -5.636699999999999 -1.2227 56
-13.0703 -9.5625 0.9399 220
-7.792999999999999 -5.699199999999999 -1.0098 178
-12.7344 -9.3125 1.2852000000000001 101
-12.7344 -9.3125 -1.2852000000000001 51
-12.6328 -9.2422 1.6406 77
-12.7344 -9.3125 -0.915 142
-12.718800000000002 -9.3047 2.0215 208
-13.0469 -9.5391 -0.5625 3
-12.6172 -9.2266 2.377 44
-12.960899999999999 -9.4844 -0.1869 195
-12.968800000000002 -9.4844 2.8262 4
-8.3359 -6.050800000000001 -1.8096 120
-12.898399999999999 -9.3594 0.1855 182
-7.550800000000001 -5.480499999999999 -1.416 103
-13.0625 -9.4766 0.5615 24
-7.6562 -5.5586 -1.2119 17
-13.0547 -9.4766 0.9359999999999999 78
-12.7422 -9.25 -1.6503999999999999 39
-12.726600000000001 -9.2344 1.2812000000000001 252
-12.7422 -9.25 -1.2822 114
-12.6406 -9.1719 1.6377000000000002 13
-12.7344 -9.2422 -0.9126000000000001 172
-12.710899999999999 -9.2266 2.0156 183
-13.039100000000001 -9.4609 -0.5605 230
-12.625 -9.1641 2.3711 149
-13.031199999999998 -9.4609 -0.18739999999999998 86
-12.8594 -9.3359 2.7949 7
-8.3438 -6.011699999999999 -1.8056999999999999 27
-12.898399999999999 -9.2891 0.18489999999999998 114
-7.6172 -5.488300000000001 -1.4247999999999998 244
-13.0469 -9.3984 0.5596 220
-7.6875 -5.5390999999999995 -1.2139 20
-13.0625 -9.4141 0.9340999999999999 0
-12.7578 -9.1953 -1.6484 94
-12.726600000000001 -9.1719 1.2773 96
-12.7344 -9.1797 -1.2783 94
-12.6406 -9.1094 1.6328 160
-12.7344 -9.1719 -0.9102 152
-12.718800000000002 -9.1641 2.0098 85
-13.023399999999999 -9.3828 -0.5586 37
-12.601600000000001 -9.0781 2.3613 143
-12.898399999999999 -9.2891 -0.18489999999999998 208
-12.8047 -9.2266 2.7754000000000003 63
-8.3438 -5.9727 -1.8027000000000002 158
-12.9531 -9.2656 0.18530000000000002 190
-7.738300000000001 -5.5390999999999995 -1.4453 72
-13.0156 -9.3125 0.5571 125
-10.7656 -7.707000000000001 -1.6972999999999998 84
-12.8594 -9.2031 0.917 79
-12.7656 -9.1406 -1.6455000000000002 212
-12.7344 -9.1172 1.2754 175
-12.726600000000001 -9.1094 -1.2744 170
-12.648399999999999 -9.0469 1.6299000000000001 89
-12.7422 -9.1172 -0.9092 192
-12.710899999999999 -9.0938 2.0059 147
-12.9453 -9.2656 -0.5542 155
-12.601600000000001 -9.0156 2.3555 49
-13.0 -9.3047 -0.18600000000000003 186
-12.8125 -9.1641 2.7695 138
-8.3438 -5.925800000000001 -1.7969 92
-12.8594 -9.1406 0.18359999999999999 255
-9.0781 -6.453099999999999 -1.6924000000000001 37
-12.8047 -9.1016 0.5468999999999999 120
-10.7656 -7.6523 -1.6934 164
-12.8125 -9.1016 0.9116 183
-12.75 -9.0625 -1.6396000000000002 158
-12.75 -9.0625 1.2734 103
-12.7422 -9.0547 -1.2725 244
-12.6328 -8.9766 1.624 140
-12.726600000000001 -9.0469 -0.9057999999999999 125
-12.718800000000002 -9.0391 2.002 160
-12.875 -9.1484 -0.5498 105
-12.593800000000002 -8.9531 2.3496 166
-12.773399999999999 -9.0781 -0.18239999999999998 237
-12.7969 -9.0938 2.7617000000000003 121
-8.3359 -5.8789 -1.791 37
-12.8047 -9.0234 0.18230000000000002 237
-9.1016 -6.4140999999999995 -1.6913999999999998 69
-12.8203 -9.0391 0.5459 106
-10.789100000000001 -7.605499999999999 -1.6924000000000001 188
-12.8047 -9.0234 0.9087000000000001 193
-12.7422 -8.9766 -1.6338 158
-12.7344 -8.9766 1.2695 194
-12.7422 -8.9844 -1.2695 231
-12.648399999999999 -8.9141 1.6221 42
-12.718800000000002 -8.9688 -0.9028 5
-12.710899999999999 -8.9609 1.9950999999999999 183
-12.8125 -9.0312 -0.5454 119
-12.601600000000001 -8.8828 2.3438 82
-12.789100000000001 -9.0156 -0.1821 222
-12.8047 -9.0234 2.7558999999999996 131
-8.3359 -5.832000000000001 -1.7861000000000002 66
-12.8203 -8.9688 0.182 236
-9.1016 -6.3672 -1.6875 220
-12.8203 -8.9688 0.5449 234
-10.8203 -7.5703 -1.6934 227
-12.8125 -8.9688 0.9072 72
-12.7422 -8.9141 -1.6299000000000001 206
-12.718800000000002 -8.8984 1.2637 41
-12.7422 -8.9141 -1.2666 84
-12.648399999999999 -8.8516 1.6181999999999999 240
-12.718800000000002 -8.8984 -0.9004000000000001 5
-12.7031 -8.8906 1.9883000000000002 62
-12.8125 -8.9609 -0.5439 45
-12.601600000000001 -8.8203 2.3379 39
-12.789100000000001 -8.9531 -0.1816 182
-12.9453 -9.0547 2.7773000000000003 140
-8.3438 -5.796900000000001 -1.7832 178
-12.8594 -8.9297 0.1821 50
-9.1328 -6.3438 -1.6894999999999998 51
-12.835899999999999 -8.9219 0.5439 163
-10.8281 -7.5234000000000005 -1.6904 51
-12.875 -8.9453 0.9097 137
-12.75 -8.8594 -1.6269999999999998 97
-12.726600000000001 -8.8359 1.2617 51
-12.7344 -8.8438 -1.2627 61
-12.656199999999998 -8.7969 1.6152000000000002 41
-12.726600000000001 -8.8438 -0.8989 65
-12.6953 -8.8203 1.9834 149
-12.781199999999998 -8.875 -0.5415 203
-12.593800000000002 -8.75 2.332 210
-12.835899999999999 -8.9219 -0.1819 226
-12.9922 -9.0312 2.7832 218
-6.2578 -4.3164 -1.334 61
-12.898399999999999 -8.8984 0.18239999999999998 50
-6.2734000000000005 -4.3281 -1.1553 10
-12.976600000000001 -8.9531 0.5488000000000001 36
-10.8281 -7.4688 -1.6865 24
-13.031199999999998 -8.9844 0.9179999999999999 93
-12.726600000000001 -8.7812 1.2588 62
-12.726600000000001 -8.7812 -1.2588 205
-12.625 -8.7109 1.6074000000000002 92
-12.7344 -8.7812 -0.8975 71
-12.710899999999999 -8.7656 1.9813999999999998 74
-12.8672 -8.875 -0.5439 215
-12.593800000000002 -8.6875 2.3262 180
-12.875 -8.8828 -0.182 179
-13.0 -8.9688 2.7773000000000003 93
-12.8828 -8.8125 0.1816 219
-6.269500000000001 -4.2891 -1.1514 183
-13.0078 -8.8984 0.5483 91
-6.292999999999999 -4.3086 -0.9756 149
-13.023399999999999 -8.9062 0.9155 96
-12.726600000000001 -8.7109 1.2559 22
-12.7344 -8.7109 -1.2568000000000001 43
-12.6328 -8.6406 1.6044999999999998 199
-12.718800000000002 -8.7031 -0.894 175
-12.7031 -8.6953 1.9746000000000001 31
-12.851600000000001 -8.7891 -0.542 246
-12.601600000000001 -8.625 2.3223 228
-12.835899999999999 -8.7812 -0.18100000000000002 60
-13.0 -8.8906 2.7695 148
-6.25 -4.2461 -1.3252000000000002 93
-12.9531 -8.7969 0.18230000000000002 110
-6.261699999999999 -4.25 -1.1475 19
-13.0078 -8.8281 0.5474 105
-6.2812 -4.2656 -0.9712000000000001 112
-13.0078 -8.8359 0.9120999999999999 136
-12.7344 -8.6484 1.2529000000000001 165
-6.4414 -4.375 -0.6323 175
-12.601600000000001 -8.5625 1.5966999999999998 248
-12.718800000000002 -8.6406 -0.8920999999999999 46
-12.7031 -8.625 1.9697 93
-12.9219 -8.7812 -0.5439 132
-12.593800000000002 -8.5547 2.3145 132
-12.8906 -8.7578 -0.1813 18
-12.9844 -8.8203 2.7598000000000003 57
-6.238300000000001 -4.207 -1.3193000000000001 137
-12.8125 -8.6406 0.17980000000000002 206
-6.2422 -4.2109 -1.1416 238
-12.9844 -8.7578 0.5449 136
-6.2773 -4.2305 -0.9682999999999999 190
-13.0156 -8.7734 0.9106000000000001 158
-6.3086 -4.2539 -0.7948999999999999 171
-12.718800000000002 -8.5781 1.249 228
-12.6406 -8.5234 1.5977000000000001 208
-12.7344 -8.5859 -0.8906000000000001 126
-12.6953 -8.5625 1.9638999999999998 113
-12.898399999999999 -8.6953 -0.5415 175
-12.601600000000001 -8.4922 2.3105 18
-12.7969 -8.625 -0.1796 170
-12.976600000000001 -8.75 2.752 95
-6.238300000000001 -4.1758 -1.3163999999999998 16
-12.898399999999999 -8.6328 0.1807 183
-6.234400000000001 -4.1719 -1.1377 63
-13.023399999999999 -8.7188 0.5454 182
-6.269500000000001 -4.1992 -0.9653 134
-13.031199999999998 -8.7266 0.9102 205
-12.710899999999999 -8.5078 1.2461 89
-12.648399999999999 -8.4688 1.5947 168
-12.718800000000002 -8.5156 -0.8876999999999999 137
-12.6875 -8.4922 1.959 246
-12.8906 -8.6328 -0.54 155
-12.585899999999999 -8.4297 2.3027 134
-12.773399999999999 -8.5469 -0.1788 168
-12.9922 -8.6953 2.75 109
-6.230499999999999 -4.1367 -1.3115 169
-12.9922 -8.625 0.1815 216
-6.230499999999999 -4.1367 -1.1338 198
-12.9844 -8.625 0.5425 41
-6.2578 -4.1562 -0.9609000000000001 65
-13.023399999999999 -8.6484 0.9067000000000001 255
-6.3203 -4.1953 -0.7925 171
-12.710899999999999 -8.4375 1.2431999999999999 189
-12.7031 -8.4375 1.5977000000000001 255
-12.710899999999999 -8.4375 -0.8848 86
-12.6875 -8.4219 1.9541 209
-12.906199999999998 -8.5703 -0.5390999999999999 88
-12.593800000000002 -8.3594 2.2988 186
-12.7578 -8.4688 -0.17809999999999998 146
-13.0 -8.6328 2.7441000000000004 126
-6.2148 -4.0938 -1.3047 38
-12.8906 -8.4922 0.1796 20
-6.234400000000001 -4.1094 -1.1318000000000001 132
-13.0156 -8.5781 0.5425 151
-6.25 -4.1172 -0.9575 143
-13.0156 -8.5703 0.9037999999999999 66
-6.300800000000001 -4.1523 -0.7886 70
-12.710899999999999 -8.375 1.2402 247
-12.656199999999998 -8.3438 1.5888999999999998 158
-12.710899999999999 -8.375 -0.8828 131
-12.6875 -8.3594 1.9491999999999998 19
-12.8047 -8.4375 -0.5337 231
-12.625 -8.3125 2.2988 57
-12.898399999999999 -8.5 -0.1797 185
-12.9844 -8.5547 2.7344 3
-6.199199999999999 -4.0547 -1.2988 221
-12.960899999999999 -8.4766 0.1802 179
-6.2265999999999995 -4.0703 -1.1279000000000001 189
-13.0156 -8.5078 0.541 174
-6.2539 -4.0898 -0.9556 157
-13.0 -8.5 0.9014 232
-6.2852 -4.1094 -0.7847 98
-12.726600000000001 -8.3203 1.2383 29
-6.3398 -4.1445 -0.6152000000000001 247
-12.6406 -8.2656 1.5830000000000002 201
-6.4023 -4.1875 -0.4424 207
-12.656199999999998 -8.2734 1.9394999999999998 160
-12.898399999999999 -8.4375 -0.5366 33
-12.656199999999998 -8.2734 2.2988 83
-12.9297 -8.4531 -0.1797 47
-12.968800000000002 -8.4844 2.7245999999999997 230
-12.8906 -8.3672 0.1788 33
-6.2188 -4.0352 -1.124 218
-12.968800000000002 -8.4219 0.5381 3
-6.2461 -4.0547 -0.9526 165
-13.0078 -8.4453 0.8994 105
-6.265599999999999 -4.0664 -0.7807999999999999 139
-12.710899999999999 -8.25 1.2344 233
-6.3477 -4.1172 -0.6143 0
-12.656199999999998 -8.2109 1.5811000000000002 4
-6.4140999999999995 -4.1602 -0.4421 202
-12.656199999999998 -8.2109 1.9346 45
-12.6953 -8.2422 -0.5268999999999999 18
-12.7031 -8.2422 2.3027 176
-12.835899999999999 -8.3281 -0.17809999999999998 164
-12.9375 -8.3984 2.7129000000000003 247
-12.9375 -8.3359 0.1791 249
-12.9922 -8.375 0.5381 97
-6.2461 -4.0234 -0.9501999999999999 26
-13.0078 -8.3828 0.8975 249
-6.269500000000001 -4.0391 -0.7793000000000001 126
-12.6875 -8.1719 1.2295 23
-6.3203 -4.0703 -0.6103999999999999 32
-12.6719 -8.1641 1.5800999999999998 110
-6.4102 -4.1289 -0.4409 136
-12.6406 -8.1406 1.9287 236
-12.781199999999998 -8.2344 -0.5288 77
-12.6719 -8.1641 2.293 38
-12.914100000000001 -8.3203 -0.1787 144
-12.7578 -8.2188 2.668 44
-3.1601999999999997 -2.0195 -0.6537999999999999 7
-12.851600000000001 -8.2188 0.1775 61
-3.2168 -2.0566 -0.5757 228
-12.9219 -8.2656 0.5337 210
-6.238300000000001 -3.9882999999999997 -0.9468000000000001 32
-13.031199999999998 -8.3359 0.897 5
-6.2734000000000005 -4.0117 -0.7783 141
-12.6953 -8.125 1.2275 138
-6.3125 -4.0391 -0.6084 167
-12.648399999999999 -8.0859 1.5732 250
-6.4023 -4.0938 -0.4395 218
-12.6406 -8.0859 1.9247999999999998 99
-6.546900000000001 -4.1875 -0.2695 152
-12.6719 -8.1094 2.2871 150
-12.789100000000001 -8.1797 -0.1766 221
-12.6953 -8.1172 2.6504000000000003 122
-3.1582 -2.0039 -0.6523 83
-12.8672 -8.1641 0.17739999999999997 60
-3.168 -2.0098 -0.5659000000000001 85
-12.8672 -8.1641 0.5303 16
-6.2227 -3.9492000000000003 -0.9429000000000001 149
-12.7344 -8.0781 0.875 105
-6.269500000000001 -3.9766000000000004 -0.7754000000000001 141
-12.718800000000002 -8.0625 1.2266 103
-6.3164 -4.0078 -0.6074 56
-12.6719 -8.0391 1.5732 130
-6.3828 -4.0469 -0.43700000000000006 204
-12.6406 -8.0156 1.9199000000000002 1
-6.546900000000001 -4.1523 -0.2688 157
-12.6875 -8.0469 2.2852 137
-12.773399999999999 -8.1016 -0.17600000000000002 157
-12.625 -8.0078 2.6289 76
-3.1387 -1.9756 -0.6465000000000001 18
-12.7422 -8.0234 0.1752 249
-3.1816000000000004 -2.002 -0.5664 48
-12.7031 -8.0 0.5225 113
-6.2265999999999995 -3.918 -0.9404 126
-12.6953 -7.9922 0.8701000000000001 217
-6.261699999999999 -3.9414 -0.7729 146
-12.710899999999999 -8.0 1.2236 185
-6.3125 -3.9745999999999997 -0.6054999999999999 49
-12.710899999999999 -8.0 1.5741999999999998 158
-6.375 -4.0117 -0.4355 114
-12.093800000000002 -7.613300000000001 1.8330000000000002 155
-6.542999999999999 -4.1172 -0.2681 99
-12.1094 -7.6211 2.1758 44
-12.6875 -7.984400000000001 -0.1744 239
-12.085899999999999 -7.609400000000001 2.5117 188
-3.1289 -1.9541 -0.6431 220
-12.718800000000002 -7.9414 0.1744 253
-3.1367000000000003 -1.96 -0.5576 86
-12.710899999999999 -7.9414 0.5215 77
-6.2265999999999995 -3.8887 -0.9390000000000001 232
-12.6953 -7.9297 0.8682 95
-6.2461 -3.9023000000000003 -0.7695000000000001 13
-12.5781 -7.855499999999999 1.208 14
-6.3164 -3.9452999999999996 -0.6045 185
-12.1328 -7.578099999999999 1.499 13
-6.3789 -3.9844 -0.43479999999999996 13
-12.0547 -7.5312 1.8232 53
-6.5312 -4.0781 -0.2671 230
-12.523399999999999 -7.8203 2.2441 200
-12.6953 -7.9336 -0.17420000000000002 147
-12.656199999999998 -7.9023 2.623 9
-3.0879000000000003 -1.9131 -0.6328 183
-12.726600000000001 -7.886699999999999 0.17420000000000002 71
-3.1406 -1.9463 -0.5571 57
-12.7031 -7.875 0.52 124
-12.710899999999999 -7.875 0.8672 60
-6.25 -3.873 -0.7681 106
-12.6719 -7.855499999999999 1.2139 48
-6.3047 -3.9082 -0.6025 149
-12.6797 -7.855499999999999 1.5625 125
-6.3789 -3.9531 -0.4338 211
-11.9297 -7.394500000000001 1.7997999999999998 48
-6.511699999999999 -4.0352 -0.2656 70
-12.6875 -7.863300000000001 2.2695 184
-12.6953 -7.8672 -0.17370000000000002 89
-12.6797 -7.859400000000001 2.623 132
-12.7344 -7.8359000000000005 0.174 162
-12.6875 -7.8047 0.5186 67
-3.2226999999999997 -1.9834 -0.4814 67
-12.7031 -7.8164 0.8652 210
-6.2539 -3.8476999999999997 -0.7670999999999999 192
-12.7031 -7.8125 1.2139 85
-6.296900000000001 -3.873 -0.6001 194
-12.6875 -7.8047 1.5615 10
-6.3789 -3.9238 -0.43310000000000004 75
-11.9297 -7.3398 1.7969 159
-6.511699999999999 -4.0078 -0.2651 8
-12.664100000000001 -7.7890999999999995 2.2598 25
-12.6875 -7.8086 -0.17329999999999998 208
-12.6797 -7.800800000000001 2.6172000000000004 213
-12.7422 -7.7812 0.17370000000000002 236
-3.0995999999999997 -1.8925999999999998 -0.5474 115
-12.6953 -7.7539 0.5176 51
-3.1582 -1.9287 -0.4707 101
-12.6953 -7.7539 0.8628 25
-12.7031 -7.7578 1.2119 164
-6.292999999999999 -3.8418 -0.5986 150
-12.664100000000001 -7.730499999999999 1.5547 178
-6.375 -3.8926 -0.43189999999999995 206
-11.9375 -7.2890999999999995 1.7930000000000001 120
-6.5039 -3.9726999999999997 -0.2644 197
-12.664100000000001 -7.734400000000001 2.2559 236
-12.6719 -7.738300000000001 -0.1727 229
-12.593800000000002 -7.6875 2.5938 34
-3.0898000000000003 -1.8711000000000002 -0.6294 44
-12.718800000000002 -7.699199999999999 0.17300000000000001 216
-12.7031 -7.6914 0.5166 118
-3.1348000000000003 -1.8994 -0.4661 202
-12.6875 -7.6836 0.8604 169
-3.2773000000000003 -1.9844 -0.3979 197
-12.710899999999999 -7.6953 1.21 88
-6.296900000000001 -3.8145 -0.5977 74
-12.585899999999999 -7.6211 1.5419999999999998 69
-11.9297 -7.2265999999999995 1.7891 41
-6.5039 -3.9395 -0.2637 242
-12.539100000000001 -7.5938 2.2285 183
-12.6719 -7.671900000000001 -0.1724 176
-12.5547 -7.6015999999999995 2.5801 248
-3.0898000000000003 -1.8563999999999998 -0.6279 44
-12.7031 -7.6328 0.1724 134
-3.1113 -1.8691 -0.5468999999999999 15
-12.7031 -7.6328 0.5156000000000001 46
-3.1348000000000003 -1.8838 -0.46509999999999996 121
-12.6953 -7.625 0.8589 65
-3.1952999999999996 -1.9199000000000002 -0.3872 153
-12.585899999999999 -7.5625 1.1963 79
-6.296900000000001 -3.7851999999999997 -0.5967 153
-12.5625 -7.546900000000001 1.5352000000000001 74
-11.9297 -7.167999999999999 1.7841999999999998 80
-6.480499999999999 -3.8945 -0.2622 37
-12.664100000000001 -7.609400000000001 2.2461 118
-12.6719 -7.613300000000001 -0.172 180
-12.6719 -7.613300000000001 2.5995999999999997 210
-3.1016000000000004 -1.8486000000000002 -0.6294 117
-12.710899999999999 -7.578099999999999 0.1721 200
-3.1016000000000004 -1.8486000000000002 -0.5439 232
-12.6875 -7.5625 0.5142 20
-3.1348000000000003 -1.8691 -0.46409999999999996 45
-12.6875 -7.5664 0.8569 86
-3.1992000000000003 -1.9062000000000001 -0.38670000000000004 252
-12.6875 -7.5664 1.2031 29
-12.664100000000001 -7.550800000000001 1.5449000000000002 122
-11.9375 -7.113300000000001 1.7822 152
-6.4727 -3.8594 -0.2615 116
-12.1328 -7.234400000000001 2.1465 36
-12.6875 -7.5625 -0.1718 174
-12.164100000000001 -7.2539 2.4902 221
-3.1055 -1.8369 -0.6289 222
-12.710899999999999 -7.519500000000001 0.1718 13
-12.6719 -7.4922 0.5122 137
-3.1094 -1.8388999999999998 -0.4592 122
-12.7031 -7.511699999999999 0.856 188
-3.1776999999999997 -1.8788999999999998 -0.3833 189
-12.6875 -7.5039 1.2002 219
-3.2188 -1.9033000000000002 -0.3018 243
-12.6875 -7.5039 1.5449000000000002 15
-11.9297 -7.0547 1.7772999999999999 166
-6.4609000000000005 -3.8202999999999996 -0.26030000000000003 251
-12.101600000000001 -7.1562 2.1367 174
-12.6719 -7.4961 -0.17129999999999998 175
-12.164100000000001 -7.1953 2.4844 221
-3.0976999999999997 -1.8174000000000001 -0.6255 79
-12.718800000000002 -7.4648 0.1716 73
-3.1132999999999997 -1.8271000000000002 -0.5439 51
-12.6797 -7.4414 0.5117 87
-3.1016000000000004 -1.8203 -0.457 54
-12.6875 -7.4414 0.853 34
-3.1776999999999997 -1.8643 -0.3826 192
-12.6797 -7.4375 1.1973 24
-3.1836 -1.8681999999999999 -0.2979 217
-12.664100000000001 -7.4297 1.5381 2
-11.9219 -6.9922 1.7725 253
-6.4648 -3.7910000000000004 -0.25980000000000003 174
-12.1094 -7.105499999999999 2.1348 156
-12.6719 -7.4336 -0.1709 89
-12.148399999999999 -7.1289 2.4766 246
-3.0702999999999996 -1.7871000000000001 -0.6191 247
-12.6953 -7.386699999999999 0.17079999999999998 10
-3.1211 -1.8163999999999998 -0.5439 119
-12.6953 -7.390599999999999 0.5112 27
-3.0976999999999997 -1.8027000000000002 -0.4556 244
-12.6875 -7.386699999999999 0.8515999999999999 35
-3.1387 -1.8271000000000002 -0.3772 16
-12.6953 -7.386699999999999 1.1963 167
-3.1797000000000004 -1.8506 -0.2969 206
-12.6719 -7.375 1.5361000000000002 36
-11.914100000000001 -6.9336 1.7675999999999998 38
-6.4648 -3.7637 -0.2595 102
-12.1094 -7.050800000000001 2.1309 128
-12.6719 -7.375 -0.1705 206
-12.1406 -7.0664 2.4688 90
-3.0683999999999996 -1.7725 -0.6172 11
-12.7031 -7.3398 0.1707 65
-3.0938 -1.7871000000000001 -0.5381 153
-12.6875 -7.328099999999999 0.5097999999999999 194
-3.1035000000000004 -1.7930000000000001 -0.4556 121
-12.6797 -7.324199999999999 0.8495999999999999 66
-3.1406 -1.8135 -0.3765 83
-12.6875 -7.328099999999999 1.1934 1
-3.1719 -1.8319999999999999 -0.2957 207
-12.656199999999998 -7.3086 1.5312000000000001 183
-3.2832 -1.8965 -0.21789999999999998 221
-11.9219 -6.886699999999999 1.7656 103
-6.457000000000001 -3.7305 -0.2585 2
-12.1172 -7.0 2.127 240
-12.6719 -7.3164 -0.1702 117
-12.148399999999999 -7.015599999999999 2.4668 96
-3.0586 -1.7529 -0.6143 131
-12.7031 -7.2812 0.1703 124
-3.0879000000000003 -1.7694999999999999 -0.5361 91
-12.6797 -7.269500000000001 0.5088 143
-3.1035000000000004 -1.7783000000000002 -0.4546 213
-12.6797 -7.269500000000001 0.8481000000000001 117
-3.1327999999999996 -1.7949000000000002 -0.37479999999999997 71
-12.664100000000001 -7.261699999999999 1.1885 4
-3.1504000000000003 -1.8056999999999999 -0.293 144
-12.3125 -7.0586 1.4872999999999998 99
-3.252 -1.8633000000000002 -0.21530000000000002 215
-11.9219 -6.832000000000001 1.7616999999999998 154
-6.4453 -3.6952999999999996 -0.2576 217
-12.1094 -6.9414 2.123 207
-12.664100000000001 -7.2578 -0.1698 77
-12.1406 -6.9609000000000005 2.4609 161
-3.0664 -1.7431999999999999 -0.6147 134
-12.7031 -7.2188 0.1699 148
-3.0879000000000003 -1.7549000000000001 -0.5352 150
-12.6719 -7.207000000000001 0.5073 156
-3.1055 -1.7656 -0.45409999999999995 126
-12.6953 -7.2188 0.8472 74
-3.1464999999999996 -1.7891 -0.376 101
-12.6719 -7.203099999999999 1.1865 217
-3.1504000000000003 -1.791 -0.2922 211
-12.281199999999998 -6.984400000000001 1.4805000000000001 171
-3.2207 -1.8300999999999998 -0.21280000000000002 59
-11.914100000000001 -6.7734000000000005 1.7568000000000001 76
-6.4414 -3.6641000000000004 -0.2571 132
-12.101600000000001 -6.8789 2.1152 254
-12.656199999999998 -7.1953 -0.1693 101
-12.164100000000001 -6.9140999999999995 2.459 52
-3.0566000000000004 -1.7246000000000001 -0.6113000000000001 7
-12.7031 -7.1640999999999995 0.1696 240
-3.0957 -1.7471 -0.5356000000000001 176
-12.6797 -7.1523 0.5063 23
-3.0976999999999997 -1.7480000000000002 -0.45189999999999997 169
-12.6719 -7.1484000000000005 0.8438 205
-3.1523000000000003 -1.7783000000000002 -0.376 34
-12.6797 -7.1523 1.1855 217
-3.1562 -1.7803 -0.2922 115
-12.281199999999998 -6.9297 1.4775 73
-3.1952999999999996 -1.8018 -0.2107 194
-11.914100000000001 -6.7227 1.7538999999999998 114
-12.093800000000002 -6.8203 2.1094 9
-12.648399999999999 -7.136699999999999 -0.1689 180
-12.1406 -6.8515999999999995 2.4512 118
-3.0488 -1.7041 -0.6084 40
-12.6953 -7.1015999999999995 0.16920000000000002 144
-3.1055 -1.7363 -0.5361 41
-12.6875 -7.0938 0.5059 81
-3.1151999999999997 -1.7412 -0.4536 104
-12.664100000000001 -7.082000000000001 0.8418000000000001 47
-3.1483999999999996 -1.7597999999999998 -0.37450000000000006 195
-12.6719 -7.0859000000000005 1.1826 116
-3.1483999999999996 -1.7607 -0.29100000000000004 72
-12.273399999999999 -6.863300000000001 1.4736000000000002 233
-3.1836 -1.7803 -0.2096 188
-11.906199999999998 -6.6562 1.749 163
-3.2891000000000004 -1.8388999999999998 -0.1298 26
-12.101600000000001 -6.765599999999999 2.1074 140
-12.1406 -6.7890999999999995 2.4453 5
-3.0547000000000004 -1.6934 -0.6084 184
-12.6875 -7.0352 0.16870000000000002 6
-3.082 -1.709 -0.5307999999999999 217
-12.6797 -7.0312 0.5044 200
-3.1094 -1.7236000000000002 -0.4517 129
-12.6797 -7.0312 0.8408 7
-3.1387 -1.7402000000000002 -0.3726 83
-12.664100000000001 -7.0234000000000005 1.1797 32
-3.1543 -1.749 -0.2908 205
-12.289100000000001 -6.8164 1.4727000000000001 159
-3.2012 -1.7744 -0.2102 34
-11.906199999999998 -6.6015999999999995 1.7461000000000002 124
-3.2539 -1.8037 -0.1281 198
-12.093800000000002 -6.707000000000001 2.1016 118
-12.664100000000001 -7.0234000000000005 -0.1685 232
-12.1406 -6.730499999999999 2.4395 183
-3.0664 -1.6875 -0.6099 40
-12.6875 -6.984400000000001 0.1685 158
-3.0723000000000003 -1.6904 -0.5283 162
-12.664100000000001 -6.9688 0.5029 14
-3.1113 -1.7119 -0.4512 145
-12.6719 -6.9727 0.8389 198
-12.6094 -6.9375 1.1719 147
-3.1348000000000003 -1.7246000000000001 -0.28859999999999997 83
-12.2969 -6.765599999999999 1.4707 121
-3.1699 -1.7441 -0.2078 179
-11.906199999999998 -6.550800000000001 1.7431999999999999 182
-3.2422000000000004 -1.7832 -0.1274 213
-12.093800000000002 -6.6523 2.0977 241
-12.664100000000001 -6.9648 -0.1681 230
-12.1328 -6.675800000000001 2.4336 84
-3.0507999999999997 -1.666 -0.6054999999999999 82
-12.6797 -6.921900000000001 0.168 142
-3.0645 -1.6728999999999998 -0.5259 255
-12.664100000000001 -6.9140999999999995 0.502 96
-3.0918 -1.6885 -0.44780000000000003 238
-12.6719 -6.917999999999999 0.8373999999999999 250
-12.4844 -6.8164 1.1582 175
-3.1523000000000003 -1.7207 -0.2898 24
-12.3047 -6.7188 1.4687999999999999 58
-3.1797000000000004 -1.7353999999999998 -0.20800000000000002 248
-11.898399999999999 -6.4961 1.7393 148
-3.2422000000000004 -1.7694999999999999 -0.1272 248
-12.0703 -6.5898 2.0898 233
-12.6406 -6.8984000000000005 -0.1675 12
-12.148399999999999 -6.6289 2.4316 104
-3.0526999999999997 -1.6513999999999998 -0.6045 65
-12.6797 -6.855499999999999 0.16760000000000003 171
-3.0781 -1.665 -0.5273 47
-12.601600000000001 -6.8203 0.4988 255
-3.0995999999999997 -1.6758000000000002 -0.44780000000000003 95
-12.5781 -6.800800000000001 0.8291 119
-12.4219 -6.7188 1.1504 153
-3.1445 -1.7002000000000002 -0.2883 225
-12.335899999999999 -6.671900000000001 1.4697 48
-3.1738 -1.7168 -0.2073 223
-11.914100000000001 -6.4453 1.7363 194
-3.2188 -1.7412 -0.126 227
-12.085899999999999 -6.5352 2.0879 210
-12.156199999999998 -6.574199999999999 2.4297 131
-3.0410000000000004 -1.6309 -0.6011 47
-12.523399999999999 -6.7188 0.1653 14
-3.0839999999999996 -1.6543 -0.5273 180
-12.468800000000002 -6.6875 0.49219999999999997 134
-3.0898000000000003 -1.6582 -0.4456 142
-12.4844 -6.6953 0.8212999999999999 238
-12.414100000000001 -6.6602 1.1475 189
-12.343800000000002 -6.6211 1.4678 216
-3.1543 -1.6924000000000001 -0.20559999999999998 206
-11.906199999999998 -6.386699999999999 1.7324000000000002 160
-3.2363 -1.7353999999999998 -0.1265 224
-12.164100000000001 -6.5273 2.0977 238
-3.2617000000000003 -1.75 -0.0424 178
-12.1953 -6.5390999999999995 2.4316 226
-3.0469 -1.6221 -0.6015999999999999 21
-12.4922 -6.6523 0.1646 113
-3.0683999999999996 -1.6338 -0.5234000000000001 142
-12.476600000000001 -6.644500000000001 0.4917 126
-3.1035000000000004 -1.6522999999999999 -0.447 171
-12.460899999999999 -6.6328 0.8188 126
-12.4219 -6.613300000000001 1.1455 223
-12.3594 -6.582000000000001 1.4668 145
-3.1776999999999997 -1.6913999999999998 -0.20679999999999998 200
-11.875 -6.3203 1.7246000000000001 254
-3.2089999999999996 -1.709 -0.1251 252
-12.1797 -6.484400000000001 2.0977 65
-3.2539 -1.7324000000000002 -0.042199999999999994 93
-12.1953 -6.4922 2.4297 235
-3.0469 -1.6084 -0.6001 50
-12.5 -6.6015999999999995 0.16440000000000002 82
-3.0702999999999996 -1.6211000000000002 -0.5229 115
-12.460899999999999 -6.582000000000001 0.4902 22
-3.1016000000000004 -1.6377000000000002 -0.4456 29
-12.4922 -6.5977 0.8193 60
-12.468800000000002 -6.5859000000000005 1.1484 137
-12.3828 -6.542999999999999 1.4678 152
-3.1816000000000004 -1.6806999999999999 -0.20670000000000002 92
-11.875 -6.269500000000001 1.7216999999999998 245
-3.1973000000000003 -1.6885 -0.1245 81
-12.164100000000001 -6.421900000000001 2.0918 151
-3.2344 -1.7080000000000002 -0.04190000000000001 118
-12.210899999999999 -6.449199999999999 2.4277 11
-3.0488 -1.5957 -0.5991 114
-12.539100000000001 -6.5625 0.1646 252
-3.0683999999999996 -1.6063999999999998 -0.5215 141
-12.5078 -6.546900000000001 0.49119999999999997 23
-3.0957 -1.6211000000000002 -0.44409999999999994 120
-12.539100000000001 -6.5625 0.8208 75
-12.476600000000001 -6.5312 1.1465 80
-12.351600000000001 -6.4648 1.4609 148
-11.875 -6.2188 1.7187999999999999 111
-3.2089999999999996 -1.6797 -0.1247 244
-12.164100000000001 -6.3672 2.0879 230
-3.2266000000000004 -1.6885 -0.0417 250
-12.2031 -6.386699999999999 2.4219 163
-3.0410000000000004 -1.5791 -0.5967 17
-3.0664 -1.5908000000000002 -0.52 116
-12.5547 -6.515599999999999 0.49219999999999997 159
-3.0938 -1.6055000000000001 -0.4429 15
-12.593800000000002 -6.5352 0.8228 77
-12.5156 -6.4961 1.1484 122
-12.3828 -6.425800000000001 1.4619 169
-11.8828 -6.167999999999999 1.7168 231
-3.2188 -1.6699000000000002 -0.12480000000000001 208
-12.1797 -6.3203 2.0859 253
-3.2285000000000004 -1.6758000000000002 -0.0416 246
-12.1797 -6.324199999999999 2.4121 90
-3.0332 -1.5615 -0.5942000000000001 175
-3.4863 -1.7949000000000002 0.045 247
-3.0723000000000003 -1.5819999999999999 -0.5205 144
-12.6172 -6.4961 0.4939 102
-3.0957 -1.5937999999999999 -0.4424 213
-12.648399999999999 -6.511699999999999 0.8251999999999999 57
-12.5547 -6.4648 1.1504 84
-12.3203 -6.3438 1.4521000000000002 21
-11.8828 -6.1172 1.7128999999999999 244
-3.2089999999999996 -1.6522999999999999 -0.1243 186
-12.164100000000001 -6.261699999999999 2.0801 128
-3.2188 -1.6572 -0.0414 193
-8.3828 -4.3164 1.6562000000000001 203
-3.0351999999999997 -1.5497999999999998 -0.5932999999999999 38
-3.4043 -1.7383000000000002 0.0438 252
-3.0683999999999996 -1.5663999999999998 -0.5186 161
-12.656199999999998 -6.4648 0.4946 97
-3.0839999999999996 -1.5752000000000002 -0.4399 85
-12.664100000000001 -6.4648 0.8242 5
-12.625 -6.4453 1.1543 90
-12.3672 -6.3125 1.4550999999999998 158
-11.8672 -6.0586 1.709 123
-3.2089999999999996 -1.6387 -0.124 196
-12.164100000000001 -6.2109000000000005 2.0762 56
-3.2168 -1.6425999999999998 -0.0414 203
-8.4219 -4.3008 1.6591999999999998 27
-3.0449 -1.5391 -0.5942000000000001 52
-3.3887 -1.7138999999999998 0.0435 232
-3.0526999999999997 -1.5430000000000001 -0.5151 188
-12.6719 -6.4062 0.4939 203
-3.0976999999999997 -1.5663999999999998 -0.4412 126
-12.710899999999999 -6.425800000000001 0.8262 220
-12.726600000000001 -6.4336 1.1611 184
-12.3906 -6.265599999999999 1.4550999999999998 44
-11.8672 -6.0 1.7050999999999998 26
-3.2051 -1.6200999999999999 -0.12369999999999999 182
-12.1875 -6.1602 2.0762 41
-3.2148000000000003 -1.625 -0.0412 127
-8.1953 -4.1406 1.6113 94
-3.043 -1.5244 -0.5928 208
-3.3983999999999996 -1.7031 0.0435 225
-3.0605 -1.5332 -0.5151 12
-12.7578 -6.390599999999999 0.4966 143
-3.0762 -1.5419999999999998 -0.43729999999999997 133
-12.8203 -6.425800000000001 0.8315 106
-12.781199999999998 -6.4023 1.1641 187
-12.398399999999999 -6.2109000000000005 1.4531 194
-11.875 -5.949199999999999 1.7031 202
-8.8984 -4.4609 1.5116999999999998 191
-3.2089999999999996 -1.6074000000000002 -0.041100000000000005 32
-7.9648 -3.9901999999999997 1.5635 51
-3.0370999999999997 -1.5097999999999998 -0.5908 123
-3.3535000000000004 -1.6669999999999998 0.0429 192
-3.0781 -1.5303 -0.5176 187
-12.8672 -6.3984000000000005 0.5 85
-3.0664 -1.5244 -0.43479999999999996 94
-12.9219 -6.425800000000001 0.8369 146
-12.976600000000001 -6.449199999999999 1.1797 42
-12.406199999999998 -6.1640999999999995 1.4512 120
-11.8906 -5.9102 1.7031 1
-12.148399999999999 -6.0352 2.0625 221
-3.2031 -1.5928 -0.0409 166
-7.984400000000001 -3.9688 1.5644999999999998 191
-3.0254000000000003 -1.4912 -0.5874 51
-3.3086 -1.6318000000000001 0.042199999999999994 240
-3.0742000000000003 -1.5146000000000002 -0.5161 100
-12.9844 -6.4023 0.5039 47
-3.0742000000000003 -1.5156 -0.4355 187
-13.0078 -6.4140999999999995 0.8412999999999999 55
-13.093800000000002 -6.453099999999999 1.1885 138
-12.3906 -6.109400000000001 1.4472999999999998 160
-11.9375 -5.886699999999999 1.7069999999999999 113
-12.156199999999998 -5.9922 2.0605 148
-3.2108999999999996 -1.5830000000000002 -0.040999999999999995 216
-8.0078 -3.9473000000000003 1.5663999999999998 56
-3.0293 -1.4805000000000001 -0.5874 74
-3.2832 -1.6035 0.0418 35
-3.0526999999999997 -1.4912 -0.5112 111
-13.093800000000002 -6.3984000000000005 0.5073 22
-3.0918 -1.5107 -0.43729999999999997 29
-13.1406 -6.421900000000001 0.8481000000000001 161
-13.1953 -6.449199999999999 1.1963 116
-12.398399999999999 -6.0586 1.4463 255
-11.9844 -5.855499999999999 1.71 157
-12.156199999999998 -5.9414 2.0566 254
-3.2148000000000003 -1.5703 -0.0409 51
-8.6016 -4.2031 1.6797 90
-3.0332 -1.4697 -0.5869 60
-3.2773000000000003 -1.5878999999999999 0.0417 222
-3.0469 -1.4756 -0.5097999999999999 179
-13.1953 -6.390599999999999 0.5103 247
-3.0898000000000003 -1.4971 -0.4363 22
-13.25 -6.421900000000001 0.8540000000000001 127
-13.289100000000001 -6.4375 1.2021 204
-12.4219 -6.019500000000001 1.4463 74
-12.023399999999999 -5.824199999999999 1.7128999999999999 144
-12.1094 -5.8672 2.0449 160
-3.2129000000000003 -1.5566 -0.0408 49
-12.1953 -5.9062 2.3809 34
-3.0233999999999996 -1.4512 -0.584 18
-3.2969 -1.5819999999999999 0.04190000000000001 195
-3.0547000000000004 -1.4658000000000002 -0.5103 130
-13.2969 -6.3789 0.5132 98
-3.0664 -1.4707 -0.43189999999999995 201
-13.375 -6.417999999999999 0.8604 133
-13.406199999999998 -6.4336 1.2109 52
-12.4297 -5.9609000000000005 1.4443000000000001 178
-12.0781 -5.792999999999999 1.7178 214
-12.0625 -5.7852 2.0332 78
-3.2148000000000003 -1.5419999999999998 -0.0408 244
-8.8906 -4.2656 1.7305000000000001 76
-3.0214999999999996 -1.4365 -0.5825 104
-3.2988 -1.5693000000000001 0.0418 86
-3.0566000000000004 -1.4531 -0.5097999999999999 22
-13.4219 -6.3828 0.5171 202
-3.0742000000000003 -1.4619 -0.4324 116
-13.476600000000001 -6.4062 0.8652 206
-13.531199999999998 -6.4336 1.2197 26
-12.3906 -5.890599999999999 1.4375 79
-12.1328 -5.769500000000001 1.7227000000000001 200
-8.6484 -4.1133 1.4531 234
-3.1952999999999996 -1.5194999999999999 -0.0405 250
-8.8984 -4.2305 1.7305000000000001 216
-3.0137 -1.4209 -0.5801 51
-3.2832 -1.5478999999999998 0.0415 209
-3.0625 -1.4434 -0.5097999999999999 117
-13.5469 -6.386699999999999 0.521 181
-3.0898000000000003 -1.4569999999999999 -0.4338 183
-13.5781 -6.3984000000000005 0.8706 206
-13.5781 -6.4023 1.2227 245
-12.335899999999999 -5.8164 1.4287 175
-7.9765999999999995 -3.7598000000000003 1.1289 151
-8.625 -4.0664 1.4472999999999998 121
-8.5703 -4.0391 1.6631 92
-3.0214999999999996 -1.4121000000000001 -0.5806 251
-3.2812 -1.5332 0.0414 84
-3.0566000000000004 -1.4277000000000002 -0.5078 122
-13.593800000000002 -6.3515999999999995 0.522 36
-3.0879000000000003 -1.4434 -0.4329 160
-13.5625 -6.3398 0.8687 189
-13.5703 -6.3438 1.2197 249
-12.414100000000001 -5.800800000000001 1.4355000000000002 145
-7.984400000000001 -3.7324 1.1279000000000001 185
-8.4062 -3.9276999999999997 1.4082 23
-12.1875 -5.699199999999999 2.3652 5
-3.0233999999999996 -1.3994 -0.5801 152
-3.2793 -1.5186000000000002 0.0414 111
-3.0449 -1.4091999999999998 -0.5049 10
-13.585899999999999 -6.2890999999999995 0.521 255
-3.082 -1.4268 -0.4314 233
-13.5781 -6.2852 0.8676999999999999 193
-13.5625 -6.2773 1.2168 222
-12.398399999999999 -5.7422 1.4316 86
-8.0 -3.7031 1.1289 190
-11.875 -5.4961 1.9883000000000002 212
-8.0469 -3.7245999999999997 1.5556999999999999 247
-3.0233999999999996 -1.3866999999999998 -0.5791 218
-3.2812 -1.5049000000000001 0.041299999999999996 170
-3.0488 -1.3984 -0.5049 129
-13.5625 -6.2188 0.519 106
-3.123 -1.4325999999999999 -0.4365 43
-13.5781 -6.2265999999999995 0.8667 59
-13.5625 -6.2188 1.2148 92
-12.398399999999999 -5.6836 1.4287 21
-8.0 -3.6719 1.127 171
-11.8594 -5.4414 1.9834 152
-8.0781 -3.7051 1.5596 161
-3.0098000000000003 -1.3681999999999999 -0.5757 44
-3.2891000000000004 -1.4950999999999999 0.0414 131
-3.0586 -1.3896000000000002 -0.5059 244
-13.5625 -6.1640999999999995 0.5186 94
-3.1035000000000004 -1.4102000000000001 -0.4329 31
-13.5625 -6.1640999999999995 0.8643000000000001 98
-13.5781 -6.167999999999999 1.2139 41
-12.398399999999999 -5.636699999999999 1.4268 226
-8.0469 -3.6582 1.1318000000000001 213
-8.8125 -4.0039 1.4697 113
-8.0781 -3.6719 1.5575999999999999 212
-3.0137 -1.3563999999999998 -0.5752 30
-3.2870999999999997 -1.4805000000000001 0.041299999999999996 209
-3.0566000000000004 -1.376 -0.5044 104
-13.5703 -6.109400000000001 0.5176 240
-3.0781 -1.3857 -0.42869999999999997 8
-13.5703 -6.109400000000001 0.8628 120
-13.5781 -6.113300000000001 1.2129 45
-12.3906 -5.578099999999999 1.4228999999999998 68
-8.6406 -3.8906 1.2139 61
-8.7031 -3.918 1.4491999999999998 127
-8.1797 -3.6816000000000004 1.5741999999999998 111
-3.0137 -1.3437999999999999 -0.5742 207
-3.2714999999999996 -1.459 0.040999999999999995 254
-3.043 -1.3574000000000002 -0.5015 197
-13.5703 -6.050800000000001 0.5171 231
-3.0898000000000003 -1.3788999999999998 -0.4299 103
-13.5625 -6.050800000000001 0.8613 183
-13.5703 -6.0547 1.21 41
-12.414100000000001 -5.5390999999999995 1.4238 36
-8.3281 -3.7148000000000003 1.168 250
-11.8594 -5.292999999999999 1.9746000000000001 37
-8.1484 -3.6348000000000003 1.5654 182
-3.0233999999999996 -1.3359 -0.5752 61
-3.2754000000000003 -1.4472999999999998 0.040999999999999995 251
-3.0370999999999997 -1.3418 -0.49979999999999997 77
-13.5625 -5.9961 0.5161 0
-3.1426 -1.3887 -0.4365 184
-13.5703 -5.9961 0.8604 35
-13.5469 -5.984400000000001 1.2061 180
-8.0781 -3.5702999999999996 0.9238 213
-8.1172 -3.5858999999999996 1.1357 232
-11.9219 -5.269500000000001 1.9813999999999998 233
-12.1719 -5.3789 2.3398 215
-3.0273000000000003 -1.3252000000000002 -0.5752 86
-3.2695 -1.4316 0.0408 170
-3.0351999999999997 -1.3291 -0.4988 61
-13.5547 -5.9336 0.5151 97
-3.1035000000000004 -1.3584 -0.4304 209
-13.5703 -5.9414 0.8593999999999999 48
-13.5547 -5.9336 1.2051 187
-8.0469 -3.5233999999999996 0.9189 168
-8.0625 -3.5293 1.127 198
-11.875 -5.199199999999999 1.9697 140
-12.1797 -5.332000000000001 2.3359 254
-3.0156 -1.3075999999999999 -0.5722999999999999 110
-3.2617000000000003 -1.4141 0.0407 146
-3.0449 -1.3203 -0.49979999999999997 68
-13.5547 -5.8789 0.5142 62
-3.0605 -1.3271000000000002 -0.4236 196
-13.593800000000002 -5.894500000000001 0.8593999999999999 39
-13.625 -5.9062 1.209 76
-8.0547 -3.4901999999999997 0.9179999999999999 3
-8.0625 -3.4961 1.125 55
-8.9688 -3.8867000000000003 1.4834 55
-12.1719 -5.2773 2.332 31
-3.0176 -1.2959 -0.5718 104
-3.252 -1.3975 0.0405 232
-3.0469 -1.3086000000000002 -0.499 178
-13.6328 -5.855499999999999 0.5161 32
-3.0664 -1.3174000000000001 -0.4236 28
-13.625 -5.855499999999999 0.8604 210
-13.656199999999998 -5.8672 1.2109 214
-8.0312 -3.4512 0.9140999999999999 44
-8.0859 -3.4745999999999997 1.127 100
-11.906199999999998 -5.1172 1.9697 144
-8.7734 -3.7676 1.6758000000000002 154
-3.0058999999999996 -1.2803 -0.5688 54
-3.2344 -1.3769999999999998 0.04019999999999999 125
-3.0370999999999997 -1.2930000000000001 -0.4966 43
-13.656199999999998 -5.8164 0.5166 115
-3.0702999999999996 -1.3066 -0.4236 138
-13.656199999999998 -5.8125 0.8608 206
-13.648399999999999 -5.8125 1.208 7
-8.0391 -3.4219 0.9136 66
-8.0703 -3.4336 1.1220999999999999 129
-8.8594 -3.7733999999999996 1.4619 19
-12.164100000000001 -5.1797 2.3242 155
-3.0214999999999996 -1.2734 -0.5708 15
-3.2363 -1.3633000000000002 0.04019999999999999 123
-3.0254000000000003 -1.2754 -0.49439999999999995 151
-13.656199999999998 -5.7539 0.5156000000000001 86
-3.1191000000000004 -1.3144999999999998 -0.4299 82
-13.6719 -5.761699999999999 0.8604 110
-13.6406 -5.7461 1.2051 133
-12.406199999999998 -5.2265999999999995 1.4102000000000001 21
-8.2031 -3.457 1.1396 47
-11.9219 -5.0234 1.9668 245
-12.1719 -5.1289 2.3223 16
-3.0214999999999996 -1.2607 -0.5698 220
-3.2539 -1.3574000000000002 0.0403 120
-3.0273000000000003 -1.2627 -0.49369999999999997 236
-13.664100000000001 -5.699199999999999 0.5151 172
-3.127 -1.3047 -0.4304 123
-13.6797 -5.707000000000001 0.8593999999999999 4
-13.648399999999999 -5.6953 1.2041 153
-12.406199999999998 -5.175800000000001 1.4082 83
-12.2422 -5.1094 1.7002000000000002 212
-11.8594 -4.9492 1.9531 20
-12.1875 -5.0859 2.3223 179
-3.0117000000000003 -1.2441 -0.5669 121
-3.252 -1.3437999999999999 0.0403 116
-3.0410000000000004 -1.2568000000000001 -0.4951 181
-13.648399999999999 -5.640599999999999 0.5142 153
-3.1387 -1.2969 -0.4314 153
-13.6719 -5.6484000000000005 0.8579000000000001 114
-13.664100000000001 -5.6484000000000005 1.2041 0
-12.3906 -5.1211 1.4043 119
-12.226600000000001 -5.0508 1.6963 97
-11.8672 -4.9023 1.9512 89
-12.1328 -5.0156 2.3086 128
-3.0039 -1.2295 -0.5649000000000001 76
-3.2401999999999997 -1.3262 0.04 14
-3.0370999999999997 -1.2431999999999999 -0.4939 248
-3.1367000000000003 -1.2832 -0.4304 112
-12.4375 -5.0859 1.0937999999999999 15
-12.3828 -5.0664 1.4022999999999999 53
-12.2422 -5.0078 1.6953 218
-8.7344 -3.5723000000000003 1.4325999999999999 2
-12.1172 -4.957 2.3027 202
-3.0077999999999996 -1.2187999999999999 -0.5649000000000001 87
-3.2324 -1.3096 0.039900000000000005 206
-3.0273000000000003 -1.2266 -0.4915 17
-12.4297 -5.0352 0.46659999999999996 26
-3.1406 -1.2715 -0.4304 38
-12.414100000000001 -5.0312 0.7768999999999999 136
-12.414100000000001 -5.0273 1.0908 142
-12.3906 -5.0195 1.4013999999999998 116
-12.218800000000002 -4.9492 1.6904 113
-8.7734 -3.5547000000000004 1.4375 156
-12.125 -4.9102 2.2988 76
-3.0156 -1.21 -0.5654 60
-3.2344 -1.2969 0.0398 241
-3.0351999999999997 -1.2168 -0.49219999999999997 101
-12.468800000000002 -5.0 0.4673 175
-3.0976999999999997 -1.2422 -0.4236 176
-12.398399999999999 -4.9727 0.7748999999999999 197
-12.3594 -4.957 1.084 14
-12.406199999999998 -4.9727 1.3994 164
-12.210899999999999 -4.8984 1.6875 227
-8.7891 -3.5254000000000003 1.4375 89
-12.125 -4.8633 2.2969 114
-3.0176 -1.1973 -0.5649000000000001 90
-3.2382999999999997 -1.2852000000000001 0.0398 206
-3.0312 -1.2031 -0.4907 58
