# .PCD v0.7 - Point Cloud Data file format
VERSION 0.7
FIELDS x y z intensity
SIZE 4 4 4 4
TYPE F F F F
COUNT 1 1 1 1
WIDTH 1350
HEIGHT 1
VIEWPOINT 0 0 0 1 0 0 0
POINTS 1350
DATA ascii
2.6641000000000004 -2.5215 0.2959 234
2.3047 -2.1816 -0.2556 74
2.3066 -2.1836 -0.1821 158
2.332 -2.209 -0.1104 102
2.3125 -2.1914 -0.0363 69
2.0488 -1.9531 -0.4917 89
2.332 -2.2227 0.0368 45
2.0742 -1.9785 -0.4307 83
2.3418 -2.2324 0.1112 33
2.1055 -2.0078 -0.3689 43
2.3613 -2.252 0.18710000000000002 98
2.2812 -2.1758 -0.3267 78
2.6464999999999996 -2.5234 0.2949 166
2.3027 -2.1953 -0.2561 85
2.293 -2.1855 -0.1816 161
2.3281 -2.2188 -0.1105 202
2.3125 -2.2031 -0.0364 192
2.0391 -1.9569999999999999 -0.491 6
2.3223 -2.2285 0.036699999999999997 160
2.0664 -1.9824000000000002 -0.4299 211
2.3379 -2.2441 0.11130000000000001 203
2.0977 -2.0137 -0.36869999999999997 59
2.3574 -2.2637 0.1875 111
2.2754 -2.1836 -0.32689999999999997 33
2.6348000000000003 -2.5293 0.29469999999999996 223
2.3105 -2.2168 -0.25780000000000003 158
2.3008 -2.207 -0.18289999999999998 236
2.3242 -2.2305 -0.1107 223
2.3223 -2.2285 -0.036699999999999997 177
2.0469 -1.9794999999999998 -0.4949 234
2.3184 -2.2422 0.0368 130
2.0605 -1.9931999999999999 -0.4307 203
2.3184 -2.2422 0.1108 163
2.0957 -2.0273 -0.3696 111
2.3633 -2.2852 0.1885 138
2.2695 -2.1953 -0.3271 6
2.5801 -2.4941 0.2893 45
2.2891 -2.2148 -0.2566 70
2.2988 -2.2227 -0.1833 50
2.3066 -2.2324 -0.1103 24
2.3066 -2.2305 -0.0366 119
2.0469 -1.9922 -0.4961 205
2.3203 -2.2598 0.037000000000000005 155
2.0586 -2.0059 -0.43189999999999995 46
2.3164 -2.2559 0.11109999999999999 71
2.0879 -2.0332 -0.36939999999999995 47
2.3574 -2.2949 0.1887 158
2.2734 -2.2129 -0.3289 139
2.5683999999999996 -2.5 0.2891 110
2.2852 -2.2246 -0.2568 16
2.2988 -2.2383 -0.184 73
2.3125 -2.252 -0.1109 17
2.2988 -2.2402 -0.0366 160
2.0371 -1.9961000000000002 -0.49560000000000004 31
2.3262 -2.2793 0.037200000000000004 94
2.0664 -2.0254 -0.43479999999999996 16
2.3105 -2.2656 0.1112 46
2.0781 -2.0371 -0.3689 147
2.3516 -2.3047 0.1888 191
2.2715 -2.2266 -0.3296 160
2.5547 -2.5039 0.28859999999999997 21
2.2812 -2.2344 -0.2571 109
2.291 -2.2461 -0.184 16
2.3164 -2.2715 -0.1115 134
2.293 -2.2461 -0.0366 65
2.0332 -2.0059 -0.4961 235
2.3086 -2.2773 0.037000000000000005 234
2.0605 -2.0332 -0.43479999999999996 116
2.3184 -2.2871 0.1119 96
2.0781 -2.0488 -0.3699 135
2.3418 -2.3105 0.1887 114
2.25 -2.2188 -0.3276 151
2.5293 -2.4941 0.2864 155
2.2812 -2.252 -0.2581 105
2.2852 -2.2539 -0.184 31
2.3086 -2.2773 -0.1115 98
2.2988 -2.2676 -0.0369 9
2.0391 -2.0273 -0.49979999999999997 188
2.3027 -2.2871 0.037000000000000005 210
2.0527 -2.041 -0.43479999999999996 158
2.3125 -2.2988 0.1121 224
2.0742 -2.0605 -0.37060000000000004 204
2.3359 -2.3203 0.1888 222
2.2344 -2.2207 -0.3267 7
2.498 -2.4824 0.2839 1
2.2852 -2.2715 -0.2595 15
2.2871 -2.2734 -0.18489999999999998 129
2.3027 -2.2871 -0.1116 233
2.3047 -2.2891 -0.0371 103
2.0352 -2.0371 -0.5005 84
2.3027 -2.3047 0.037200000000000004 195
2.0488 -2.0508 -0.4355 13
2.3008 -2.3008 0.1118 96
2.0762 -2.0781 -0.37229999999999996 233
2.3359 -2.3379 0.18960000000000002 21
2.2266 -2.2266 -0.3264 123
2.4375 -2.4395 0.2781 111
2.2773 -2.2793 -0.2595 170
2.2852 -2.2871 -0.18539999999999998 89
2.2949 -2.2969 -0.1116 176
2.2949 -2.2969 -0.037000000000000005 196
2.0332 -2.0508 -0.502 171
2.2969 -2.3164 0.037200000000000004 154
2.0469 -2.0645 -0.4368 23
2.2988 -2.3184 0.11220000000000001 159
2.0664 -2.084 -0.3721 53
2.332 -2.3516 0.19010000000000002 146
2.2207 -2.2383 -0.3267 127
2.416 -2.4355 0.2766 95
2.2598 -2.2793 -0.2585 148
2.2852 -2.3047 -0.18600000000000003 214
2.293 -2.3125 -0.1119 175
2.2891 -2.3066 -0.0371 104
2.0254 -2.0586 -0.502 220
2.3027 -2.3379 0.0375 215
2.0547 -2.0879 -0.44020000000000004 219
2.2988 -2.3359 0.1127 97
2.0566 -2.0898 -0.3716 41
2.3203 -2.3574 0.1898 32
2.2109 -2.2461 -0.3267 196
2.4023 -2.4414 0.2761 255
2.2656 -2.3008 -0.26 81
2.2715 -2.3066 -0.1857 26
2.2891 -2.3242 -0.1121 91
2.2734 -2.3105 -0.037000000000000005 182
2.0195 -2.0645 -0.502 158
2.2891 -2.3398 0.0374 134
2.0566 -2.1035 -0.4421 134
2.2969 -2.3477 0.11289999999999999 82
2.0527 -2.0977 -0.3721 212
2.3145 -2.3652 0.1898 251
2.2012 -2.25 -0.3262 41
2.4082 -2.4629 0.2776 21
2.2656 -2.3164 -0.261 2
2.2637 -2.3145 -0.1857 222
2.2949 -2.3457 -0.1128 208
2.2754 -2.3262 -0.0371 10
2.0234 -2.082 -0.5044 42
2.2852 -2.3516 0.0374 11
2.0508 -2.1094 -0.4421 250
2.2969 -2.3633 0.1133 17
2.0605 -2.1191 -0.37479999999999997 183
2.3086 -2.375 0.19010000000000002 207
2.1875 -2.25 -0.32520000000000004 117
2.3809 -2.4512 0.2754 143
2.2695 -2.3359 -0.2625 43
2.2637 -2.3301 -0.1863 194
2.2812 -2.3477 -0.1125 155
2.2793 -2.3457 -0.0374 39
2.0273 -2.0996 -0.5073 105
2.2812 -2.3652 0.0375 73
2.0449 -2.1191 -0.4426 132
2.2852 -2.3691 0.11320000000000001 119
2.0547 -2.1289 -0.37520000000000003 255
2.3086 -2.3926 0.1907 141
2.1797 -2.2578 -0.32520000000000004 72
2.373 -2.459 0.2754 128
2.2559 -2.3379 -0.26170000000000004 197
2.2695 -2.3516 -0.1875 19
2.2793 -2.3613 -0.1128 11
2.2852 -2.3672 -0.037599999999999995 216
2.0254 -2.1133 -0.5088 113
2.2871 -2.3867 0.0378 198
2.0449 -2.1328 -0.44380000000000003 168
2.2773 -2.377 0.11320000000000001 76
2.0508 -2.1387 -0.3757 248
2.3145 -2.4141 0.19190000000000002 117
2.1836 -2.2773 -0.32689999999999997 216
2.3672 -2.4688 0.2756 1
2.248 -2.3457 -0.26170000000000004 178
2.2676 -2.3652 -0.188 158
2.2715 -2.3691 -0.1128 41
2.2734 -2.3711 -0.0375 115
2.0156 -2.1172 -0.5078 128
2.2812 -2.3984 0.0378 212
2.0449 -2.1484 -0.4458 124
2.2812 -2.3965 0.1137 242
2.043 -2.1465 -0.3757 210
2.3008 -2.416 0.19140000000000001 109
2.1738 -2.2852 -0.32689999999999997 130
2.3672 -2.4883 0.27690000000000003 35
2.2578 -2.373 -0.2639 162
2.25 -2.3652 -0.1873 53
2.2812 -2.3984 -0.11380000000000001 115
2.2617 -2.377 -0.0375 123
2.0078 -2.125 -0.5078 191
2.2734 -2.4062 0.0378 255
2.0449 -2.1641 -0.4475 157
2.2793 -2.4121 0.11410000000000001 79
2.0469 -2.166 -0.37770000000000004 192
2.2891 -2.4219 0.1912 230
2.1582 -2.2832 -0.3257 171
2.3574 -2.4941 0.2766 122
2.248 -2.3789 -0.2637 222
2.2441 -2.375 -0.1875 179
2.2754 -2.4082 -0.114 249
2.2656 -2.3965 -0.0377 237
2.0137 -2.1465 -0.5112 70
2.2656 -2.4141 0.0378 210
2.041 -2.1738 -0.4482 106
2.2832 -2.4316 0.11470000000000001 236
2.041 -2.1758 -0.3782 230
2.291 -2.4414 0.19210000000000002 29
2.1406 -2.2812 -0.32420000000000004 216
2.3496 -2.5039 0.2766 195
2.248 -2.3945 -0.2646 65
2.25 -2.3984 -0.1886 63
2.2676 -2.416 -0.114 69
2.2676 -2.416 -0.0378 234
2.0195 -2.168 -0.5151 108
2.2637 -2.4297 0.0379 200
2.0332 -2.1816 -0.4482 243
2.2656 -2.4316 0.1143 61
2.0449 -2.1934 -0.3804 63
2.2891 -2.4551 0.19260000000000002 184
2.1426 -2.2988 -0.3257 182
2.332 -2.502 0.2756 129
2.2363 -2.4004 -0.2644 191
2.248 -2.4121 -0.1891 218
2.2559 -2.4219 -0.11380000000000001 216
2.2695 -2.4355 -0.038 35
2.0195 -2.1836 -0.5171 58
2.2617 -2.4453 0.038 163
2.0352 -2.2012 -0.45039999999999997 85
2.2578 -2.4395 0.1143 59
2.0391 -2.2051 -0.3809 105
2.2949 -2.4805 0.19399999999999998 234
2.1426 -2.3164 -0.32689999999999997 160
2.3301 -2.5195 0.2766 173
2.2363 -2.418 -0.26539999999999997 246
2.2441 -2.4258 -0.18960000000000002 39
2.2559 -2.4395 -0.1142 204
2.2598 -2.4434 -0.038 99
2.0098 -2.1875 -0.5161 132
2.2559 -2.4551 0.0381 254
2.041 -2.2227 -0.4536 140
2.2617 -2.4629 0.115 174
2.0352 -2.2148 -0.38130000000000003 22
2.2812 -2.4844 0.1935 86
2.1309 -2.3184 -0.3264 250
2.3301 -2.5371 0.2776 76
2.2305 -2.4277 -0.2656 62
2.2363 -2.4336 -0.18960000000000002 121
2.2578 -2.459 -0.11470000000000001 51
2.248 -2.4473 -0.038 56
2.002 -2.1934 -0.5161 222
2.2578 -2.4746 0.0383 236
2.0391 -2.2344 -0.4548 86
2.2598 -2.4766 0.1152 61
2.0352 -2.2305 -0.38280000000000003 131
2.2734 -2.4902 0.1935 242
2.1191 -2.3223 -0.3259 234
2.3242 -2.5449 0.2778 11
2.2285 -2.4414 -0.2664 47
2.2305 -2.4434 -0.1898 28
2.2578 -2.4746 -0.1152 96
2.2402 -2.4531 -0.0379 76
2.0059 -2.2129 -0.519 164
2.25 -2.4824 0.0383 97
2.0371 -2.2461 -0.4561 29
2.2578 -2.4902 0.11560000000000001 64
2.0469 -2.2578 -0.3865 112
2.2734 -2.5078 0.1942 173
2.1035 -2.3203 -0.3247 175
2.3145 -2.5508 0.2776 230
2.2305 -2.4609 -0.2676 216
2.2285 -2.457 -0.19030000000000002 120
2.2363 -2.4668 -0.11449999999999999 242
2.252 -2.4824 -0.0383 59
2.0098 -2.2344 -0.5225 35
2.2402 -2.4902 0.0383 7
2.0293 -2.2539 -0.4561 232
2.2461 -2.4961 0.1155 75
2.043 -2.2715 -0.3875 37
2.2715 -2.5254 0.1949 41
2.1016 -2.334 -0.32539999999999997 129
2.3027 -2.5586 0.2776 147
2.2188 -2.4648 -0.2673 138
2.2266 -2.4746 -0.1909 103
2.2363 -2.4863 -0.115 90
2.2441 -2.4941 -0.0383 254
2.0078 -2.248 -0.5239 229
2.2402 -2.5078 0.0384 8
2.0293 -2.2715 -0.4578 63
2.2402 -2.5078 0.11560000000000001 11
2.0371 -2.2793 -0.38770000000000004 33
2.2676 -2.5391 0.1954 120
2.0957 -2.3457 -0.3262 224
2.3066 -2.582 0.2791 5
2.2129 -2.4766 -0.2676 232
2.2285 -2.4941 -0.19190000000000002 40
2.2344 -2.502 -0.1153 231
2.2344 -2.5 -0.0383 178
2.0078 -2.2617 -0.5259 252
2.2383 -2.5215 0.0385 122
2.0293 -2.2852 -0.4597 241
2.2402 -2.5234 0.11599999999999999 96
2.0273 -2.2852 -0.3875 157
2.2578 -2.543 0.19519999999999998 162
2.0957 -2.3633 -0.3274 97
2.3008 -2.5918 0.27949999999999997 129
2.209 -2.4902 -0.2683 81
2.5527 -2.877 0.3997 30
2.2227 -2.5039 -0.19210000000000002 239
2.2344 -2.5176 -0.1157 243
2.2266 -2.5078 -0.0383 109
1.9980000000000002 -2.2656 -0.5254 254
2.2324 -2.5312 0.038599999999999995 131
2.0293 -2.3008 -0.46140000000000003 184
2.2402 -2.541 0.1165 56
2.0273 -2.3008 -0.3889 215
2.2539 -2.5566 0.1956 254
2.084 -2.3633 -0.3267 170
2.293 -2.5995999999999997 0.27949999999999997 169
2.2129 -2.5098 -0.2695 67
2.2109 -2.5078 -0.19190000000000002 133
2.2422 -2.543 -0.1166 128
2.2266 -2.5254 -0.0385 152
2.0039 -2.2891 -0.5293 148
2.2266 -2.543 0.038599999999999995 193
2.0215 -2.3086 -0.46140000000000003 231
2.2422 -2.5625 0.11710000000000001 180
2.0332 -2.3242 -0.3918 68
2.252 -2.5742000000000003 0.1963 83
2.0703 -2.3652 -0.3257 152
2.2832 -2.6094 0.27949999999999997 179
2.2109 -2.5254 -0.2705 37
2.2109 -2.5254 -0.19260000000000002 23
2.2324 -2.5508 -0.1166 58
2.2285 -2.5469 -0.0387 226
2.002 -2.3027 -0.5307999999999999 201
2.2227 -2.5586 0.0387 185
2.0156 -2.3184 -0.4619 97
2.2324 -2.5702999999999996 0.11710000000000001 68
2.0371 -2.3457 -0.39399999999999996 35
2.248 -2.5879000000000003 0.1968 104
2.0742 -2.3867 -0.32789999999999997 27
2.2715 -2.6132999999999997 0.2791 210
2.2051 -2.5371 -0.2708 213
2.2168 -2.5508 -0.19399999999999998 18
2.2148 -2.5488 -0.1161 199
2.2227 -2.5566 -0.0387 179
2.2305 -2.5839999999999996 0.039 246
2.0156 -2.3359 -0.4639 151
2.2207 -2.5742000000000003 0.11689999999999999 164
2.0215 -2.3438 -0.3926 143
2.252 -2.6113 0.1979 235
2.0762 -2.4062 -0.3296 253
2.2695 -2.6308999999999996 0.28 177
2.1855 -2.5332 -0.2698 239
2.209 -2.5586 -0.19399999999999998 123
2.2246 -2.5762 -0.11710000000000001 74
2.2148 -2.5683999999999996 -0.0388 104
2.6483999999999996 -3.0918 -0.7104 254
2.2266 -2.5976999999999997 0.0391 32
2.0137 -2.3516 -0.4656 168
2.2207 -2.5918 0.1174 76
2.0195 -2.3555 -0.3936 120
2.2383 -2.6132999999999997 0.1975 66
2.0801 -2.4277 -0.33130000000000004 19
2.2656 -2.6445 0.2808 78
2.1895 -2.5547 -0.2712 66
2.1992 -2.5664 -0.19399999999999998 153
2.2207 -2.5918 -0.1174 206
2.207 -2.5762 -0.0388 125
2.6327999999999996 -3.0957 -0.7090000000000001 141
2.2168 -2.6055 0.0391 173
2.0195 -2.373 -0.46880000000000005 227
2.2266 -2.6172000000000004 0.1182 135
2.0293 -2.3848 -0.3972 223
2.2285 -2.6211 0.1975 81
2.0645 -2.4258 -0.3301 237
2.2598 -2.6562 0.2812 1
2.1973 -2.582 -0.2732 187
2.1953 -2.5801 -0.1945 81
2.2148 -2.6035000000000004 -0.1176 156
2.209 -2.5957 -0.038900000000000004 13
2.625 -3.1074 -0.71 0
2.2051 -2.6113 0.0391 149
2.0117 -2.3809 -0.46880000000000005 252
2.2207 -2.627 0.1183 61
2.0195 -2.3906 -0.3972 173
2.2246 -2.6348000000000003 0.1979 91
2.0566 -2.4336 -0.33030000000000004 217
2.2773 -2.6952999999999996 0.2844 156
2.1914 -2.5938 -0.2737 138
2.1914 -2.5938 -0.1949 70
2.209 -2.6151999999999997 -0.1177 16
2.2051 -2.6113 -0.0391 88
2.6289 -3.1348000000000003 -0.7139 81
2.2148 -2.6406 0.0394 86
2.0078 -2.3926 -0.4697 146
2.2285 -2.6562 0.1193 222
2.0293 -2.4199 -0.4006 33
2.2383 -2.668 0.2 203
2.0586 -2.4551 -0.3323 226
2.2598 -2.6933999999999996 0.2834 224
2.1895 -2.6094 -0.2747 180
2.2051 -2.6289 -0.19699999999999998 57
2.2188 -2.6445 -0.11869999999999999 207
2.2207 -2.6483999999999996 -0.0395 69
2.6151999999999997 -3.1406 -0.7134 82
2.2266 -2.6719 0.0398 201
2.0117 -2.416 -0.4729 60
2.2168 -2.6620999999999997 0.1191 91
2.0254 -2.4336 -0.4019 255
2.2422 -2.6933999999999996 0.20120000000000002 12
2.0625 -2.4766 -0.33399999999999996 211
2.248 -2.6992000000000003 0.2832 232
2.1973 -2.6387 -0.27690000000000003 3
2.334 -2.8026999999999997 0.3789 183
2.2109 -2.6562 -0.1984 151
2.2168 -2.6620999999999997 -0.1191 39
2.2012 -2.6426 -0.0393 127
2.5995999999999997 -3.1426 -0.7119 90
2.2188 -2.6836 0.0398 72
2.0176 -2.4414 -0.47659999999999997 69
2.207 -2.6699 0.1191 241
2.0117 -2.4316 -0.4004 13
2.2285 -2.6933999999999996 0.2007 104
2.0547 -2.4844 -0.3342 222
2.2539 -2.7266000000000004 0.2854 44
2.1895 -2.6483999999999996 -0.2771 129
2.2891 -2.7676 0.373 65
2.1953 -2.6543 -0.1978 206
2.207 -2.6699 -0.1191 243
2.1914 -2.6483999999999996 -0.0393 133
2.5839999999999996 -3.1464999999999996 -0.7104 87
2.2051 -2.6855 0.0397 57
2.0195 -2.459 -0.47850000000000004 29
2.209 -2.6895 0.1197 104
2.0137 -2.4531 -0.4028 141
2.2129 -2.6933999999999996 0.2002 81
2.0527 -2.5 -0.33520000000000005 238
2.2422 -2.7305 0.2849 125
2.1914 -2.668 -0.2783 213
2.2969 -2.7969 0.376 255
2.1816 -2.6562 -0.1974 157
2.2012 -2.6816000000000004 -0.11939999999999999 34
2.1934 -2.6719 -0.039599999999999996 94
2.5723000000000003 -3.1562 -0.7104 56
2.1992 -2.6973000000000003 0.0398 169
2.0078 -2.4629 -0.478 104
2.1992 -2.6992000000000003 0.1198 85
2.0117 -2.4668 -0.40409999999999996 148
2.207 -2.707 0.2004 113
2.0488 -2.5137 -0.3362 212
2.2285 -2.7324 0.2844 69
2.1836 -2.6797000000000004 -0.2786 171
2.2773 -2.793 0.3743 55
2.1816 -2.6757999999999997 -0.1981 165
2.1992 -2.6992000000000003 -0.1198 188
2.2031 -2.7031 -0.039900000000000005 26
2.5645 -3.168 -0.7109000000000001 211
2.0117 -2.4844 -0.48100000000000004 65
2.1992 -2.7168 0.12029999999999999 99
2.0234 -2.5 -0.4082 76
2.209 -2.7285000000000004 0.20149999999999998 151
2.0508 -2.5332 -0.3379 15
2.2207 -2.7441000000000004 0.2847 180
2.1777 -2.6914 -0.2791 38
2.2676 -2.8007999999999997 0.3743 26
2.1836 -2.6973000000000003 -0.19920000000000002 95
2.5508 -3.1738 -0.7104 104
2.1914 -2.7266000000000004 0.04 98
2.0371 -2.5352 -0.48950000000000005 94
2.1875 -2.7226999999999997 0.1201 228
2.0098 -2.502 -0.4075 32
2.209 -2.748 0.2025 67
2.043 -2.543 -0.3381 234
2.2227 -2.7656 0.2861 171
2.1699 -2.7012 -0.2793 128
2.2559 -2.8086 0.374 82
2.1797 -2.7129000000000003 -0.1998 250
2.2871 -2.8457 0.46409999999999996 107
2.1797 -2.7129000000000003 -0.1197 30
2.1777 -2.7089999999999996 -0.0397 192
2.5391 -3.1816000000000004 -0.7104 243
2.1875 -2.7401999999999997 0.0401 233
2.0508 -2.5702999999999996 -0.4949 217
2.1855 -2.7382999999999997 0.12050000000000001 38
2.0078 -2.5156 -0.40869999999999995 119
2.1992 -2.7558999999999996 0.2025 234
2.0449 -2.5645 -0.34009999999999996 78
2.2266 -2.7910000000000004 0.2878 173
2.166 -2.7148000000000003 -0.28 37
2.2363 -2.8026999999999997 0.37229999999999996 126
2.1699 -2.7207 -0.1998 157
2.2559 -2.8281 0.46 110
2.1855 -2.7382999999999997 -0.12050000000000001 84
2.1699 -2.7207 -0.0398 201
2.5176 -3.1776999999999997 -0.7075 206
2.1777 -2.748 0.0401 244
2.0781 -2.623 -0.5039 99
2.1914 -2.7656 0.12140000000000001 147
2.0137 -2.543 -0.41159999999999997 118
2.1914 -2.7676 0.2026 50
2.0391 -2.5742000000000003 -0.3406 138
2.2168 -2.7969 0.2878 169
2.1621 -2.7305 -0.2808 138
2.2227 -2.8066000000000004 0.3716 53
2.1641 -2.7305 -0.20010000000000003 108
2.2266 -2.8086 0.4556 231
2.1875 -2.7617000000000003 -0.1213 123
2.2988 -2.9004000000000003 0.5581 254
2.166 -2.7344 -0.039900000000000005 99
2.5098 -3.1914 -0.7084999999999999 16
2.1699 -2.7577999999999996 0.0401 180
2.0703 -2.6308999999999996 -0.5039 36
2.1855 -2.7793 0.1217 58
2.0078 -2.5527 -0.4121 46
2.1934 -2.7870999999999997 0.2036 189
2.0371 -2.5879000000000003 -0.34159999999999996 109
2.1992 -2.7969 0.2869 235
2.1621 -2.748 -0.282 65
2.2168 -2.8183999999999996 0.37229999999999996 207
2.1621 -2.748 -0.2007 253
2.2188 -2.8202999999999996 0.4561 200
2.1777 -2.7676 -0.12119999999999999 116
2.2734 -2.8906 0.5542 82
2.1641 -2.752 -0.04 184
2.2656 -2.8789 0.6386999999999999 0
2.4941 -3.1933999999999996 -0.7070000000000001 12
2.166 -2.7714999999999996 0.0403 251
2.0586 -2.6348000000000003 -0.5034000000000001 95
2.1816 -2.793 0.1219 115
2.0176 -2.582 -0.41600000000000004 113
2.1855 -2.7969 0.2039 52
2.041 -2.6132999999999997 -0.344 240
2.1934 -2.8066000000000004 0.2874 244
2.1543 -2.7577999999999996 -0.2822 135
2.209 -2.8281 0.3726 255
2.1621 -2.7676 -0.20170000000000002 82
2.2148 -2.8358999999999996 0.4573 27
2.1719 -2.7812 -0.1215 22
2.2324 -2.8574 0.5464 206
2.168 -2.7754000000000003 -0.0403 87
2.2598 -2.8926 0.6401 243
2.4805 -3.1992000000000003 -0.7061 111
2.0508 -2.6445 -0.5039 234
2.1719 -2.8026999999999997 0.122 17
2.0098 -2.5938 -0.4165 110
2.1875 -2.8202999999999996 0.2051 200
2.0645 -2.6620999999999997 -0.3496 226
2.209 -2.8476999999999997 0.3743 98
2.1621 -2.7870999999999997 -0.2026 159
2.209 -2.8476999999999997 0.4583 50
2.2207 -2.8632999999999997 0.5459 116
2.25 -2.9004000000000003 0.6401 192
2.4688 -3.207 -0.7061 32
2.1777 -2.8262 0.0408 35
2.0566 -2.6699 -0.5073 162
2.1699 -2.8183999999999996 0.12240000000000001 27
2.0195 -2.6211 -0.4202 101
2.1836 -2.8339999999999996 0.2054 19
2.0527 -2.6660000000000004 -0.34909999999999997 63
2.1875 -2.8398000000000003 0.2891 29
2.1465 -2.7870999999999997 -0.2837 188
2.1953 -2.8516000000000004 0.3735 199
2.1504 -2.793 -0.2024 67
2.2031 -2.8613 0.45899999999999996 81
2.1699 -2.8183999999999996 -0.12240000000000001 78
2.2188 -2.8827999999999996 0.5483 27
2.1406 -2.7812 -0.0401 206
2.4453 -3.1952999999999996 -0.7021 158
2.1484 -2.8086 0.0404 108
2.0527 -2.6836 -0.5088 151
2.1602 -2.8242000000000003 0.12240000000000001 157
2.0176 -2.6387 -0.4219 182
2.1797 -2.8495999999999997 0.2061 33
2.0469 -2.6757999999999997 -0.3496 254
2.1895 -2.8632999999999997 0.2908 123
2.1328 -2.7891000000000004 -0.28300000000000003 213
2.1797 -2.8495999999999997 0.3726 24
2.1328 -2.7870999999999997 -0.20149999999999998 230
2.1973 -2.873 0.46 28
2.1582 -2.8223000000000003 -0.1223 60
2.2148 -2.8964999999999996 0.5493 98
2.1504 -2.8125 -0.0405 74
2.2227 -2.9043 0.6377 50
2.4258 -3.1952999999999996 -0.7001999999999999 92
2.1309 -2.8086 0.0403 211
2.043 -2.6914 -0.5088 204
2.1465 -2.8281 0.1222 230
2.0059 -2.6426 -0.4214 142
2.1641 -2.8516000000000004 0.20559999999999998 117
2.041 -2.6895 -0.35009999999999997 138
2.1621 -2.8476999999999997 0.2883 13
2.125 -2.7988 -0.2834 245
2.1758 -2.8672000000000004 0.3738 66
2.125 -2.8007999999999997 -0.20190000000000002 11
2.1895 -2.8848000000000003 0.4604 9
2.1387 -2.8164 -0.1217 27
2.2109 -2.9141000000000004 0.5513 102
2.1387 -2.8183999999999996 -0.0405 74
2.2168 -2.9219 0.6392 122
2.4199 -3.2108999999999996 -0.7017 13
2.127 -2.8223000000000003 0.0404 104
2.0449 -2.7148000000000003 -0.5117 216
2.1328 -2.8301 0.1219 174
2.0059 -2.6620999999999997 -0.42310000000000003 77
2.1387 -2.8379000000000003 0.2041 151
2.0391 -2.7051 -0.3513 207
2.1504 -2.8535000000000004 0.28809999999999997 255
2.1094 -2.8007999999999997 -0.2827 149
2.1445 -2.8457 0.3701 211
2.1191 -2.8105 -0.2021 86
2.1211 -2.8145 -0.1213 202
2.207 -2.9297000000000004 0.5527000000000001 82
2.1309 -2.8262 -0.0405 228
2.2148 -2.9375 0.6411 7
2.1172 -2.8301 0.0404 91
2.0547 -2.7461 -0.5166 92
2.1172 -2.832 0.1217 146
2.002 -2.6757999999999997 -0.42460000000000003 110
2.1387 -2.8594 0.2051 79
2.0527 -2.7441000000000004 -0.3557 228
2.1055 -2.8164 0.2834 81
2.0938 -2.7988 -0.2817 158
2.1309 -2.8476999999999997 0.3691 64
2.1035 -2.8125 -0.20170000000000002 165
2.1426 -2.8632999999999997 0.4546 183
2.1152 -2.8281 -0.1215 27
2.2109 -2.9551 0.5562 181
2.1172 -2.8301 -0.0404 195
2.1133 -2.8457 0.0406 99
2.0742 -2.793 -0.5239 139
2.1113 -2.8418 0.12179999999999999 133
1.999 -2.6914 -0.42579999999999996 228
2.1211 -2.8555 0.2043 106
2.0586 -2.7714999999999996 -0.35840000000000005 107
2.1016 -2.8301 0.2844 35
2.0879 -2.8125 -0.2825 27
2.125 -2.8613 0.3701 230
2.0918 -2.8164 -0.2014 182
2.1387 -2.8808999999999996 0.4561 106
2.1074 -2.8379000000000003 -0.1217 31
2.2012 -2.9648000000000003 0.5566 101
2.1016 -2.8281 -0.0403 241
3.1289 -4.2109 0.9179999999999999 73
2.0957 -2.8438 0.0404 0
2.0781 -2.8183999999999996 -0.5273 83
2.1016 -2.8516000000000004 0.1219 124
1.9980000000000002 -2.7108999999999996 -0.4277 251
2.1035 -2.8555 0.2036 42
2.0938 -2.8418 -0.3665 48
2.0586 -2.793 0.27949999999999997 103
2.082 -2.8262 -0.28300000000000003 126
2.1113 -2.8651999999999997 0.3696 184
2.0781 -2.8202999999999996 -0.20120000000000002 239
2.1191 -2.875 0.4539 215
2.0977 -2.8457 -0.1217 170
2.1367 -2.9004000000000003 0.5429999999999999 164
2.0918 -2.8379000000000003 -0.0403 125
3.082 -4.1836 0.9087000000000001 189
2.0801 -2.8418 0.0403 206
2.0703 -2.8301 -0.5278 75
2.0938 -2.8613 0.122 206
2.0 -2.7344 -0.4304 135
2.0957 -2.8651999999999997 0.2039 19
2.1113 -2.8848000000000003 -0.3711 151
2.0488 -2.7988 0.27949999999999997 176
2.0723 -2.8339999999999996 -0.28300000000000003 95
2.125 -2.9062 0.3738 111
2.0684 -2.8281 -0.20120000000000002 238
2.1074 -2.8808999999999996 0.4539 166
2.0781 -2.8398000000000003 -0.1211 71
2.1367 -2.9199 0.5454 152
2.084 -2.8476999999999997 -0.0403 63
2.0742 -2.8555 0.0404 211
2.0742 -2.8555 -0.5317000000000001 151
2.0801 -2.8613 0.12179999999999999 108
2.0078 -2.7637 -0.4338 135
2.0918 -2.8789 0.2043 94
2.1855 -3.0077999999999996 -0.3862 25
2.0391 -2.8066000000000004 0.27949999999999997 217
2.0625 -2.8398000000000003 -0.28300000000000003 159
2.1309 -2.9336 0.3765 255
2.0664 -2.8438 -0.20190000000000002 187
2.1016 -2.8926 0.4543 222
2.0703 -2.8516000000000004 -0.1213 51
2.0801 -2.8613 -0.0405 76
0.5947 -0.8242 -0.1718 102
2.0684 -2.8651999999999997 0.0404 182
2.0117 -2.7891000000000004 -0.5176 202
2.0684 -2.8651999999999997 0.1216 241
1.999 -2.7695 -0.4338 61
2.0801 -2.8827999999999996 0.20420000000000002 113
2.1465 -2.9766000000000004 -0.3811 207
2.0449 -2.8339999999999996 -0.2817 109
2.0918 -2.9004000000000003 0.3713 156
2.0547 -2.8476999999999997 -0.20170000000000002 217
2.0586 -2.8535000000000004 -0.1211 196
2.0664 -2.8632999999999997 -0.0404 28
0.5688 -0.7944 -0.1649 221
2.0566 -2.873 0.0404 99
2.0059 -2.8026999999999997 -0.519 190
2.0547 -2.8711 0.1215 254
2.0 -2.793 -0.4365 167
2.0703 -2.8906 0.20420000000000002 119
2.0605 -2.8789 -0.3674 98
1.9746000000000001 -2.7577999999999996 0.2734 161
2.0391 -2.8476999999999997 -0.2825 99
2.041 -2.8516000000000004 -0.20129999999999998 118
2.0527 -2.8691000000000004 -0.12140000000000001 86
2.041 -2.8516000000000004 -0.0401 214
0.5547 -0.7803 -0.16140000000000002 123
2.0449 -2.877 0.0404 151
2.0059 -2.8223000000000003 -0.5215 73
2.0547 -2.8906 0.122 209
1.9980000000000002 -2.8125 -0.4382 13
2.0547 -2.8926 0.20370000000000002 162
2.0391 -2.8672000000000004 -0.3652 70
1.9443000000000001 -2.7363 0.2705 74
2.0293 -2.8555 -0.2825 242
2.0293 -2.8555 -0.201 87
2.0508 -2.8848000000000003 -0.12179999999999999 236
2.0371 -2.8651999999999997 -0.04019999999999999 204
0.5698 -0.8081 -0.16699999999999998 183
2.0273 -2.875 0.0403 111
1.9931999999999999 -2.8262 -0.521 82
2.041 -2.8945 0.1219 184
2.0098 -2.8476999999999997 -0.4429 60
2.0449 -2.8983999999999996 0.20370000000000002 70
2.0195 -2.8632999999999997 -0.3638 31
2.0195 -2.8632999999999997 0.2825 143
2.0234 -2.8691000000000004 -0.28300000000000003 50
2.0176 -2.8594 -0.2009 248
2.0273 -2.873 -0.121 26
2.0273 -2.875 -0.0403 233
0.5513 -0.7870999999999999 -0.16210000000000002 207
2.0195 -2.8848000000000003 0.0403 105
1.9893 -2.8398000000000003 -0.5225 101
2.0293 -2.8983999999999996 0.12179999999999999 77
2.0137 -2.875 -0.4458 149
2.041 -2.9160000000000004 0.2045 179
2.0156 -2.8789 -0.36469999999999997 184
2.0059 -2.8651999999999997 -0.282 125
2.0117 -2.873 -0.2014 144
2.0137 -2.877 -0.1208 25
2.0312 -2.9004000000000003 -0.0405 113
0.5259 -0.7568 -0.1552 175
2.0137 -2.8983999999999996 0.0404 136
1.9950999999999999 -2.8711 -0.5264 223
2.0156 -2.9004000000000003 0.1215 229
2.002 -2.8808999999999996 -0.4458 155
2.0371 -2.9297000000000004 0.205 200
2.0098 -2.8926 -0.3657 239
2.7754000000000003 -3.9941000000000004 0.3936 222
1.9941 -2.8691000000000004 -0.2817 136
2.002 -2.8808999999999996 -0.2014 163
2.0059 -2.8867000000000003 -0.121 135
2.002 -2.8808999999999996 -0.0401 124
0.5259 -0.7622 -0.1559 217
2.0059 -2.9082 0.0404 178
1.9912 -2.8867000000000003 -0.5283 146
2.0039 -2.9043 0.12140000000000001 244
2.0078 -2.9101999999999997 -0.44920000000000004 57
2.0176 -2.9238 0.204 160
2.0 -2.9004000000000003 -0.3657 18
2.7617000000000003 -4.0039 0.3936 204
1.9863 -2.8789 -0.282 202
1.9872999999999998 -2.8808999999999996 -0.2009 63
1.999 -2.8964999999999996 -0.1211 18
1.9872999999999998 -2.8808999999999996 -0.04 148
0.5297999999999999 -0.7734000000000001 -0.158 5
1.9922 -2.9082 0.0403 128
2.0078 -2.9316000000000004 -0.5352 162
1.9980000000000002 -2.918 0.1217 46
2.0176 -2.9433999999999996 -0.4536 218
1.9980000000000002 -2.918 0.203 230
1.9844 -2.8964999999999996 -0.36450000000000005 214
2.748 -4.0117 0.3936 53
1.9794999999999998 -2.8887 -0.2825 227
1.9707 -2.877 -0.2002 56
1.9931999999999999 -2.9101999999999997 -0.12140000000000001 176
1.9785 -2.8887 -0.04 44
0.5581 -0.8208 -0.16760000000000003 101
1.9785 -2.9082 0.0403 77
2.0039 -2.9473000000000003 -0.5371 95
1.9961000000000002 -2.9355 0.1222 196
2.8281 -4.1602 -0.6416 99
2.0 -2.9395 0.20420000000000002 205
1.9697 -2.8964999999999996 -0.3635 141
2.7344 -4.0234 0.3936 244
1.9736000000000002 -2.9023000000000003 -0.28300000000000003 192
1.9697 -2.8964999999999996 -0.201 251
1.9794999999999998 -2.9101999999999997 -0.1211 98
1.9775 -2.9062 -0.04019999999999999 82
1.79 -2.6327999999999996 0.5537 203
0.5552 -0.8228 -0.16760000000000003 147
1.9716999999999998 -2.9219 0.0403 54
1.9971 -2.9589999999999996 -0.5381 21
1.9766 -2.9297000000000004 0.1216 158
2.7851999999999997 -4.1289 -0.6347999999999999 6
1.9893 -2.9473000000000003 0.20420000000000002 64
1.959 -2.9043 -0.3635 244
1.9561000000000002 -2.8983999999999996 -0.282 222
1.9609 -2.9062 -0.20129999999999998 0
1.7841999999999998 -2.6445 0.4048 104
1.9628999999999999 -2.9101999999999997 -0.1208 40
1.8252000000000002 -2.7051 0.491 213
1.9697 -2.9199 -0.0403 122
1.7803 -2.6387 0.5537 229
0.5371 -0.8018000000000001 -0.16269999999999998 138
1.9668 -2.9355 0.0404 223
2.0039 -2.9922000000000004 -0.5425 245
1.9668 -2.9355 0.1216 40
2.7401999999999997 -4.0898 -0.6279 173
1.9834 -2.9608999999999996 0.2047 37
1.9580000000000002 -2.9238 -0.3652 150
1.9413999999999998 -2.8983999999999996 -0.2812 34
1.8105000000000002 -2.7031 0.33740000000000003 22
1.9521000000000002 -2.9141000000000004 -0.2014 84
1.7637 -2.6348000000000003 0.4023 111
1.9550999999999998 -2.9199 -0.1209 233
1.7646000000000002 -2.6348000000000003 0.4771 36
1.9531 -2.9160000000000004 -0.0401 144
1.7538999999999998 -2.6191000000000004 0.5483 89
0.5527000000000001 -0.8315 -0.16870000000000002 211
1.9541 -2.9395 0.0404 240
2.0059 -3.0176 -0.5459 75
1.9550999999999998 -2.9414 0.1215 159
2.7207 -4.0938 -0.6265 21
1.9638999999999998 -2.9551 0.20370000000000002 109
1.9502000000000002 -2.9336 -0.3657 134
1.9346 -2.9101999999999997 -0.2817 89
1.9394999999999998 -2.918 -0.20120000000000002 243
1.7450999999999999 -2.625 0.39990000000000003 78
1.9472999999999998 -2.9297000000000004 -0.121 91
1.7422 -2.6211 0.47340000000000004 218
1.9404 -2.9199 -0.0401 50
1.7441 -2.625 0.5483 4
0.4849 -0.7349 -0.1478 64
1.9424000000000001 -2.9452999999999996 0.0403 245
1.9482 -2.9531 0.12179999999999999 195
1.9121000000000001 -2.8983999999999996 -0.4414 82
1.9541 -2.9608999999999996 0.20370000000000002 198
1.9306999999999999 -2.9276999999999997 -0.364 34
1.9238 -2.9160000000000004 -0.2817 170
1.9199000000000002 -2.9101999999999997 -0.2002 247
1.7334 -2.627 0.3994 117
1.9463 -2.9492000000000003 -0.1216 116
1.7383000000000002 -2.6348000000000003 0.47490000000000004 241
1.9413999999999998 -2.9433999999999996 -0.0403 107
1.7256 -2.6151999999999997 0.5449 237
0.49729999999999996 -0.7598 -0.1527 243
1.9258000000000002 -2.9414 0.04019999999999999 44
2.7108999999999996 -4.1406 -0.748 25
1.9394999999999998 -2.9629000000000003 0.1219 16
1.9209 -2.9336 -0.4456 236
1.9434 -2.9688 0.20370000000000002 188
1.9247999999999998 -2.9414 -0.36469999999999997 101
1.916 -2.9276999999999997 -0.282 10
1.916 -2.9257999999999997 -0.20079999999999998 89
1.7227000000000001 -2.6327999999999996 0.3992 252
1.9365 -2.9589999999999996 -0.1217 239
1.7294999999999998 -2.6426 0.47490000000000004 56
1.9297 -2.9473000000000003 -0.0403 189
1.7236000000000002 -2.6327999999999996 0.5474 119
0.4968 -0.7646 -0.1534 255
2.6933999999999996 -4.1484 -0.7476 200
1.9277000000000002 -2.9668 0.12179999999999999 213
1.9053 -2.9336 -0.4443 36
1.9394999999999998 -2.9844 0.2045 207
1.9121000000000001 -2.9433999999999996 -0.36450000000000005 179
1.9043 -2.9316000000000004 -0.282 245
1.7725 -2.7285000000000004 0.33740000000000003 12
1.9053 -2.9336 -0.20079999999999998 24
1.71 -2.6308999999999996 0.3982 193
1.7383000000000002 -2.6757999999999997 0.48 31
1.7344 -2.6699 0.5537 14
0.5068 -0.7861 -0.1576 195
1.916 -2.9726999999999997 0.0404 158
2.6776999999999997 -4.1523 -0.7471 85
1.9141 -2.9688 0.1215 52
1.8925999999999998 -2.9355 -0.44380000000000003 252
1.9316 -2.9961 0.2047 29
1.9091999999999998 -2.9608999999999996 -0.3657 46
1.8857 -2.9257999999999997 -0.2805 164
1.7637 -2.7344 0.33740000000000003 223
1.8975 -2.9433999999999996 -0.201 50
1.7178 -2.6641000000000004 0.4023 141
1.9072 -2.9589999999999996 -0.1211 39
1.7138999999999998 -2.6582 0.4758 218
1.9003999999999999 -2.9473000000000003 -0.0401 170
1.7187999999999999 -2.6660000000000004 0.5518 134
0.5044 -0.7881 -0.1576 76
1.9062000000000001 -2.9805 0.0405 38
2.6875 -4.2031 -0.7539 57
1.9053 -2.9785000000000004 0.1217 218
1.8788999999999998 -2.9375 -0.44310000000000005 236
1.915 -2.9941000000000004 0.2041 129
1.8984 -2.9668 -0.3657 221
1.9766 -3.0898000000000003 0.2959 148
1.8818000000000001 -2.9414 -0.2815 119
2.6094 -4.0781 0.5044 75
1.8847999999999998 -2.9473000000000003 -0.20079999999999998 204
1.7294999999999998 -2.7031 0.4075 161
1.9033000000000002 -2.9745999999999997 -0.1215 251
1.8887 -2.9512 -0.0401 45
2.6348000000000003 -4.1172 0.8545 176
1.8896000000000002 -2.9766000000000004 0.0403 97
2.6836 -4.2266 -0.7573000000000001 91
1.8994 -2.9922000000000004 0.1219 74
1.8711000000000002 -2.9473000000000003 -0.4436 2
1.8984 -2.9901999999999997 0.2034 21
1.8847999999999998 -2.9688 -0.365 214
1.8779 -2.9589999999999996 -0.2825 205
1.8700999999999999 -2.9473000000000003 -0.2003 15
2.541 -4.0039 0.6045 132
1.8925999999999998 -2.9824 -0.1215 101
1.8779 -2.957 -0.0401 84
2.6151999999999997 -4.1172 0.853 154
1.8730000000000002 -2.9726999999999997 0.04019999999999999 65
2.6641000000000004 -4.2266 -0.7554000000000001 237
1.8906 -3.002 0.12210000000000001 189
1.8594 -2.9531 -0.4434 202
1.8896000000000002 -3.0 0.2036 159
1.8652000000000002 -2.9608999999999996 -0.363 125
2.0078 -3.1875 0.304 70
1.8622999999999998 -2.957 -0.2817 66
2.5117 -3.9882999999999997 0.491 155
1.8643 -2.9589999999999996 -0.20079999999999998 79
2.5195 -3.998 0.6025 236
1.8818000000000001 -2.9863 -0.1215 176
2.5801 -4.0938 0.7314 58
1.8711000000000002 -2.9688 -0.0401 238
2.5938 -4.1172 0.8506 66
1.8700999999999999 -2.9882999999999997 0.0403 179
2.6562 -4.2461 -0.7573000000000001 12
1.875 -2.998 0.1217 197
1.8525 -2.9608999999999996 -0.44380000000000003 207
1.8866999999999998 -3.0156 0.2043 132
1.8544999999999998 -2.9648000000000003 -0.363 1
1.9453 -3.1094 0.2959 184
1.8555000000000001 -2.9648000000000003 -0.282 86
2.5156 -4.0195 0.4939 79
1.8584 -2.9707 -0.20120000000000002 158
2.4844 -3.9726999999999997 0.5972 157
1.8681999999999999 -2.9863 -0.12119999999999999 29
2.5059 -4.0078 0.7139 131
1.8613 -2.9745999999999997 -0.0401 202
2.5801 -4.1211 0.8501000000000001 39
1.8622999999999998 -2.998 0.0404 69
2.6483999999999996 -4.2656 -0.7587999999999999 108
1.8613 -2.9961 0.12140000000000001 104
1.8388999999999998 -2.9608999999999996 -0.4429 113
1.8788999999999998 -3.0254000000000003 0.2046 110
1.8506 -2.9805 -0.3643 38
1.9199000000000002 -3.0918 0.2937 226
1.8418 -2.9648000000000003 -0.2815 242
2.502 -4.0273 0.4939 212
1.8466999999999998 -2.9726999999999997 -0.2009 178
2.4727 -3.9805 0.5972 33
1.8643 -3.002 -0.1216 110
2.5254 -4.0664 0.7236 102
1.8496000000000001 -2.9785000000000004 -0.0401 243
2.5645 -4.1289 0.8495999999999999 65
1.8516 -3.0077999999999996 0.0404 226
2.6113 -4.2422 -0.7529 55
1.8555000000000001 -3.0156 0.12179999999999999 237
1.8311000000000002 -2.9745999999999997 -0.44380000000000003 159
1.8584 -3.0195 0.2036 65
1.8428 -2.9941000000000004 -0.365 126
1.9033000000000002 -3.0938 0.293 202
1.8300999999999998 -2.9745999999999997 -0.2815 196
2.4336 -3.9531 0.48340000000000005 124
1.835 -2.9805 -0.2009 122
2.4414 -3.9668 0.5938 31
1.8563999999999998 -3.0156 -0.1219 29
2.5039 -4.0664 0.7217 12
2.541 -4.1289 0.8477 110
1.835 -3.0058999999999996 0.0403 107
2.5879000000000003 -4.2422 -0.7509999999999999 250
1.8418 -3.0176 0.1217 22
1.8241999999999998 -2.9882999999999997 -0.4448 202
1.8477000000000001 -3.0273000000000003 0.2036 137
1.8262 -2.9922000000000004 -0.3638 122
1.8652000000000002 -3.0566000000000004 0.2888 245
1.8222999999999998 -2.9863 -0.282 156
2.418 -3.9629000000000003 0.48340000000000005 113
1.8193000000000001 -2.9805 -0.2004 138
2.4238 -3.9726999999999997 0.5932999999999999 219
1.8496000000000001 -3.0293 -0.1222 114
2.5312 -4.1484 0.7343999999999999 184
1.834 -3.0039 -0.0403 24
2.5078 -4.1094 0.8412999999999999 121
0.4851 -0.7998000000000001 -0.1576 153
1.8241999999999998 -3.0077999999999996 0.0403 139
2.6445 -4.3594 -0.7709999999999999 119
1.8369 -3.0312 0.1219 54
1.8154 -2.9941000000000004 -0.4448 147
1.8388999999999998 -3.0312 0.2036 95
1.8174000000000001 -2.9961 -0.3638 196
1.8622999999999998 -3.0723000000000003 0.2898 19
1.8213 -3.0039 -0.2832 193
2.4336 -4.0156 0.4888 66
1.8144999999999998 -2.9922000000000004 -0.2009 216
2.4316 -4.0117 0.5977 152
1.8319999999999999 -3.0214999999999996 -0.1216 60
2.5137 -4.1484 0.7329000000000001 15
2.498 -4.1211 0.8423 146
0.4824 -0.8018000000000001 -0.1576 177
1.8144999999999998 -3.0156 0.0403 254
2.7344 -4.5469 -0.8022 247
1.8252000000000002 -3.0332 0.12179999999999999 99
1.8037 -2.9961 -0.4443 166
1.8369 -3.0526999999999997 0.2046 119
1.8075999999999999 -3.002 -0.3638 138
1.8437999999999999 -3.0645 0.2883 106
1.8066 -3.002 -0.2825 137
1.8066 -3.002 -0.20120000000000002 148
2.4609 -4.0898 0.6084 110
1.8203 -3.0233999999999996 -0.1215 34
2.5 -4.1562 0.7329000000000001 170
1.8125 -3.0117000000000003 -0.04019999999999999 44
2.4883 -4.1328 0.8432999999999999 126
0.5054 -0.8477 -0.1666 130
1.8086000000000002 -3.0332 0.0404 181
2.7285000000000004 -4.5781 -0.8062 250
1.8105000000000002 -3.0370999999999997 0.1217 239
1.7949000000000002 -3.0098000000000003 -0.44530000000000003 96
1.8222999999999998 -3.0566000000000004 0.2043 140
1.8008000000000002 -3.0195 -0.365 93
1.8496000000000001 -3.1016000000000004 0.2913 82
1.7938999999999998 -3.0077999999999996 -0.2825 94
1.7969 -3.0137 -0.2014 240
2.4746 -4.1484 0.6162 30
1.8096 -3.0351999999999997 -0.1216 21
2.4707 -4.1445 0.7290000000000001 13
1.8008000000000002 -3.0195 -0.04019999999999999 142
2.4668 -4.1367 0.8423 154
0.4763 -0.8051999999999999 -0.1576 133
1.7988 -3.0410000000000004 0.0404 9
2.7207 -4.6016 -0.8086 86
1.8037 -3.0507999999999997 0.1219 252
1.7725 -2.9961 -0.4424 163
1.8115 -3.0625 0.2043 158
1.7919999999999998 -3.0312 -0.3655 227
1.8369 -3.1055 0.29100000000000004 214
1.7832 -3.0137 -0.2825 222
1.7812000000000001 -3.0117000000000003 -0.2009 249
2.457 -4.1523 0.6152000000000001 31
1.8047 -3.0526999999999997 -0.122 4
2.4453 -4.1367 0.7261 252
2.4355 -4.1172 0.8364 240
0.5234000000000001 -0.8916 -0.17489999999999997 186
1.7891 -3.0469 0.0404 8
2.7324 -4.6523 -0.8164 182
1.7969 -3.0586 0.12210000000000001 216
1.7686000000000002 -3.0117000000000003 -0.44380000000000003 49
1.7978999999999998 -3.0605 0.2039 203
1.7763999999999998 -3.0254000000000003 -0.3643 134
1.8232 -3.1035000000000004 0.2903 159
1.7772999999999999 -3.0273000000000003 -0.28300000000000003 250
2.4551 -4.1836 0.5049 182
1.7686000000000002 -3.0117000000000003 -0.2004 111
2.4316 -4.1406 0.6123 9
1.7997999999999998 -3.0645 -0.1223 117
2.4258 -4.1328 0.7241 117
1.7793 -3.0293 -0.04019999999999999 245
2.4141 -4.1094 0.833 47
0.5029 -0.8628 -0.16870000000000002 162
1.7753999999999999 -3.0469 0.0403 211
2.6973000000000003 -4.6289 -0.8101 157
1.7861000000000002 -3.0645 0.12210000000000001 133
1.7646000000000002 -3.0293 -0.44530000000000003 165
1.791 -3.0742000000000003 0.2043 236
1.7646000000000002 -3.0273000000000003 -0.3638 221
1.8115 -3.1094 0.2903 89
1.7686000000000002 -3.0351999999999997 -0.2832 178
2.4434 -4.1914 0.5054 33
1.7646000000000002 -3.0273000000000003 -0.20120000000000002 117
2.4082 -4.1328 0.6099 59
1.7852000000000001 -3.0645 -0.122 71
2.416 -4.1445 0.7251000000000001 247
1.7822 -3.0586 -0.0405 215
2.4043 -4.125 0.8345 172
0.5034000000000001 -0.8715999999999999 -0.17 187
1.7656 -3.0566000000000004 0.0404 82
2.4023 -4.1562 -0.7256 179
1.7734 -3.0683999999999996 0.1219 17
1.7538999999999998 -3.0351999999999997 -0.44530000000000003 140
1.7822 -3.0839999999999996 0.2046 195
1.7559 -3.0370999999999997 -0.3643 117
1.7997999999999998 -3.1151999999999997 0.2903 173
1.7538999999999998 -3.0351999999999997 -0.2827 162
2.2812 -3.9492000000000003 0.47490000000000004 4
1.7568000000000001 -3.0410000000000004 -0.20170000000000002 44
2.3145 -4.0078 0.5898 93
1.7694999999999999 -3.0625 -0.12179999999999999 147
2.3945 -4.1445 0.7231000000000001 231
2.3594 -4.082 0.8242 85
0.4653 -0.8115000000000001 -0.1576 126
1.7588 -3.0683999999999996 0.0405 234
2.3984 -4.1836 -0.7290000000000001 144
1.7578 -3.0683999999999996 0.1217 235
1.7393 -3.0332 -0.4443 53
1.7772999999999999 -3.1016000000000004 0.2052 3
1.7529 -3.0586 -0.366 234
1.7841999999999998 -3.1132999999999997 0.2893 79
1.7383000000000002 -3.0332 -0.282 240
2.25 -3.9238 0.4707 189
1.7480000000000002 -3.0507999999999997 -0.20190000000000002 131
2.248 -3.9219 0.5761999999999999 75
1.7616999999999998 -3.0723000000000003 -0.1219 142
2.2422 -3.9101999999999997 0.6807 99
1.75 -3.0547000000000004 -0.0403 223
2.2207 -3.875 0.7803 183
0.4819 -0.8477 -0.1646 60
1.749 -3.0781 0.0405 160
2.3906 -4.207 -0.7314 9
1.75 -3.0781 0.12179999999999999 61
1.7266 -3.0370999999999997 -0.44380000000000003 52
1.7607 -3.0957 0.2046 162
1.7441 -3.0683999999999996 -0.36619999999999997 116
1.7822 -3.1348000000000003 0.2908 253
1.7363 -3.0526999999999997 -0.2832 214
1.7334 -3.0488 -0.2014 137
2.1992 -3.8691000000000004 0.5669 20
1.7549000000000001 -3.0858999999999996 -0.1222 200
2.207 -3.8808999999999996 0.6743000000000001 185
2.2188 -3.9023000000000003 0.7842 24
0.49829999999999997 -0.8833 -0.17149999999999999 69
1.7393 -3.0858999999999996 0.0405 42
2.3691 -4.2031 -0.7290000000000001 93
1.7450999999999999 -3.0938 0.1223 207
1.7197 -3.0488 -0.4448 188
1.7461000000000002 -3.0957 0.2041 86
1.7285 -3.0645 -0.3652 3
1.7783000000000002 -3.1523000000000003 0.292 142
1.7305000000000001 -3.0683999999999996 -0.2839 204
2.1973 -3.8945 0.4653 90
1.7216999999999998 -3.0526999999999997 -0.20120000000000002 62
2.1895 -3.8848000000000003 0.5684 247
1.75 -3.1016000000000004 -0.1226 98
2.1914 -3.8867000000000003 0.6738 11
1.7313999999999998 -3.0702999999999996 -0.0403 72
0.4875 -0.8715999999999999 -0.16870000000000002 237
1.7246000000000001 -3.0839999999999996 0.0404 111
2.3477 -4.1953 -0.7265999999999999 193
1.7353999999999998 -3.1035000000000004 0.12240000000000001 218
1.7168 -3.0702999999999996 -0.447 175
1.7422 -3.1132999999999997 0.205 241
1.7138999999999998 -3.0645 -0.36450000000000005 5
1.7646000000000002 -3.1543 0.2915 188
1.7246000000000001 -3.082 -0.2849 155
2.1914 -3.9160000000000004 0.467 147
1.7147999999999999 -3.0645 -0.20170000000000002 14
2.168 -3.877 0.5659000000000001 156
1.7294999999999998 -3.0938 -0.1219 245
2.1816 -3.9004000000000003 0.6748000000000001 223
1.7256 -3.0858999999999996 -0.0404 7
2.1738 -3.8867000000000003 0.7778 1
0.4539 -0.8179000000000001 -0.1576 162
1.7109 -3.0839999999999996 0.0403 74
2.3223 -4.1875 -0.7236 173
1.7187999999999999 -3.0995999999999997 0.1219 194
1.7041 -3.0723000000000003 -0.44630000000000003 9
1.7294999999999998 -3.1191000000000004 0.2048 106
1.7138999999999998 -3.0898000000000003 -0.3667 85
1.7450999999999999 -3.1464999999999996 0.2903 9
1.7021000000000002 -3.0683999999999996 -0.28300000000000003 45
2.1738 -3.9160000000000004 0.46630000000000005 102
1.71 -3.082 -0.2024 178
2.1582 -3.8906 0.5669 246
1.7197 -3.1016000000000004 -0.122 51
2.1582 -3.8906 0.6718999999999999 114
1.7109 -3.0839999999999996 -0.0403 108
2.1641 -3.8983999999999996 0.7787999999999999 32
0.489 -0.8887 -0.17149999999999999 68
1.7080000000000002 -3.1035000000000004 0.0405 48
1.9375 -3.5195 -0.606 137
1.709 -3.1055 0.1219 141
1.6904 -3.0702999999999996 -0.44530000000000003 135
1.7216999999999998 -3.127 0.2051 177
1.7012 -3.0918 -0.36619999999999997 220
1.7344 -3.1504000000000003 0.29 82
1.6913999999999998 -3.0742000000000003 -0.28300000000000003 208
2.1504 -3.9043 0.4639 29
1.7031 -3.0938 -0.2028 30
2.1445 -3.8964999999999996 0.5664 91
1.7128999999999999 -3.1113 -0.1223 11
2.1504 -3.9062 0.6733 8
1.6982 -3.0858999999999996 -0.0403 183
2.0508 -3.7558999999999996 -0.7471 238
1.6963 -3.1074 0.0405 209
1.9346 -3.5410000000000004 -0.6089 193
1.7021000000000002 -3.1172000000000004 0.1223 10
1.6787 -3.0742000000000003 -0.4451 169
1.709 -3.1289 0.2048 113
1.6953 -3.1035000000000004 -0.36719999999999997 246
1.7285 -3.1641000000000004 0.2908 161
1.6825999999999999 -3.0801 -0.28300000000000003 74
2.1328 -3.9043 0.4631 85
1.6894999999999998 -3.0938 -0.2024 39
2.1328 -3.9062 0.5669 138
1.7061000000000002 -3.125 -0.1225 54
2.1465 -3.9316000000000004 0.7822 39
2.002 -3.6992000000000003 -0.7339 119
1.6836000000000002 -3.1113 0.0405 240
1.9121000000000001 -3.5332 -0.606 105
1.6943000000000001 -3.1308999999999996 0.1225 221
1.6699000000000002 -3.0858999999999996 -0.4458 33
1.6934 -3.1289 0.2043 101
1.6816 -3.1074 -0.3667 205
1.7178 -3.1757999999999997 0.2913 95
1.6768 -3.0976999999999997 -0.2839 102
1.6719 -3.0879000000000003 -0.20170000000000002 202
2.1152 -3.9101999999999997 0.5664 232
1.6963 -3.1348000000000003 -0.12269999999999999 182
2.1348 -3.9452999999999996 0.6777 26
1.6797 -3.1035000000000004 -0.0404 202
2.1426 -3.9589999999999996 0.7866 255
1.9844 -3.6992000000000003 -0.7329000000000001 166
1.6719 -3.1151999999999997 0.0404 18
1.8984 -3.5391000000000004 -0.606 13
1.6855000000000002 -3.1406 0.12269999999999999 234
1.665 -3.1016000000000004 -0.4475 217
1.6865 -3.1426 0.2048 131
1.6669999999999998 -3.1055 -0.366 181
1.7012 -3.1699 0.2903 179
1.666 -3.1055 -0.2842 102
2.1348 -3.9785000000000004 0.47 33
1.6641 -3.1016000000000004 -0.2021 68
2.1074 -3.9257999999999997 0.5674 115
1.6806999999999999 -3.1308999999999996 -0.1223 151
2.127 -3.9629000000000003 0.6792 208
1.6758000000000002 -3.123 -0.0405 203
2.1367 -3.9805 0.7890999999999999 94
1.8877000000000002 -3.5449 -0.7006999999999999 211
1.666 -3.1289 0.0406 46
1.874 -3.5195 -0.6015999999999999 32
1.6669999999999998 -3.1308999999999996 0.12210000000000001 187
1.6513999999999998 -3.1016000000000004 -0.44630000000000003 219
1.6797 -3.1543 0.2052 172
1.6582 -3.1151999999999997 -0.36619999999999997 251
1.6924000000000001 -3.1797000000000004 0.2905 7
1.6543 -3.1074 -0.2839 246
2.1133 -3.9688 0.4678 32
1.6582 -3.1132999999999997 -0.2026 57
2.1113 -3.9668 0.5722999999999999 232
1.6688999999999998 -3.1348000000000003 -0.1223 136
2.1211 -3.9844 0.6816 41
1.6602000000000001 -3.1172000000000004 -0.0404 152
2.1406 -4.0195 0.7959 199
1.8222999999999998 -3.4492000000000003 -0.6807 242
1.6582 -3.1387 0.0406 113
1.8232 -3.4531 -0.5889 75
1.6572 -3.1367000000000003 0.12210000000000001 146
1.6425999999999998 -3.1094 -0.447 219
1.6747999999999998 -3.1699 0.2059 85
1.6553 -3.1348000000000003 -0.3679 3
1.6836000000000002 -3.1895 0.2908 159
1.6416 -3.1074 -0.2834 247
2.1152 -4.0078 0.4717 113
1.6455000000000002 -3.1151999999999997 -0.2024 26
2.1094 -3.9922000000000004 0.5752 180
1.6631 -3.1504000000000003 -0.1226 72
2.1172 -4.0117 0.6851 225
1.6503999999999999 -3.125 -0.0404 122
2.1387 -4.0508 0.8003 242
1.7891 -3.418 -0.6729 182
1.6522999999999999 -3.1582 0.0408 151
1.791 -3.4219 -0.5825 246
1.6494 -3.1504000000000003 0.12240000000000001 212
1.6269999999999998 -3.1094 -0.4458 63
1.6602000000000001 -3.1719 0.20559999999999998 142
1.6455000000000002 -3.1445 -0.36840000000000006 172
1.6738 -3.1992000000000003 0.2913 76
1.6357 -3.125 -0.2844 128
2.0879 -3.9901999999999997 0.46880000000000005 253
1.6347999999999998 -3.123 -0.2024 132
2.1035 -4.0156 0.5776 156
1.6543 -3.1601999999999997 -0.12279999999999999 42
2.1191 -4.0508 0.6904 193
1.6387 -3.1308999999999996 -0.0404 118
2.1328 -4.0742 0.8037000000000001 188
1.7734 -3.418 -0.6714 111
1.6338 -3.1464999999999996 0.0406 10
1.7744 -3.418 -0.5806 213
1.6416 -3.1641000000000004 0.12269999999999999 7
1.6200999999999999 -3.1211 -0.447 137
1.6475 -3.1738 0.2053 47
1.6269999999999998 -3.1348000000000003 -0.3667 105
1.665 -3.207 0.2915 47
1.6309 -3.1426 -0.2854 37
2.0938 -4.0312 0.4729 75
1.6211000000000002 -3.125 -0.2021 29
2.0957 -4.0391 0.5801 7
1.6484 -3.1757999999999997 -0.1232 118
2.1211 -4.0859 0.6958 62
1.6318000000000001 -3.1445 -0.0405 92
2.127 -4.0977 0.8066 31
1.7627000000000002 -3.4257999999999997 -0.6718999999999999 161
1.6200999999999999 -3.1483999999999996 0.0405 39
1.7578 -3.4160000000000004 -0.5791 162
1.6357 -3.1797000000000004 0.12300000000000001 155
1.6133000000000002 -3.1348000000000003 -0.44799999999999995 5
1.6436000000000002 -3.1933999999999996 0.20629999999999998 58
1.6181999999999999 -3.1445 -0.36719999999999997 159
1.6503999999999999 -3.207 0.2908 69
1.6230000000000002 -3.1523000000000003 -0.2859 152
2.0977 -4.0742 0.4771 149
1.6094 -3.1289 -0.20199999999999999 143
2.0996 -4.082 0.585 55
1.6299000000000001 -3.168 -0.1226 193
2.123 -4.125 0.7012 119
1.6200999999999999 -3.1483999999999996 -0.0405 50
2.1426 -4.1641 0.8184 12
1.7549000000000001 -3.4395 -0.6733 90
1.6162 -3.168 0.0407 164
1.7431999999999999 -3.4160000000000004 -0.5786 233
1.6181999999999999 -3.1719 0.1225 164
1.6055000000000001 -3.1464999999999996 -0.449 141
1.6318000000000001 -3.1973000000000003 0.20620000000000002 100
1.6074000000000002 -3.1504000000000003 -0.36719999999999997 198
1.6366999999999998 -3.2089999999999996 0.2905 204
1.6094 -3.1562 -0.28559999999999997 33
2.1152 -4.1445 0.48460000000000003 134
1.6074000000000002 -3.1523000000000003 -0.20309999999999997 84
2.0996 -4.1172 0.5889 102
1.6172 -3.1699 -0.12240000000000001 198
2.1309 -4.1758 0.7084999999999999 221
1.6152000000000002 -3.1660000000000004 -0.0406 160
2.7558999999999996 -5.3984000000000005 1.0615 99
1.7402000000000002 -3.4414 -0.6724 211
1.6094 -3.1816000000000004 0.0408 199
1.7305000000000001 -3.4219 -0.5781000000000001 80
1.6044999999999998 -3.1738 0.12240000000000001 63
1.5928 -3.1483999999999996 -0.4485 65
1.6200999999999999 -3.2031 0.20620000000000002 199
1.6044999999999998 -3.1719 -0.3689 52
1.6299000000000001 -3.2226999999999997 0.2913 55
1.5918 -3.1464999999999996 -0.2844 55
2.1309 -4.2148 0.4917 59
1.5986000000000002 -3.1601999999999997 -0.2034 242
2.1172 -4.1836 0.5977 38
1.6074000000000002 -3.1776999999999997 -0.1226 144
2.7226999999999997 -5.3828 0.9136 51
1.6035 -3.1719 -0.0406 86
2.7324 -5.4023 1.0605 119
1.7178 -3.4257999999999997 -0.6685 178
1.5996000000000001 -3.1914 0.0408 102
1.7197 -3.4297000000000004 -0.5786 144
1.6006 -3.1933999999999996 0.1229 191
1.5800999999999998 -3.1504000000000003 -0.44799999999999995 71
1.6035 -3.1992000000000003 0.2054 39
1.5937999999999999 -3.1797000000000004 -0.3691 37
