# .PCD v0.7 - Point Cloud Data file format
VERSION 0.7
FIELDS x y z intensity
SIZE 4 4 4 4
TYPE F F F F
COUNT 1 1 1 1
WIDTH 1454
HEIGHT 1
VIEWPOINT 0 0 0 1 0 0 0
POINTS 1454
DATA ascii
14.039100000000001 22.6094 4.0508 61
16.9375 27.2656 -0.3743 109
14.523399999999999 23.3906 4.8477 59
4.1367 6.605499999999999 -1.3672 68
4.6836 7.480499999999999 -1.3388999999999998 251
5.3672 8.5703 -1.2949000000000002 246
6.3164 10.0859 -1.2461 150
16.9062 27.0 2.5976999999999997 217
7.6640999999999995 12.2422 -1.1758 75
15.2578 24.375 3.0176 70
9.9141 15.835899999999999 -1.085 88
14.2969 22.8438 3.4608999999999996 57
14.3281 22.8906 4.1133 39
17.0781 27.2656 -0.37549999999999994 165
13.9297 22.25 4.6211 87
4.1641 6.6015999999999995 -1.3681999999999999 4
4.707 7.4609000000000005 -1.3388999999999998 254
5.4062 8.5703 -1.2978999999999998 212
6.3438 10.0547 -1.2451 197
7.7148 12.226600000000001 -1.1768 27
15.281199999999998 24.2188 3.0058999999999996 162
10.0078 15.8594 -1.0879 165
14.351600000000001 22.75 3.4551 44
13.914100000000001 22.0469 3.9688 118
17.1875 27.25 -0.376 155
13.9219 22.0625 4.5938 121
4.1875 6.5898 -1.3691 12
4.7422 7.4609000000000005 -1.3418 235
5.4375 8.5469 -1.2978999999999998 254
17.3438 27.2656 1.8769999999999998 99
6.3828 10.0391 -1.2451 220
7.769500000000001 12.218800000000002 -1.1787 204
15.2656 24.0156 2.9863 226
10.0391 15.789100000000001 -1.0859 227
14.4453 22.7188 3.4589999999999996 2
13.968800000000002 21.9688 3.9629000000000003 80
17.3281 27.2656 -0.377 26
13.8672 21.8125 4.5508 57
4.2148 6.578099999999999 -1.3700999999999999 168
17.4688 27.2656 0.37770000000000004 169
4.7695 7.4414 -1.3418 130
17.4375 27.2031 1.127 172
5.4765999999999995 8.5469 -1.3008000000000002 17
17.4375 27.2031 1.8779 211
6.4375 10.0469 -1.249 222
7.828099999999999 12.218800000000002 -1.1816 223
15.351600000000001 23.9531 2.9863 167
10.1172 15.789100000000001 -1.0879 4
14.718800000000002 22.9688 3.5039 11
14.031199999999998 21.8906 3.9589999999999996 227
17.4844 27.2812 -0.3779 53
14.0078 21.8594 4.5703 149
4.2422 6.5703 -1.3721 223
4.7969 7.4297 -1.3418 91
32.8125 50.8438 2.1113 197
5.511699999999999 8.5391 -1.3018 123
6.4727 10.0234 -1.25 208
7.8789 12.2031 -1.1826 193
15.4531 23.9375 2.9901999999999997 52
10.1797 15.7656 -1.0889 239
14.8672 23.0156 3.5195 107
16.4062 25.4062 -1.0547 133
14.1172 21.8594 3.9629000000000003 111
17.5938 27.25 -0.3784 62
14.0703 21.7969 4.5664 141
4.2656 6.5547 -1.3721 183
4.8398 7.4375 -1.3466999999999998 233
33.0625 50.8125 2.1152 70
5.542999999999999 8.5156 -1.3018 88
33.5312 51.5625 3.5762 31
6.519500000000001 10.0156 -1.252 34
7.925800000000001 12.1875 -1.1836 88
15.164100000000001 23.2969 2.918 189
10.2188 15.7031 -1.0869 232
17.0 26.125 4.0039 168
14.210899999999999 21.8438 3.9668 249
17.7344 27.25 -0.37920000000000004 25
14.218800000000002 21.8594 4.5898 203
4.2891 6.5390999999999995 -1.3711000000000002 199
4.8633 7.4140999999999995 -1.3457 246
33.25 50.7188 2.1172 134
5.574199999999999 8.5 -1.3018 118
33.7188 51.4062 3.5742000000000003 144
6.5547 10.0 -1.252 50
7.980499999999999 12.1719 -1.1855 96
15.1719 23.1406 2.9023000000000003 252
10.281199999999998 15.6875 -1.0889 103
15.5469 23.7188 3.6426 188
14.7422 22.4844 4.0938 132
17.875 27.2656 -0.3804 242
14.0703 21.4531 4.5156 25
4.3086 6.5234000000000005 -1.3711000000000002 150
4.8945 7.4102 -1.3477000000000001 156
33.5312 50.7812 2.123 94
5.609400000000001 8.5 -1.3047 176
6.5977 9.9922 -1.2539 37
8.0312 12.156199999999998 -1.1865 103
15.210899999999999 23.0312 2.8964999999999996 162
10.375 15.7031 -1.0928 165
17.0938 25.8906 3.9844 106
14.789100000000001 22.3906 4.0859 99
15.7422 23.8281 -0.33299999999999996 58
14.1172 21.375 4.5117 217
4.3359 6.519500000000001 -1.3730000000000002 17
4.9102 7.3828 -1.3457 40
5.6484000000000005 8.4922 -1.3066 76
6.636699999999999 9.9766 -1.2549 205
8.0781 12.148399999999999 -1.1875 131
15.273399999999999 22.9531 2.8926 171
10.398399999999999 15.6328 -1.0898 83
15.773399999999999 23.7188 3.6582 86
15.7578 23.6875 -0.9917 233
14.406199999999998 21.6562 3.9608999999999996 169
15.710899999999999 23.625 -0.3308 223
14.281199999999998 21.4688 4.5391 20
4.375 6.5273 -1.3779 99
18.25 27.2188 0.3823 4
4.9453 7.375 -1.3477000000000001 6
18.1875 27.1406 1.1396 201
5.671900000000001 8.4609 -1.3056999999999999 96
18.2031 27.1719 1.9003999999999999 221
6.675800000000001 9.9609 -1.2559 240
8.125 12.1172 -1.1885 131
15.3125 22.8438 2.8867000000000003 149
10.468800000000002 15.625 -1.0918 46
14.5703 21.7344 3.3613 190
15.8047 23.5781 -0.9897 236
14.460899999999999 21.5781 3.9551 186
15.773399999999999 23.5312 -0.3306 228
14.5 21.625 4.5859 67
4.3867 6.5 -1.376 59
4.9766 7.3711 -1.3496000000000001 163
18.3281 27.1562 1.1426 172
5.699199999999999 8.4453 -1.3056999999999999 138
18.3281 27.1406 1.9022999999999999 135
6.7188 9.9531 -1.2578 163
8.1875 12.125 -1.1914 174
15.398399999999999 22.8125 2.8887 166
10.5469 15.6172 -1.0937999999999999 21
14.601600000000001 21.625 3.3516000000000004 159
15.9453 23.625 -0.9937 93
14.539100000000001 21.5469 3.957 24
15.835899999999999 23.4688 -0.3301 242
14.789100000000001 21.9062 4.6523 250
4.418 6.488300000000001 -1.3769999999999998 209
5.0078 7.359400000000001 -1.3506 29
18.5 27.1719 1.1465 163
5.7461 8.4375 -1.3075999999999999 107
18.4688 27.1406 1.9072 2
6.765599999999999 9.9375 -1.2588 197
8.2266 12.093800000000002 -1.1914 156
15.5625 22.875 2.9023000000000003 26
10.593800000000002 15.5625 -1.0928 99
14.710899999999999 21.6094 3.3574 26
15.101600000000001 22.1875 4.0859 20
15.968800000000002 23.4531 -0.3311 141
14.8203 21.7812 4.6367 121
4.4414 6.4765999999999995 -1.3769999999999998 89
5.0273 7.332000000000001 -1.3496000000000001 145
18.625 27.1719 1.1484 214
5.7773 8.4219 -1.3086000000000002 122
18.6094 27.125 1.9111000000000002 46
6.800800000000001 9.9141 -1.2588 120
8.2969 12.101600000000001 -1.1953 24
15.75 22.9688 2.9219 73
10.648399999999999 15.523399999999999 -1.0928 155
14.851600000000001 21.6562 3.373 223
14.9531 21.8125 4.0273 253
16.1562 23.5469 -0.33299999999999996 115
14.8594 21.6719 4.625 99
4.4648 6.4648 -1.3779 102
5.0547 7.3203 -1.3506 111
18.75 27.1562 1.1504 66
5.8125 8.4141 -1.3105000000000002 3
18.75 27.1406 1.9169999999999998 68
6.855499999999999 9.9219 -1.2627 51
8.3359 12.0703 -1.1943000000000001 62
15.843800000000002 22.9375 2.9257999999999997 149
10.7344 15.5469 -1.0967 137
17.4531 25.2656 3.9452999999999996 25
16.8438 24.3906 -1.0332 122
14.7578 21.375 3.9531 192
18.9688 27.4688 -0.38939999999999997 146
15.101600000000001 21.875 4.6797 6
4.4961 6.4648 -1.3809 87
5.0898 7.3203 -1.3535 67
22.5 32.3438 1.375 90
5.8438 8.4062 -1.3115 120
18.9844 27.2969 1.9316 97
6.8984000000000005 9.9141 -1.2646 132
8.3828 12.0547 -1.1963 189
15.8828 22.8281 2.918 42
10.8281 15.5703 -1.1006 206
17.4531 25.0938 3.9276999999999997 188
16.8125 24.1719 -1.0264 152
14.851600000000001 21.3594 3.9589999999999996 33
19.0781 27.4219 -0.3899 21
15.148399999999999 21.7812 4.668 16
4.5078 6.4336 -1.3779 201
5.1211 7.3086 -1.3544999999999998 4
22.4844 32.0938 1.3662 89
5.875 8.3828 -1.3115 169
19.0156 27.1406 1.9258000000000002 41
6.9336 9.8906 -1.2656 12
8.4531 12.0625 -1.1992 132
16.0625 22.9219 2.9375 136
10.8828 15.539100000000001 -1.1006 178
17.9219 25.5938 4.0117 119
16.8125 24.0 -1.0215 252
14.8906 21.25 3.9512 235
19.2188 27.4219 -0.3906 209
15.351600000000001 21.9062 4.707 187
4.5273 6.417999999999999 -1.3769999999999998 221
5.1523 7.296900000000001 -1.3555000000000001 6
22.5781 31.9844 1.3652000000000002 210
5.9140999999999995 8.3828 -1.3144999999999998 217
19.0781 27.0312 1.9219 74
6.9765999999999995 9.8906 -1.2676 44
16.625 23.5625 2.3516 72
8.5156 12.0703 -1.2031 150
10.960899999999999 15.531199999999998 -1.1035 136
18.0625 25.5938 4.0234 118
16.8438 23.875 -1.0186 183
15.3906 21.8125 4.0625 91
19.3594 27.4219 -0.39159999999999995 23
15.4297 21.8594 4.7109 163
4.5625 6.4140999999999995 -1.3809 80
5.1836 7.2852 -1.3563999999999998 162
17.2812 24.2656 1.0381 195
5.949199999999999 8.3594 -1.3144999999999998 226
17.2969 24.3125 1.7334 130
7.0234000000000005 9.8672 -1.2686 152
16.7188 23.4844 2.3516 233
8.5703 12.039100000000001 -1.2031 178
18.2656 25.6719 3.3066000000000004 76
11.031199999999998 15.5 -1.1045 25
18.1562 25.5156 4.0234 185
16.8906 23.7344 -1.0156 155
15.460899999999999 21.7188 4.0586 212
19.5312 27.4375 -0.3931 32
15.4219 21.6719 4.6836 191
4.5938 6.4062 -1.3828 116
5.203099999999999 7.2539 -1.3544999999999998 191
17.0 23.7031 1.0166 216
5.9961 8.3594 -1.3184 217
16.9062 23.5781 1.6855000000000002 116
7.0625 9.8516 -1.2695 140
17.6406 24.6094 2.4707 98
8.6094 12.0 -1.2021 45
17.875 24.9219 3.2188 51
11.093800000000002 15.468800000000002 -1.1055 226
16.9844 23.6719 3.7422000000000004 231
16.9688 23.6562 -1.0146 44
15.1875 21.1719 3.9668 11
17.2812 24.0781 -0.3457 161
15.460899999999999 21.5625 4.6719 102
4.6172 6.390599999999999 -1.3828 101
17.3125 23.9531 0.3447 87
5.238300000000001 7.25 -1.3574000000000002 210
17.0625 23.625 1.0166 25
6.0234000000000005 8.3359 -1.3174000000000001 39
16.9844 23.5156 1.6855000000000002 214
7.105499999999999 9.8359 -1.2705 39
17.7656 24.5938 2.4746 23
8.6562 11.9844 -1.2041 189
17.9219 24.8125 3.2108999999999996 43
11.1719 15.460899999999999 -1.1074 190
15.8672 21.9688 3.4805 131
17.0312 23.5938 -1.0146 255
15.1875 21.0312 3.9492000000000003 140
17.3125 23.9844 -0.345 176
15.5625 21.5469 4.6797 76
4.6406 6.375 -1.3828 104
17.3594 23.8438 0.344 133
5.2773 7.25 -1.3613 137
17.2031 23.6406 1.0186 250
6.046900000000001 8.3125 -1.3163999999999998 199
19.7344 27.125 1.9491999999999998 31
7.1523 9.8281 -1.2725 9
19.5625 26.875 2.7108999999999996 45
8.7031 11.960899999999999 -1.2041 220
17.9688 24.6875 3.2051 94
11.2422 15.4453 -1.1084 249
15.9297 21.8906 3.4785000000000004 29
17.125 23.5469 -1.0146 206
15.25 20.9688 3.9452999999999996 158
17.4062 23.9062 -0.345 46
15.8281 21.75 4.7344 17
4.6562 6.359400000000001 -1.3828 13
17.4844 23.875 0.3452 7
5.3125 7.25 -1.3643 140
19.875 27.125 1.1729 121
6.0938 8.3203 -1.3213 137
19.8438 27.0938 1.9512 218
7.1953 9.8281 -1.2754 123
8.7656 11.968800000000002 -1.208 188
42.75 58.375 7.6015999999999995 212
11.289100000000001 15.414100000000001 -1.1084 47
16.0156 21.8594 3.4805 111
17.2188 23.5156 -1.0156 154
15.351600000000001 20.9531 3.9551 7
17.4844 23.875 -0.3452 231
15.718800000000002 21.4688 4.6836 60
4.6875 6.359400000000001 -1.3857 172
5.3359000000000005 7.234400000000001 -1.3643 157
20.0312 27.1562 1.1768 79
6.1289 8.3125 -1.3222999999999998 58
19.9844 27.0938 1.9569999999999999 23
7.2265999999999995 9.7969 -1.2754 48
8.8125 11.9453 -1.209 250
11.351600000000001 15.3906 -1.1104 225
16.1406 21.8906 3.4922000000000004 211
17.3125 23.4844 -1.0166 213
15.4297 20.9219 3.957 155
20.0781 27.2188 -0.3945 241
15.5547 21.0938 4.6133 29
4.7266 6.355499999999999 -1.3896000000000002 50
5.363300000000001 7.2148 -1.3643 219
20.1719 27.1406 1.1787 43
6.167999999999999 8.2969 -1.3241999999999998 149
20.1406 27.0938 1.9619 110
7.2773 9.7891 -1.2773 66
19.9531 26.8438 2.7285000000000004 48
8.8594 11.914100000000001 -1.209 60
16.7656 22.5469 2.9473000000000003 94
11.4219 15.3672 -1.1113 184
16.25 21.8438 3.4961 246
17.4219 23.4375 -1.0176 114
16.0312 21.5625 4.0938 164
20.2031 27.1875 -0.3953 68
15.6172 21.0156 4.6094 216
4.7539 6.3477 -1.3906 129
20.4219 27.2656 0.3975 237
5.394500000000001 7.199199999999999 -1.3652000000000002 204
20.375 27.2031 1.1845999999999999 213
6.199199999999999 8.2812 -1.3252000000000002 104
20.2969 27.1094 1.9678 201
7.3164 9.7734 -1.2783 84
20.0938 26.8438 2.7344 100
8.9141 11.906199999999998 -1.2109 161
16.8594 22.5 2.9512 255
11.460899999999999 15.3047 -1.1104 231
15.843800000000002 21.1562 3.3945 249
17.5625 23.4531 -1.0215 16
15.8125 21.1094 4.0156 59
20.3438 27.1562 -0.396 110
15.664100000000001 20.9219 4.6016 0
4.7695 6.328099999999999 -1.3896000000000002 24
20.5625 27.2812 0.3987 120
5.425800000000001 7.1953 -1.3672 218
20.5469 27.2656 1.1904000000000001 191
6.2265999999999995 8.2578 -1.3241999999999998 28
20.4531 27.125 1.9736000000000002 42
7.3711 9.7812 -1.2822 51
8.9766 11.906199999999998 -1.2139 57
16.5156 21.9062 2.8789 89
11.5156 15.281199999999998 -1.1104 93
15.8828 21.0625 3.3887 227
17.7188 23.5 -1.0254 94
15.835899999999999 21.0 4.0039 71
20.4844 27.1719 -0.397 174
15.7422 20.875 4.6055 154
4.7969 6.3164 -1.3916 191
20.6719 27.25 0.3992 113
5.4609000000000005 7.1953 -1.3711000000000002 84
20.6875 27.25 1.1934 30
6.2578 8.25 -1.3262 157
20.5781 27.1094 1.9775 121
7.4140999999999995 9.7656 -1.2841999999999998 178
20.4219 26.9062 2.7558999999999996 103
9.0234 11.8828 -1.2148 209
16.5469 21.7969 2.8711 225
11.593800000000002 15.2656 -1.1123 70
15.906199999999998 20.9531 3.3789 96
15.9531 21.0156 4.0156 211
20.625 27.1719 -0.3979 170
15.8203 20.8438 4.6094 42
4.8242 6.3047 -1.3925999999999998 85
5.4922 7.175800000000001 -1.3711000000000002 82
20.8594 27.2656 1.1973 86
6.3047 8.2344 -1.3291 165
20.7344 27.1094 1.9834 71
7.449199999999999 9.7344 -1.2841999999999998 66
20.5469 26.8438 2.7577999999999996 73
9.0859 11.875 -1.2178 20
16.5469 21.6406 2.8594 100
11.664100000000001 15.2422 -1.1143 206
15.9922 20.8906 3.3789 212
15.9844 20.8906 4.0039 253
20.7812 27.1562 -0.39890000000000003 107
16.1406 21.0938 4.6758 217
4.8633 6.3086 -1.3975 118
21.0469 27.3125 0.4023 250
5.5234000000000005 7.167999999999999 -1.3730000000000002 68
20.9844 27.2344 1.1982 159
6.3398 8.2266 -1.3300999999999998 83
20.8906 27.1094 1.9883000000000002 138
7.488300000000001 9.7188 -1.2852000000000001 91
20.7188 26.875 2.7695 28
9.125 11.835899999999999 -1.2168 212
16.6406 21.5938 2.8594 149
11.710899999999999 15.2031 -1.1143 170
16.0469 20.8281 3.377 234
16.0625 20.8438 4.0078 112
20.9375 27.1719 -0.4004 88
16.2031 21.0156 4.6719 82
4.8906 6.300800000000001 -1.3984 212
21.1719 27.2812 0.4028 72
5.550800000000001 7.1484000000000005 -1.374 46
21.1406 27.2188 1.2021 217
6.359400000000001 8.1875 -1.3281 165
21.0469 27.1094 1.9941 106
7.546900000000001 9.7266 -1.2891 195
20.8281 26.8281 2.7714999999999996 75
9.1719 11.8125 -1.2178 70
16.7656 21.6094 2.8711 227
11.789100000000001 15.1875 -1.1162 102
16.1719 20.8438 3.3887 164
16.25 20.9375 4.0352 8
21.0938 27.1719 -0.4014 194
16.2031 20.875 4.6523 138
4.9141 6.2890999999999995 -1.3994 119
21.3125 27.25 0.4036 126
5.5898 7.1484000000000005 -1.3769999999999998 222
21.2812 27.2188 1.2041 14
6.4023 8.1875 -1.3319999999999999 140
21.1875 27.1094 1.999 62
7.5938 9.7109 -1.291 51
20.9844 26.8438 2.7793 191
9.2266 11.8047 -1.2197 13
17.125 21.9062 2.918 82
11.851600000000001 15.164100000000001 -1.1172 51
16.75 21.4375 3.4941000000000004 15
18.4688 23.6094 -1.0449 71
16.4844 21.0781 4.0742 129
16.25 20.7969 4.6445 141
4.9336 6.265599999999999 -1.3984 137
21.4531 27.2656 0.4048 90
5.613300000000001 7.1289 -1.3769999999999998 185
21.4219 27.2188 1.208 99
6.4336 8.1719 -1.3330000000000002 80
21.3438 27.1094 2.0059 0
7.625 9.6875 -1.291 40
19.4531 24.7188 2.5664 63
9.2812 11.789100000000001 -1.2217 233
17.3125 22.0 2.9375 95
11.914100000000001 15.1328 -1.1181999999999999 170
16.8281 21.3906 3.4961 7
16.5156 20.9844 4.0664 116
16.2969 20.7031 4.6406 13
4.9609 6.261699999999999 -1.4013999999999998 239
21.625 27.2812 0.40619999999999995 166
5.640599999999999 7.113300000000001 -1.3779 189
21.5938 27.25 1.2119 11
6.4727 8.1641 -1.335 232
21.4531 27.0625 2.0059 37
7.6602 9.6641 -1.291 50
19.5156 24.625 2.5645 42
9.3281 11.7656 -1.2227 11
17.4062 21.9531 2.9414 183
11.968800000000002 15.101600000000001 -1.1181999999999999 54
16.875 21.2969 3.4901999999999997 156
20.4062 25.7344 -1.1455 221
16.6094 20.9531 4.0703 82
21.5312 27.1562 -0.4043 241
16.3438 20.625 4.6328 26
4.9883 6.25 -1.4022999999999999 73
21.7656 27.2656 0.4072 208
5.6602 7.0898 -1.3769999999999998 71
21.7188 27.2031 1.2139 81
6.511699999999999 8.1562 -1.3369 120
21.6094 27.0625 2.0117 198
7.699199999999999 9.6406 -1.2919999999999998 135
19.6094 24.5469 2.5625 105
9.375 11.7422 -1.2236 139
17.5312 21.9531 2.9473000000000003 140
12.0547 15.101600000000001 -1.1211 230
16.9844 21.2812 3.4961 75
20.625 25.8125 -1.1523 105
17.2031 21.5312 4.1953 157
21.6719 27.1406 -0.4053 241
16.4375 20.5938 4.6406 203
5.0195 6.2422 -1.4053 96
21.9219 27.25 0.408 203
5.6953 7.082000000000001 -1.3788999999999998 177
21.8906 27.2188 1.2178 10
6.550800000000001 8.1406 -1.3388999999999998 48
21.7656 27.0625 2.0176 144
7.765599999999999 9.6562 -1.2978999999999998 255
9.4453 11.7422 -1.2266 53
17.5938 21.875 2.9473000000000003 69
12.148399999999999 15.1094 -1.125 208
17.0938 21.25 3.502 212
17.3438 21.5625 4.2109 204
21.8281 27.1406 -0.4065 180
18.1719 22.5938 5.1055 231
5.0391 6.2227 -1.4043 127
22.0938 27.2656 0.4094 187
5.730499999999999 7.074199999999999 -1.3818000000000001 73
22.0312 27.2031 1.2207 100
6.582000000000001 8.125 -1.3397999999999999 173
21.875 27.0156 2.0195 78
7.796900000000001 9.625 -1.2978999999999998 121
9.4844 11.7031 -1.2266 117
17.6875 21.8281 2.9492000000000003 132
12.226600000000001 15.093800000000002 -1.127 0
17.1562 21.1875 3.502 105
17.4844 21.5938 4.2305 130
21.9531 27.1094 -0.40700000000000003 25
18.3125 22.6094 5.1211 190
5.0664 6.207000000000001 -1.4053 234
5.7734000000000005 7.074199999999999 -1.3857 146
22.1719 27.1719 1.2227 62
6.625 8.1172 -1.3428 15
22.0469 27.0312 2.0273 228
7.8398 9.6094 -1.2988 83
9.5469 11.7031 -1.2305 39
17.75 21.75 2.9473000000000003 151
12.25 15.0156 -1.125 207
17.2969 21.1875 3.5137 218
17.5781 21.5469 4.2344 229
22.125 27.125 -0.40840000000000004 152
18.6875 22.9062 5.207000000000001 9
5.0898 6.199199999999999 -1.4072 224
5.792999999999999 7.050800000000001 -1.3847999999999998 203
22.2188 27.0469 1.2207 27
6.6602 8.1094 -1.3437999999999999 250
22.1875 27.0 2.0312 145
7.886699999999999 9.6016 -1.3018 18
9.5859 11.6719 -1.2305 74
17.7969 21.6719 2.9414 163
12.289100000000001 14.9531 -1.123 224
17.3906 21.1719 3.5195 183
21.2969 25.9219 -1.1699 230
17.5312 21.3438 4.207 143
22.2656 27.1094 -0.4094 105
18.8125 22.8906 5.2188 53
5.1211 6.1914 -1.4091999999999998 220
5.828099999999999 7.046900000000001 -1.3877000000000002 70
22.375 27.0625 1.2246 108
6.6953 8.0938 -1.3457 167
22.3438 27.0156 2.0371 224
7.925800000000001 9.5859 -1.3027000000000002 21
9.6484 11.664100000000001 -1.2324 183
17.9062 21.6562 2.9492000000000003 59
12.3203 14.898399999999999 -1.1220999999999999 148
17.5781 21.2656 3.543 129
21.4375 25.9219 -1.1729 0
17.625 21.3125 4.2109 204
22.4375 27.125 -0.41090000000000004 83
20.4219 24.6875 5.640599999999999 240
5.1562 6.1875 -1.4131 181
5.855499999999999 7.0273 -1.3877000000000002 174
22.5469 27.0469 1.2275 17
6.738300000000001 8.0859 -1.3486000000000002 158
22.5 27.0 2.041 131
7.980499999999999 9.5781 -1.3056999999999999 110
22.3594 26.8438 2.8495999999999997 20
9.6875 11.6328 -1.2324 76
17.9844 21.5938 2.9492000000000003 194
12.3672 14.843800000000002 -1.1211 115
17.6406 21.1562 3.5370999999999997 250
17.7188 21.2656 4.2148 136
22.5938 27.1094 -0.4119 177
20.5781 24.7031 5.6602 54
5.171900000000001 6.1640999999999995 -1.4121000000000001 170
5.9062 7.0352 -1.3944999999999999 215
22.7031 27.0625 1.2314 136
6.769500000000001 8.0703 -1.3496000000000001 15
22.6719 27.0156 2.0488 125
8.0391 9.5781 -1.3096 139
20.4531 24.375 2.5957 218
9.7266 11.593800000000002 -1.2324 39
18.8125 22.4219 3.0702999999999996 119
12.414100000000001 14.7969 -1.1211 198
18.2031 21.7031 3.6387 98
18.2812 21.7812 4.3281 84
5.1953 6.144500000000001 -1.4111000000000002 232
5.925800000000001 7.0078 -1.3925999999999998 68
22.9219 27.1094 1.2373 38
6.8164 8.0625 -1.3525 173
22.8125 26.9844 2.0527 59
8.0781 9.5547 -1.3105000000000002 144
20.4688 24.2188 2.5858999999999996 195
9.7812 11.5703 -1.2344 179
18.4688 21.8594 3.002 47
12.4453 14.726600000000001 -1.1191 213
18.3125 21.6562 3.6426 94
18.3281 21.6719 4.3203 28
5.2265999999999995 6.136699999999999 -1.4141 40
5.953099999999999 6.9922 -1.3936000000000002 62
23.0156 27.0312 1.2383 0
6.8515999999999995 8.0469 -1.3544999999999998 244
22.9844 27.0 2.0605 157
8.1094 9.5312 -1.3105000000000002 5
18.9531 22.2656 2.3848 224
9.8438 11.5625 -1.2373 25
18.5625 21.7969 3.0039 246
12.5078 14.6875 -1.1201 117
18.6406 21.8906 3.6933999999999996 123
22.0156 25.8594 -1.1845999999999999 152
18.4844 21.7031 4.3398 100
5.2578 6.136699999999999 -1.4180000000000001 97
5.980499999999999 6.9765999999999995 -1.3944999999999999 250
23.0 26.8281 1.2324 122
6.8984000000000005 8.0469 -1.3584 168
23.125 26.9844 2.0645 199
8.1484 9.5078 -1.3115 53
19.0781 22.25 2.3906 100
9.8828 11.531199999999998 -1.2363 158
19.8438 23.1406 3.1992000000000003 186
12.601600000000001 14.7031 -1.124 156
19.6406 22.9219 3.877 28
18.6094 21.7188 4.3555 192
5.292999999999999 6.1328 -1.4209 146
6.015599999999999 6.9727 -1.3975 174
23.1094 26.7812 1.2334 91
6.9336 8.0391 -1.3603999999999998 118
23.2969 27.0 2.0723 70
8.2031 9.5 -1.3144999999999998 226
19.1562 22.2031 2.3906 18
9.9375 11.5156 -1.2393 2
19.9531 23.125 3.2051 114
12.718800000000002 14.7344 -1.1299 74
20.2031 23.4062 3.9707 148
18.8125 21.8125 4.3867 27
20.6719 23.9688 5.574199999999999 249
5.3125 6.109400000000001 -1.4199000000000002 212
6.0586 6.9727 -1.4022999999999999 84
23.2656 26.7656 1.2363 173
6.9648 8.0156 -1.3603999999999998 4
23.4531 26.9688 2.0762 201
8.2578 9.5 -1.3193000000000001 50
19.2656 22.1562 2.3945 170
9.9766 11.476600000000001 -1.2383 75
19.3438 22.25 3.0957 90
12.789100000000001 14.710899999999999 -1.1309 188
18.6094 21.4062 3.6426 98
18.8125 21.6406 4.3672 197
20.75 23.875 5.5703 105
5.328099999999999 6.0859000000000005 -1.4188999999999998 126
6.0898 6.957000000000001 -1.4033000000000002 28
23.4531 26.7812 1.2412 128
23.625 26.9844 2.084 82
4.793 5.4727 -0.7603 113
19.3281 22.0781 2.3926 63
10.0547 11.4844 -1.2431999999999999 36
20.0625 22.9219 3.1973000000000003 48
12.843800000000002 14.6719 -1.1318000000000001 190
18.6562 21.3125 3.6387 240
18.9062 21.5938 4.3711 64
23.7031 27.0781 -0.4199 129
5.359400000000001 6.082000000000001 -1.4219 81
23.8594 27.0781 0.4211 210
6.1172 6.9375 -1.4043 246
23.7656 26.9688 1.2529000000000001 2
4.8008 5.4453 -0.9281999999999999 46
23.7656 26.9688 2.0898 198
4.7852 5.4336 -0.7563 39
19.6562 22.2969 2.4238 161
10.0938 11.4531 -1.2431999999999999 169
20.1875 22.9062 3.2051 113
12.9297 14.6719 -1.1348 41
18.8125 21.3438 3.6543 5
19.7188 22.375 -1.0391 61
23.875 27.0938 -0.4214 32
5.390599999999999 6.078099999999999 -1.4247999999999998 70
6.140599999999999 6.921900000000001 -1.4043 53
23.9219 26.9688 1.2568000000000001 79
4.8086 5.421900000000001 -0.9268000000000001 21
23.9375 26.9844 2.0957 149
4.8086 5.421900000000001 -0.7573000000000001 4
19.5156 22.0 2.3984 24
10.1484 11.4453 -1.2461 126
19.4531 21.9375 3.0762 151
12.9531 14.601600000000001 -1.1328 99
19.1562 21.5938 3.707 87
19.6719 22.1719 -1.0332 6
24.0469 27.0938 -0.4229 212
4.7695 5.3359000000000005 -1.2539 188
6.171900000000001 6.9062 -1.4053 191
24.0938 26.9531 1.2607 252
7.136699999999999 7.984400000000001 -1.3721 129
24.1094 26.9688 2.1016 110
4.8281 5.4023 -0.7568 136
19.6094 21.9375 2.3984 183
10.2109 11.4297 -1.248 84
19.5312 21.8438 3.0762 166
19.7969 22.1406 -1.0352 92
24.3125 27.1875 -0.4255 147
4.7617 5.292999999999999 -1.248 164
24.4844 27.2031 0.42719999999999997 159
4.7969 5.328099999999999 -1.0869 187
24.4062 27.125 1.2725 151
7.171900000000001 7.9648 -1.3730000000000002 240
24.2656 26.9688 2.1074 130
4.8438 5.3828 -0.7563 119
19.7188 21.9062 2.4043 100
10.2656 11.398399999999999 -1.249 214
13.0469 14.4922 -1.1318000000000001 152
19.75 21.9531 -1.0293 167
24.5 27.2188 -0.4275 153
4.7617 5.2578 -1.2431999999999999 108
24.6406 27.2031 0.4282 213
4.8125 5.3125 -1.0869 72
24.6094 27.1719 1.2783 31
7.207000000000001 7.953099999999999 -1.375 238
24.4219 26.9531 2.1133 245
4.8438 5.3477 -0.7539 20
19.8125 21.8594 2.4062 60
4.875 5.3828 -0.5893999999999999 38
13.093800000000002 14.4531 -1.1318000000000001 188
19.8125 21.8594 -1.0283 92
4.8945 5.3984000000000005 -0.08439999999999999 6
4.7812 5.238300000000001 -1.2431999999999999 233
24.8594 27.2656 0.4307 185
4.8242 5.2890999999999995 -1.085 37
24.7969 27.1875 1.2832 81
4.8789 5.3477 -0.9258 116
24.6094 26.9688 2.1211 62
4.8398 5.3047 -0.7505 134
19.8438 21.75 2.4004 245
4.8633 5.332000000000001 -0.5859000000000001 165
4.8789 5.3477 -0.41850000000000004 209
4.8984 5.3711 -0.08410000000000001 46
4.8164 5.2422 -1.248 193
25.0156 27.2188 0.4314 12
4.8359 5.261699999999999 -1.083 41
24.9531 27.1562 1.2861000000000002 248
4.8789 5.3086 -0.9218999999999999 60
24.7656 26.9531 2.127 8
4.8398 5.269500000000001 -0.7476 134
20.0 21.7656 2.4102 81
4.8594 5.2852 -0.583 30
4.875 5.3047 -0.4165 26
4.9688 5.4062 -0.2546 65
4.918 5.3515999999999995 -0.08410000000000001 173
5.5625 6.0078 -1.4365 167
25.125 27.1406 0.4316 161
4.8672 5.2578 -1.0859 62
25.1094 27.1406 1.2891 26
4.8828 5.2773 -0.9194 217
24.9375 26.9531 2.1348 167
4.8594 5.25 -0.7476 184
4.8516 5.2422 -0.5801 134
4.8711 5.261699999999999 -0.4146 112
4.9688 5.3672 -0.25370000000000004 54
25.2344 27.2656 -0.4336 62
5.582000000000001 5.988300000000001 -1.4365 159
6.355499999999999 6.8203 -1.415 125
25.2969 27.125 1.2938999999999998 180
4.8906 5.2461 -0.917 52
25.125 26.9531 2.1406 77
4.8789 5.234400000000001 -0.7476 97
4.8633 5.2188 -0.5791 153
4.875 5.230499999999999 -0.4133 125
4.9648 5.324199999999999 -0.25239999999999996 73
5.0039 5.3672 -0.0849 36
5.609400000000001 5.9765999999999995 -1.4375 15
25.5156 27.1875 0.4351 8
6.4062 6.824199999999999 -1.4209 253
25.4844 27.1406 1.2988 136
4.9102 5.230499999999999 -0.9175 20
22.0781 23.5156 1.874 120
4.8828 5.203099999999999 -0.7456 51
4.8789 5.1953 -0.5786 14
4.9102 5.230499999999999 -0.41479999999999995 33
4.9492 5.2734000000000005 -0.2507 161
5.0195 5.3477 -0.0849 88
5.640599999999999 5.9688 -1.4404 117
25.7031 27.1875 0.4365 181
6.4336 6.8047 -1.4209 223
25.6562 27.1406 1.3027000000000002 47
4.9414 5.2265999999999995 -0.9194 122
25.4531 26.9375 2.1543 136
4.8906 5.171900000000001 -0.7437 181
4.8867 5.171900000000001 -0.5776 177
4.9297 5.2148 -0.415 159
4.9648 5.25 -0.2505 94
5.0039 5.292999999999999 -0.0842 207
5.667999999999999 5.953099999999999 -1.4424000000000001 163
25.875 27.1719 0.43770000000000003 9
6.4688 6.792999999999999 -1.4238 8
25.7969 27.1094 1.3047 107
4.9844 5.234400000000001 -0.9243000000000001 195
25.6406 26.9375 2.1602 53
4.8984 5.144500000000001 -0.7417 64
4.8945 5.140599999999999 -0.5761999999999999 123
4.9453 5.1914 -0.4146 130
4.957 5.207000000000001 -0.2491 140
5.0078 5.261699999999999 -0.084 40
5.699199999999999 5.9453 -1.4443000000000001 249
6.4961 6.7773 -1.4247999999999998 54
25.9688 27.0938 1.3086000000000002 172
7.5234000000000005 7.8477 -1.3936000000000002 82
25.8281 26.9375 2.168 233
4.9141 5.125 -0.7417 146
4.9062 5.1172 -0.5757 116
4.9414 5.1562 -0.4128 131
4.9453 5.1562 -0.2477 255
5.0078 5.2265999999999995 -0.0837 161
5.7148 5.921900000000001 -1.4443000000000001 51
5.1133 5.296900000000001 0.0852 117
6.5312 6.765599999999999 -1.4277000000000002 102
26.1094 27.0469 1.3105000000000002 127
7.5664 7.8398 -1.3965 216
26.0 26.9375 2.1758 173
4.9336 5.1094 -0.7417 60
4.9141 5.0898 -0.5742 254
4.9609 5.136699999999999 -0.4128 34
4.9453 5.1211 -0.24670000000000003 189
5.0156 5.1953 -0.0836 172
5.734400000000001 5.9023 -1.4443000000000001 249
5.082 5.230499999999999 0.08439999999999999 187
6.578099999999999 6.769500000000001 -1.4325999999999999 193
26.1875 26.9531 1.3105000000000002 33
7.609400000000001 7.832000000000001 -1.3994 192
26.1562 26.9062 2.1816 99
4.9414 5.0859 -0.7406999999999999 41
4.9414 5.0859 -0.5757 97
4.9688 5.1133 -0.41240000000000004 115
4.9453 5.0898 -0.24609999999999999 155
5.0391 5.1836 -0.0836 252
5.7773 5.9062 -1.4491999999999998 48
5.1016 5.2148 0.08439999999999999 29
6.5938 6.7422 -1.4316 194
26.3594 26.9531 1.3144999999999998 1
5.0781 5.1914 -0.9287000000000001 176
26.3438 26.9219 2.1895 21
4.9531 5.0625 -0.7397 19
4.957 5.0664 -0.5752 252
4.9766 5.0859 -0.4111 154
4.9453 5.0547 -0.2451 186
5.082 5.1953 -0.084 131
5.800800000000001 5.886699999999999 -1.4491999999999998 20
5.140599999999999 5.2148 0.08470000000000001 2
6.6211 6.7188 -1.4316 232
26.5312 26.9219 1.3184 8
5.082 5.1602 -0.9262999999999999 246
26.5156 26.9062 2.1953 168
4.9766 5.0508 -0.7406999999999999 239
4.9766 5.0508 -0.5757 80
4.9414 5.0117 -0.4067 132
4.957 5.0273 -0.24480000000000002 47
5.1094 5.1875 -0.0842 171
5.8359000000000005 5.8828 -1.4541 49
5.1836 5.2265999999999995 0.0852 175
5.1484000000000005 5.1875 -1.1074 68
26.7188 26.9375 1.3232 72
5.0977 5.136699999999999 -0.9253 149
26.7188 26.9219 2.2051 70
4.9961 5.0352 -0.7406999999999999 152
5.0 5.0391 -0.5761999999999999 140
4.9609 5.0 -0.40700000000000003 179
4.9844 5.0195 -0.2452 24
5.1211 5.1602 -0.08410000000000001 145
5.2109000000000005 5.2148 -1.2919999999999998 242
5.1602 5.1602 0.08439999999999999 77
5.1484000000000005 5.1523 -1.1045 239
26.8594 26.875 1.3252000000000002 145
5.0859 5.0898 -0.9198999999999999 40
26.875 26.8906 2.209 77
5.0273 5.0312 -0.7426999999999999 215
5.0352 5.0391 -0.5781000000000001 39
4.9688 4.9727 -0.40619999999999995 210
5.0078 5.0117 -0.24559999999999998 165
5.1328 5.136699999999999 -0.084 213
5.2461 5.2148 -1.2969 198
5.2148 5.1797 0.085 171
5.1797 5.144500000000001 -1.1064 108
26.8281 26.6562 1.3193000000000001 81
5.0508 5.0195 -0.9106000000000001 115
27.0625 26.8906 2.2168 174
5.043 5.0117 -0.7426999999999999 132
5.082 5.0508 -0.5815 54
5.0117 4.9805 -0.4082 9
64.5625 64.125 11.6953 76
5.1055 5.0742 -0.24960000000000002 63
5.167999999999999 5.136699999999999 -0.08439999999999999 135
5.230499999999999 5.1640999999999995 -1.2891 207
5.1953 5.1289 -1.1064 149
26.9375 26.5938 1.3203 87
5.0547 4.9883 -0.9081999999999999 158
27.2656 26.9062 2.2266 132
5.0625 4.9961 -0.7432 26
5.1562 5.0859 -0.5879 72
65.125 64.25 9.6094 176
5.0859 5.0195 -0.4131 151
65.0625 64.1875 11.75 114
21.3125 21.0312 -0.34909999999999997 155
5.2539 5.1484000000000005 -1.2891 221
27.625 27.0625 0.4512 174
5.2265999999999995 5.1211 -1.1094 150
27.125 26.5781 1.3241999999999998 170
5.0781 4.9766 -0.9092 223
27.4375 26.8906 2.2324 229
5.0938 4.9922 -0.7445999999999999 10
5.207000000000001 5.1016 -0.5918 8
14.2578 13.976600000000001 -1.1592 143
5.2773 5.136699999999999 -1.291 218
27.7188 26.9844 0.4514 249
6.832000000000001 6.6484000000000005 -1.4472999999999998 251
27.2812 26.5625 1.3281 131
5.1016 4.9688 -0.9106000000000001 149
27.6094 26.875 2.2402 190
5.125 4.9883 -0.7471 147
14.3203 13.9375 -1.1602 251
4.9609 4.8281 -0.23989999999999997 246
27.9531 27.0312 0.4539 249
6.8828 6.6562 -1.4531 39
27.4531 26.5469 1.3319999999999999 11
5.1289 4.9609 -0.9126000000000001 239
27.7969 26.875 2.2461 85
5.1562 4.9844 -0.7490000000000001 236
11.3594 10.9844 -1.2871000000000001 180
4.8906 4.7305 -0.3931 95
4.9453 4.7812 -0.2384 230
4.9219 4.7578 -0.07919999999999999 12
6.925800000000001 6.6523 -1.4580000000000002 73
28.0 26.8906 1.3535 141
5.1640999999999995 4.957 -0.915 60
27.9844 26.875 2.2539 104
4.9102 4.7148 -0.5527000000000001 193
4.8672 4.6758 -0.3901 140
4.9219 4.7266 -0.2365 87
4.9141 4.7188 -0.0787 59
5.515599999999999 5.261699999999999 -1.3369 103
28.4219 27.125 0.4585 160
4.9023 4.6758 -1.0264 255
4.9375 4.707 -0.8721 135
28.1719 26.875 2.2617 240
4.9219 4.6953 -0.71 56
4.8828 4.6562 -0.5474 212
4.8672 4.6406 -0.3887 224
4.9102 4.6836 -0.2351 181
4.9102 4.6836 -0.0784 187
28.6094 27.0781 0.4597 195
4.9102 4.6484 -1.0244 54
30.4219 28.7969 1.4609 111
4.9258 4.6641 -0.8672 197
28.375 26.8594 2.2715 70
4.9219 4.6602 -0.708 42
4.8672 4.6094 -0.5439 7
4.8789 4.6211 -0.3884 198
4.7969 4.543 -0.22899999999999998 101
4.9141 4.6523 -0.0782 94
4.9258 4.6289 -1.0244 151
28.75 27.0312 1.376 59
4.918 4.625 -0.8633 138
28.5625 26.8594 2.2793 239
4.9141 4.6211 -0.7045999999999999 2
4.8594 4.5664 -0.541 199
4.7969 4.5117 -0.3804 39
4.7383 4.4531 -0.2253 250
4.8828 4.5898 -0.0775 13
4.9492 4.6211 0.0782 193
4.9414 4.6133 -1.0244 225
28.9375 27.0156 1.3809 217
4.9336 4.6094 -0.8633 97
28.7344 26.8281 2.2852 91
4.9219 4.5977 -0.7031000000000001 165
4.8633 4.5391 -0.5396 25
4.7617 4.4453 -0.3765 142
4.7344 4.4219 -0.2245 98
4.8867 4.5625 -0.07730000000000001 122
0.6138 0.5693 -0.14029999999999998 194
4.9375 4.5781 0.07780000000000001 148
5.0039 4.6445 -1.0342 63
29.125 27.0156 1.3857 227
4.9414 4.5859 -0.8613 73
28.9219 26.8281 2.293 101
4.9219 4.5664 -0.7012 112
27.7344 25.7188 3.0858999999999996 89
4.7422 4.3984 -0.3735 20
4.7578 4.4141 -0.2249 84
4.8164 4.4688 -0.0759 225
0.5781000000000001 0.5322 -0.13119999999999998 145
4.9297 4.5391 0.0775 146
29.3281 27.0 1.3906 154
4.9648 4.5742 -0.8628 181
29.1406 26.8281 2.3027 110
4.9219 4.5312 -0.6981999999999999 175
4.875 4.4883 -0.5376 225
4.7344 4.3594 -0.3718 86
4.7578 4.3789 -0.22399999999999998 67
4.8125 4.4336 -0.0756 31
0.5742 0.5249 -0.1298 253
4.957 4.5312 0.0776 25
5.0391 4.6055 -1.0342 139
4.9805 4.5547 -0.8628 209
29.3438 26.8281 2.3105 93
4.9336 4.5117 -0.6978 97
27.7188 25.3438 3.0645 194
4.8711 4.457 -0.5356000000000001 57
4.7344 4.3281 -0.37060000000000004 191
58.5938 53.5938 10.2109 248
4.7734 4.3633 -0.2241 190
4.8359 4.4219 -0.0757 188
0.5932999999999999 0.5390999999999999 -0.13390000000000002 30
4.9609 4.5039 0.0775 148
5.0391 4.5742 0.23579999999999998 224
5.0117 4.5508 -0.8652 112
27.7188 25.1562 2.1758 149
4.9414 4.4883 -0.6968000000000001 34
27.8281 25.2656 3.0664 152
4.8789 4.4297 -0.5347 6
4.7539 4.3164 -0.37079999999999996 17
4.7852 4.3477 -0.22399999999999998 99
4.8477 4.4023 -0.0757 226
0.5952000000000001 0.5366 -0.13390000000000002 68
4.9648 4.4766 0.07730000000000001 148
0.6679999999999999 0.6025 -0.1307 195
5.0469 4.5508 0.23550000000000001 125
5.0195 4.5234 -0.8637999999999999 232
27.875 25.125 2.1816 80
4.9766 4.4844 -0.6997 123
27.8438 25.1094 3.0586 9
4.9102 4.4258 -0.5366 67
4.75 4.2812 -0.36939999999999995 29
4.8008 4.3281 -0.22399999999999998 232
4.8398 4.3633 -0.0753 250
0.6001 0.5376 -0.1346 48
4.9609 4.4453 0.077 203
5.0664 4.5391 0.2357 248
5.0469 4.5195 -0.8662000000000001 55
27.5781 24.7031 2.1523 56
4.9727 4.4531 -0.6968000000000001 70
28.1719 25.2188 3.0839999999999996 77
4.9219 4.4102 -0.5361 195
4.7617 4.2656 -0.36939999999999995 171
4.8164 4.3125 -0.22390000000000002 115
4.8281 4.3242 -0.07490000000000001 51
0.6138 0.5459 -0.1375 184
4.9648 4.418 0.0768 243
0.6718999999999999 0.5981000000000001 -0.1307 253
5.0742 4.5156 0.2354 29
5.0586 4.5 -0.8656999999999999 184
27.6875 24.625 2.1543 174
4.9766 4.4258 -0.6953 198
28.2344 25.1094 3.082 176
4.9453 4.3984 -0.5371 135
28.6406 25.4844 4.0234 231
4.7812 4.2539 -0.3696 147
4.8203 4.2891 -0.2235 104
4.8438 4.3086 -0.07490000000000001 179
0.6011 0.5307999999999999 -0.13390000000000002 105
4.9805 4.3984 0.0768 190
0.6743000000000001 0.5957 -0.1307 194
5.1016 4.5039 0.23579999999999998 95
5.082 4.4883 -0.8662000000000001 29
27.7812 24.5312 2.1543 77
5.0 4.418 -0.6968000000000001 139
27.9375 24.6719 3.0410000000000004 145
4.957 4.375 -0.5366 128
4.8086 4.2461 -0.37060000000000004 6
4.8203 4.2578 -0.2228 57
4.8867 4.3125 -0.0753 124
0.5938 0.521 -0.1318 206
5.0312 4.4102 0.07730000000000001 10
5.1211 4.4883 0.23600000000000002 68
5.1094 4.4805 -0.8691 252
27.6875 24.2812 2.1406 94
5.0273 4.4102 -0.6981999999999999 45
28.125 24.6719 3.0526999999999997 150
4.9766 4.3633 -0.5371 7
4.832 4.2383 -0.3713 109
4.8438 4.2461 -0.2231 170
4.8945 4.293 -0.07519999999999999 222
0.6015999999999999 0.5239 -0.1333 137
5.0078 4.3633 0.0768 232
0.6781999999999999 0.5908 -0.1307 33
5.144500000000001 4.4805 0.23629999999999998 204
5.125 4.4609 -0.8687 198
27.9375 24.3281 2.1523 192
5.0352 4.3867 -0.6973 230
5.0 4.3555 -0.5381 42
4.8438 4.2188 -0.37079999999999996 110
4.8867 4.2539 -0.22440000000000002 159
4.9023 4.2695 -0.0751 133
0.5977 0.5166 -0.1318 212
5.0117 4.3359 0.0766 238
29.4531 25.4688 1.3584 93
5.1289 4.4375 -0.8667 228
28.0 24.2188 2.1523 178
5.0547 4.3711 -0.6978 58
28.7656 24.875 3.1035000000000004 94
5.0352 4.3555 -0.54 189
4.8828 4.2227 -0.373 136
4.9062 4.2422 -0.22469999999999998 150
4.9297 4.2617 -0.0753 101
0.5874 0.5044 -0.129 200
31.7812 27.2812 0.4888 179
31.2656 26.8438 1.4365 63
5.1328 4.4062 -0.8647 135
27.8438 23.9062 2.1328 149
5.0703 4.3555 -0.6978 250
27.2188 23.375 2.9276999999999997 66
5.0742 4.3555 -0.5425 65
4.9336 4.2344 -0.3757 32
4.9219 4.2266 -0.22469999999999998 10
4.9766 4.2734 -0.0758 103
0.5859000000000001 0.49979999999999997 -0.1284 27
31.4844 26.8438 1.4424000000000001 19
5.136699999999999 4.3789 -0.8628 53
27.7969 23.7031 2.123 244
5.0977 4.3477 -0.6997 73
28.8594 24.6094 3.0938 55
5.1133 4.3594 -0.5454 225
4.9961 4.2578 -0.37939999999999996 26
4.957 4.2266 -0.2256 33
0.6147 0.5205 -0.1346 97
31.7969 26.9219 0.4863 101
28.7969 24.3906 1.3154 10
5.1484000000000005 4.3594 -0.8623000000000001 40
28.125 23.8125 2.1406 196
5.136699999999999 4.3516 -0.7026 149
28.9844 24.5469 3.0976999999999997 109
12.289100000000001 10.406199999999998 -1.3115 174
4.9961 4.2305 -0.2268 184
0.5654 0.4753 -0.1229 107
0.6884999999999999 0.5791 -0.1307 100
29.0938 24.4688 1.3262 81
5.1562 4.3359 -0.8613 225
28.3438 23.8438 2.1523 93
5.167999999999999 4.3438 -0.7051000000000001 149
29.0469 24.4375 3.0976999999999997 150
12.335899999999999 10.3828 -1.3135 62
15.7422 13.2422 -1.1943000000000001 94
5.0391 4.2383 -0.2281 220
0.5820000000000001 0.4858 -0.1263 143
29.1406 24.3281 1.3241999999999998 73
5.1640999999999995 4.3086 -0.8599 47
27.8281 23.2188 2.1055 169
5.199199999999999 4.3398 -0.7075 87
12.4297 10.375 -1.3184 13
28.7344 23.9844 3.9297000000000004 172
15.8125 13.1953 -1.1953 29
5.1055 4.2617 -0.2303 209
0.6021 0.499 -0.1305 150
30.6094 25.375 1.3866999999999998 201
5.1875 4.3008 -0.8613 126
27.75 23.0 2.0957 97
10.3672 8.5938 -1.4102000000000001 114
12.5 10.3594 -1.3222999999999998 185
28.7344 23.8125 3.918 251
5.4727 4.5352 -0.41090000000000004 171
5.1523 4.2695 -0.23190000000000002 22
25.625 21.2344 -0.3882 38
0.6064 0.49950000000000006 -0.13119999999999998 50
29.1094 23.9688 1.3154 187
5.2578 4.3281 -0.8706 246
27.8438 22.9219 2.0957 49
10.4297 8.5859 -1.415 122
29.5312 24.3125 3.1211 40
12.5625 10.343800000000002 -1.3252000000000002 237
29.2188 24.0625 3.9745999999999997 67
5.425800000000001 4.4688 -0.40619999999999995 105
5.207000000000001 4.2852 -0.2336 52
25.6562 21.125 -0.38770000000000004 213
0.6328 0.5176 -0.1367 17
29.2031 23.8906 0.4404 233
0.6962999999999999 0.5693 -0.1307 121
30.8125 25.2031 1.3887 189
8.9297 7.3047 -1.4785 54
28.0625 22.9531 2.1055 157
10.468800000000002 8.5625 -1.4169999999999998 96
29.8594 24.4219 3.1464999999999996 205
12.593800000000002 10.2969 -1.3252000000000002 174
28.8125 23.5625 3.9082 157
5.4062 4.4219 -0.4036 157
25.6719 21.0 -0.387 47
0.5947 0.4829 -0.1277 152
8.9688 7.2812 -1.4805000000000001 243
28.1562 22.8438 2.1074 47
10.5078 8.5234 -1.4169999999999998 54
28.4688 23.0938 2.9901999999999997 251
12.6797 10.289100000000001 -1.3300999999999998 214
29.125 23.625 3.9375 205
5.4297 4.4062 -0.40409999999999996 77
25.75 20.9062 -0.387 123
0.6118 0.4932 -0.13119999999999998 253
9.0625 7.300800000000001 -1.4912 20
28.4844 22.9531 2.125 21
10.539100000000001 8.4922 -1.4180000000000001 49
28.4219 22.8906 2.9766000000000004 43
12.726600000000001 10.2578 -1.3311000000000002 222
29.9688 24.1406 4.0391 59
16.2031 13.0547 -1.208 65
25.9062 20.875 -0.3882 172
0.6167 0.49340000000000006 -0.1318 192
0.7026 0.562 -0.1307 32
9.1016 7.2812 -1.4941 219
28.6875 22.9531 2.1348 48
10.593800000000002 8.4766 -1.4209 24
29.2344 23.3906 3.0547000000000004 20
12.773399999999999 10.2188 -1.3319999999999999 141
30.0781 24.0625 4.043 69
16.2969 13.039100000000001 -1.2119 164
26.0625 20.8438 -0.38939999999999997 127
0.6245 0.4961 -0.1333 48
29.6094 23.5156 0.4414 47
0.7045999999999999 0.5596 -0.1307 142
9.1641 7.2812 -1.5 148
28.6875 22.7812 2.1289 162
10.648399999999999 8.4609 -1.4247999999999998 155
29.2812 23.2656 3.0507999999999997 240
12.8281 10.1875 -1.334 80
16.4062 13.031199999999998 -1.2158 1
26.2344 20.8438 -0.3909 255
0.5981000000000001 0.4722 -0.127 215
0.7061 0.5571 -0.1307 196
29.8438 23.5469 1.3262 106
9.2109 7.265599999999999 -1.5029 122
28.8438 22.7656 2.1348 66
10.6953 8.4453 -1.4277000000000002 194
29.3594 23.1719 3.0507999999999997 118
12.8672 10.1562 -1.335 146
16.4531 12.9844 -1.2168 68
26.3594 20.8125 -0.3918 19
0.5815 0.4556 -0.1229 123
0.708 0.5552 -0.1307 25
29.75 23.3281 1.3184 127
9.25 7.25 -1.5059 34
28.7031 22.5 2.1191 190
10.7422 8.4219 -1.4297 226
29.5 23.125 3.0586 53
12.9375 10.1406 -1.3388999999999998 231
16.5156 12.9453 -1.2178 249
26.5625 20.8125 -0.39380000000000004 83
0.6172 0.4802 -0.1305 193
0.6694 0.521 -0.1229 91
30.0312 23.3594 1.3271000000000002 85
9.2969 7.230499999999999 -1.5088 151
28.9531 22.5312 2.1328 249
10.789100000000001 8.3906 -1.4325999999999999 22
29.2969 22.7969 3.0293 1
13.0 10.1094 -1.3418 161
30.4219 23.6719 4.0469 181
16.6406 12.9453 -1.2236 190
26.75 20.8125 -0.3953 202
0.6221 0.4805 -0.13119999999999998 224
0.7119 0.5498 -0.1307 19
31.2812 24.1719 1.3788999999999998 111
9.3438 7.2188 -1.5137 244
28.8438 22.2812 2.1172 213
10.843800000000002 8.375 -1.4355000000000002 237
29.5156 22.7969 3.043 140
13.0547 10.0859 -1.3437999999999999 53
29.7031 22.9375 3.9414 111
16.7188 12.906199999999998 -1.2256 200
26.9375 20.7969 -0.3972 186
0.627 0.4805 -0.1318 206
0.667 0.5112 -0.1216 115
31.2344 23.9375 1.3721 204
9.3906 7.203099999999999 -1.5166 68
29.1719 22.375 2.1367 32
10.8906 8.3516 -1.4385 232
29.5469 22.6562 3.0370999999999997 91
13.1172 10.0625 -1.3466999999999998 95
29.6875 22.7656 3.9276999999999997 174
16.7812 12.8594 -1.2275 249
27.125 20.7969 -0.39890000000000003 157
0.6157 0.46880000000000005 -0.129 136
0.6968000000000001 0.5307999999999999 -0.12710000000000002 144
31.2344 23.7812 1.3691 215
9.4297 7.175800000000001 -1.5186000000000002 19
28.3438 21.5781 2.0703 142
10.9375 8.3281 -1.4404 174
29.7812 22.6719 3.0526999999999997 149
13.1719 10.0312 -1.3486000000000002 175
29.5312 22.4844 3.8964999999999996 75
16.8438 12.8281 -1.2295 245
27.2812 20.7656 -0.39990000000000003 134
0.5674 0.42869999999999997 -0.11800000000000001 116
0.6704000000000001 0.5063 -0.1216 83
35.3438 26.6875 1.5449000000000002 23
9.4844 7.1640999999999995 -1.5234 182
29.4688 22.2656 2.1465 47
11.0 8.3125 -1.4443000000000001 64
30.1719 22.7969 3.0858999999999996 206
13.226600000000001 9.9922 -1.3506 64
29.7344 22.4688 3.9141000000000004 143
16.9531 12.8125 -1.2334 195
27.4688 20.75 -0.4019 246
0.6318 0.4739 -0.1318 128
0.6753 0.5063 -0.1223 233
31.3125 23.4844 1.3652000000000002 234
9.5234 7.144500000000001 -1.5263999999999998 217
29.9531 22.4688 2.1758 39
11.039100000000001 8.2812 -1.4453 191
30.0156 22.5156 3.0605 142
13.289100000000001 9.9688 -1.3525 87
29.6875 22.2656 3.8964999999999996 240
17.0312 12.773399999999999 -1.2363 123
27.6719 20.75 -0.4036 189
0.6206 0.46240000000000003 -0.129 203
0.6738 0.502 -0.1216 23
35.8438 26.6875 1.5586000000000002 199
9.4453 7.0390999999999995 -1.5097999999999998 109
30.1406 22.4531 2.1836 148
11.0781 8.2578 -1.4472999999999998 240
29.5312 22.0 3.0039 166
13.351600000000001 9.9453 -1.3563999999999998 217
29.8125 22.2031 3.9023000000000003 130
17.125 12.75 -1.2393 63
27.8906 20.7656 -0.4058 5
0.6221 0.46020000000000005 -0.129 147
0.6562 0.48560000000000003 -0.11800000000000001 170
36.0312 26.6406 1.5625 198
9.4609 7.0 -1.5088 68
30.2812 22.3906 2.1895 177
11.125 8.2344 -1.4502000000000002 231
29.8438 22.0781 3.0293 149
13.398399999999999 9.9062 -1.3574000000000002 141
30.0 22.1875 3.918 157
17.1875 12.710899999999999 -1.2412 22
28.0625 20.75 -0.4072 13
0.6304 0.46259999999999996 -0.1305 134
0.6455 0.4736 -0.11560000000000001 86
36.3438 26.6719 1.5722999999999998 108
9.4844 6.957000000000001 -1.5078 56
30.5781 22.4375 2.2051 93
11.1953 8.2188 -1.4550999999999998 87
29.1875 21.4219 2.9551 223
13.460899999999999 9.875 -1.3603999999999998 198
29.9688 21.9844 3.9023000000000003 30
17.2812 12.6719 -1.2441 28
28.25 20.7188 -0.40869999999999995 101
0.6289 0.45799999999999996 -0.1298 176
0.6758 0.4924 -0.121 141
36.5938 26.6562 1.5791 50
9.5 6.921900000000001 -1.5068000000000001 48
30.2812 22.0469 2.1758 69
11.226600000000001 8.1797 -1.4561000000000002 68
29.25 21.3125 2.9531 22
13.531199999999998 9.8594 -1.3643 130
29.9375 21.8125 3.8887 139
17.3594 12.648399999999999 -1.2470999999999999 174
31.875 23.2188 -1.375 110
28.4688 20.7344 -0.4111 198
0.605 0.4375 -0.1242 138
0.6646 0.48100000000000004 -0.1186 33
36.8438 26.6562 1.5859 213
9.5391 6.9023 -1.5088 170
30.6875 22.2031 2.2012 5
11.273399999999999 8.1562 -1.4580000000000002 2
29.4219 21.2812 2.9629000000000003 232
13.5781 9.8281 -1.3662 107
30.2812 21.9062 3.9238 108
17.4375 12.6172 -1.249 55
28.6562 20.7344 -0.4128 202
0.6128 0.44020000000000004 -0.12560000000000002 112
0.644 0.46259999999999996 -0.1144 140
37.1562 26.7031 1.5957 30
9.5625 6.8711 -1.5097999999999998 12
31.2344 22.4375 2.2344 117
11.3203 8.1328 -1.46 174
29.4219 21.1406 2.957 201
13.6328 9.7969 -1.3681999999999999 127
30.4375 21.875 3.9336 11
17.4844 12.5703 -1.25 73
28.875 20.75 -0.41479999999999995 176
0.627 0.447 -0.1284 99
0.623 0.4443 -0.11019999999999999 166
37.4062 26.6719 1.6025 226
9.5625 6.8203 -1.5059 116
31.5 22.4531 2.248 214
11.3672 8.1016 -1.4628999999999999 49
29.4219 20.9844 2.9473000000000003 197
13.6719 9.75 -1.3681999999999999 179
30.5156 21.7656 3.9355 71
17.6562 12.585899999999999 -1.2588 230
29.0781 20.7344 -0.4165 166
0.6353 0.4495 -0.1298 172
0.7343999999999999 0.5195000000000001 -0.1307 93
37.625 26.625 1.6074000000000002 204
9.5781 6.7773 -1.5038999999999998 121
31.625 22.3906 2.252 18
11.4297 8.0938 -1.4678 32
30.7344 21.75 3.0723000000000003 152
13.7422 9.7266 -1.3721 13
30.625 21.6719 3.9375 16
17.7344 12.5547 -1.2617 194
29.2812 20.7344 -0.41869999999999996 106
0.6206 0.436 -0.1263 39
8.3672 5.8789 -1.5527000000000002 187
37.9375 26.6406 1.6172 221
9.6016 6.7461 -1.5038999999999998 73
31.7812 22.3281 2.2578 157
11.4844 8.0703 -1.4707 75
31.0938 21.8438 3.0995999999999997 63
13.8047 9.6953 -1.375 171
17.8125 12.5156 -1.2637 131
29.5156 20.7344 -0.42090000000000005 178
0.606 0.4224 -0.1229 220
8.3438 5.8164 -1.5438999999999998 4
9.6328 6.7148 -1.5049000000000001 66
43.3125 30.2031 3.0702999999999996 170
11.5156 8.0312 -1.4707 172
13.8828 9.6797 -1.3788999999999998 18
17.875 12.468800000000002 -1.2656 196
29.7031 20.7188 -0.4226 194
0.6396000000000001 0.4429 -0.1298 156
8.3047 5.7461 -1.5332 80
38.5 26.6406 1.6328 93
9.6562 6.6797 -1.5049000000000001 135
43.2812 29.9688 3.0605 143
11.5547 7.9961 -1.4727000000000001 85
31.3438 21.7031 3.1094 236
13.9219 9.6406 -1.3799000000000001 106
17.9844 12.4453 -1.2695 104
29.9844 20.75 -0.4255 103
0.6768000000000001 0.46509999999999996 -0.1375 4
8.3125 5.7109000000000005 -1.5312000000000001 11
9.6797 6.6484000000000005 -1.5049000000000001 46
43.2812 29.7344 3.0526999999999997 179
11.601600000000001 7.9688 -1.4746000000000001 194
14.0078 9.625 -1.3847999999999998 41
18.1094 12.4453 -1.2764 188
30.2188 20.7656 -0.428 104
7.644500000000001 5.2109000000000005 -1.624 19
8.3125 5.667999999999999 -1.5283000000000002 10
39.0625 26.625 1.6494 135
9.6953 6.609400000000001 -1.5038999999999998 220
43.3125 29.5312 3.0469 64
11.656199999999998 7.9453 -1.4785 221
14.031199999999998 9.5625 -1.3838 27
18.1719 12.3828 -1.2764 136
31.5781 21.5312 -0.446 197
7.6484000000000005 5.175800000000001 -1.6211000000000002 91
8.3281 5.6328 -1.5272999999999999 68
39.3125 26.6094 1.6562000000000001 198
9.7188 6.574199999999999 -1.5038999999999998 145
43.25 29.2656 3.0370999999999997 131
11.710899999999999 7.921900000000001 -1.4813999999999998 83
14.1172 9.5469 -1.3887 109
18.2656 12.3594 -1.2803 222
31.5781 21.3594 -0.4451 178
7.6562 5.140599999999999 -1.6181999999999999 53
8.3359 5.6015999999999995 -1.5253999999999999 182
9.7422 6.542999999999999 -1.5038999999999998 242
43.25 29.0469 3.0293 93
11.75 7.894500000000001 -1.4834 27
14.1875 9.5312 -1.3925999999999998 49
18.3438 12.3203 -1.2832 210
31.5781 21.2188 -0.44409999999999994 251
7.6953 5.1328 -1.6230000000000002 30
8.3516 5.5703 -1.5234 122
9.7734 6.519500000000001 -1.5059 42
43.2812 28.875 3.0254000000000003 57
11.8047 7.8711 -1.4863 27
14.2656 9.5078 -1.3965 15
18.4688 12.3203 -1.2891 9
31.5938 21.0781 -0.4434 230
