# .PCD v0.7 - Point Cloud Data file format
VERSION 0.7
FIELDS x y z intensity
SIZE 4 4 4 4
TYPE F F F F
COUNT 1 1 1 1
WIDTH 1412
HEIGHT 1
VIEWPOINT 0 0 0 1 0 0 0
POINTS 1412
DATA ascii
2.4375 -1.8603999999999998 -0.0349 220
2.127 -1.6347999999999998 -0.4656 7
2.4551 -1.8877000000000002 0.0353 237
2.25 -1.7294999999999998 -0.426 185
2.4805 -1.9062000000000001 0.1074 161
2.3672 -1.8193000000000001 -0.3784 149
2.7695 -2.1289 0.2004 47
2.416 -1.8574000000000002 -0.3157 228
2.4258 -1.8652000000000002 -0.2462 215
2.4238 -1.8633000000000002 -0.1752 94
2.4551 -1.8866999999999998 -0.1063 244
2.4375 -1.8730000000000002 -0.035 104
2.125 -1.6444999999999999 -0.46630000000000005 233
2.4434 -1.8916 0.0352 119
2.2324 -1.7285 -0.4241 113
2.4766 -1.9180000000000001 0.1076 61
2.373 -1.8378999999999999 -0.38060000000000005 57
2.7577999999999996 -2.1348 0.2002 154
2.4121 -1.8681999999999999 -0.31620000000000004 36
2.4219 -1.876 -0.2466 204
2.4238 -1.876 -0.1757 170
2.4395 -1.8877000000000002 -0.1059 182
2.4453 -1.8944999999999999 -0.0353 35
2.125 -1.6562000000000001 -0.4678 243
2.4473 -1.9062000000000001 0.0354 84
2.2148 -1.7256 -0.4216 74
2.4609 -1.9180000000000001 0.1072 54
2.3633 -1.8428 -0.3801 190
2.7226999999999997 -2.1211 0.1981 169
2.4102 -1.8779 -0.3164 132
2.416 -1.8838 -0.2466 132
2.4199 -1.8866999999999998 -0.1759 82
2.4336 -1.8955000000000002 -0.1059 163
2.4434 -1.9043 -0.0353 41
2.1191 -1.6631 -0.4678 224
2.4473 -1.9199000000000002 0.0355 171
2.2109 -1.7344 -0.4219 121
2.4512 -1.9238 0.107 242
2.3496 -1.8437999999999999 -0.3787 111
2.7089999999999996 -2.127 0.1978 200
2.4102 -1.8906 -0.31739999999999996 13
2.4062 -1.8887 -0.2462 235
2.4277 -1.9043 -0.17679999999999998 18
2.4297 -1.9062000000000001 -0.106 55
2.4277 -1.9053 -0.0352 228
2.1113 -1.6688999999999998 -0.467 29
2.4434 -1.9306999999999999 0.0355 218
2.2031 -1.7422 -0.4219 18
2.4531 -1.9404 0.1074 33
2.332 -1.8437999999999999 -0.377 184
2.6757999999999997 -2.1172 0.19579999999999997 122
2.4121 -1.9072 -0.3186 134
3.3457 -2.6464999999999996 0.3447 234
2.4043 -1.9003999999999999 -0.2466 107
2.4102 -1.9053 -0.1761 81
2.4258 -1.9180000000000001 -0.10619999999999999 22
2.418 -1.9111000000000002 -0.0351 213
2.0977 -1.6709 -0.4656 106
2.4336 -1.9375 0.0355 101
2.2031 -1.7538999999999998 -0.4229 11
2.4492 -1.9502000000000002 0.1075 174
2.3184 -1.8457 -0.3757 97
2.6504000000000003 -2.1113 0.1945 180
2.4062 -1.916 -0.3186 34
3.2363 -2.5781 0.3342 246
2.4102 -1.9180000000000001 -0.24789999999999998 86
2.4004 -1.9121000000000001 -0.1759 28
2.4277 -1.9336000000000002 -0.1066 28
2.418 -1.9247999999999998 -0.0352 155
2.0977 -1.6836000000000002 -0.467 156
2.4258 -1.9463 0.0355 219
2.1855 -1.7529 -0.4207 101
2.4492 -1.9647999999999999 0.10779999999999999 189
2.3203 -1.8622999999999998 -0.3772 194
2.6308999999999996 -2.1094 0.1935 218
2.3867 -1.9141 -0.3169 242
3.2108999999999996 -2.5762 0.3325 137
2.4062 -1.9297 -0.2482 176
2.3965 -1.9228999999999998 -0.1761 210
2.416 -1.9385 -0.10640000000000001 113
2.4258 -1.9463 -0.0355 191
2.1016 -1.6982 -0.469 133
2.4219 -1.9569999999999999 0.0355 54
2.1719 -1.7549000000000001 -0.4192 157
2.4414 -1.9727000000000001 0.10779999999999999 206
2.3105 -1.8672 -0.37670000000000003 242
2.6172000000000004 -2.1152 0.193 178
2.3887 -1.9306999999999999 -0.3181 65
3.1719 -2.5625 0.3293 176
2.3887 -1.9306999999999999 -0.24719999999999998 123
2.4023 -1.9413999999999998 -0.177 88
2.4043 -1.9434 -0.10619999999999999 185
2.4121 -1.9491999999999998 -0.0354 24
2.0996 -1.7080000000000002 -0.4697 18
2.418 -1.9678 0.0356 18
2.1699 -1.7656 -0.4202 64
2.4277 -1.9756 0.1075 57
2.2988 -1.8700999999999999 -0.3757 164
2.6035000000000004 -2.1172 0.19260000000000002 221
2.3945 -1.9482 -0.31980000000000003 174
3.1543 -2.5664 0.3284 41
2.3867 -1.9413999999999998 -0.24760000000000001 154
2.3984 -1.9521000000000002 -0.1772 232
2.4141 -1.9638999999999998 -0.1069 205
2.4121 -1.9628999999999999 -0.0355 205
2.0898 -1.7119 -0.469 66
2.4219 -1.9834 0.035699999999999996 81
2.1621 -1.7715 -0.4199 193
2.4297 -1.9893 0.10779999999999999 6
2.2734 -1.8622999999999998 -0.3726 93
2.5762 -2.1094 0.191 103
2.3945 -1.9609 -0.3208 165
3.1308999999999996 -2.5645 0.32689999999999997 40
2.3848 -1.9531 -0.248 146
2.3926 -1.96 -0.1772 199
2.4121 -1.9756 -0.10710000000000001 19
2.4004 -1.9658000000000002 -0.0354 211
2.084 -1.7197 -0.469 69
2.4082 -1.9872999999999998 0.0356 12
2.1543 -1.7783000000000002 -0.4194 173
2.4336 -2.0078 0.10830000000000001 215
2.2695 -1.874 -0.37329999999999997 43
2.5488 -2.1035 0.18960000000000002 107
2.377 -1.9609 -0.3193 176
3.1172000000000004 -2.5723000000000003 0.3264 242
2.3867 -1.9707 -0.2491 8
2.3828 -1.9658000000000002 -0.177 234
2.4082 -1.9872999999999998 -0.1072 240
2.4023 -1.9813999999999998 -0.0355 230
2.0879 -1.7344 -0.47119999999999995 125
2.4043 -1.9980000000000002 0.0356 14
2.1445 -1.7832 -0.4189 133
2.4219 -2.0137 0.1082 255
2.2676 -1.8838 -0.3738 147
2.5254 -2.0977 0.1882 12
2.3672 -1.9668 -0.3188 101
3.0839999999999996 -2.5645 0.324 64
2.3789 -1.9775 -0.249 74
2.3848 -1.9813999999999998 -0.1777 52
2.4004 -1.9950999999999999 -0.1072 97
2.4004 -1.9950999999999999 -0.0356 203
2.0859 -1.7461000000000002 -0.4722 234
2.3965 -2.0059 0.0356 208
2.1328 -1.7861000000000002 -0.4177 5
2.4141 -2.0215 0.1082 144
2.2695 -1.9003999999999999 -0.37520000000000003 82
2.502 -2.0938 0.18710000000000002 72
2.3652 -1.9805000000000001 -0.3196 215
3.0469 -2.5508 0.3208 162
2.3711 -1.9863 -0.249 74
2.3828 -1.9961000000000002 -0.1782 195
2.3906 -2.002 -0.10710000000000001 173
2.4023 -2.0117 -0.035699999999999996 121
2.0781 -1.7519999999999998 -0.4719 93
2.3965 -2.0195 0.035699999999999996 251
2.1289 -1.7959 -0.4182 82
2.4004 -2.0234 0.10779999999999999 194
2.248 -1.8955000000000002 -0.3726 157
2.4902 -2.0996 0.1868 192
2.3672 -1.9961000000000002 -0.3208 93
3.0273000000000003 -2.5527 0.31980000000000003 111
2.3672 -1.9961000000000002 -0.2491 48
2.377 -2.0039 -0.1782 19
2.3926 -2.0176 -0.1075 105
2.3926 -2.0176 -0.035699999999999996 15
2.0742 -1.7616999999999998 -0.4727 195
2.3984 -2.0352 0.0359 122
2.1309 -1.8096 -0.4199 162
2.4062 -2.043 0.1084 241
2.2344 -1.8975 -0.3716 63
2.4766 -2.1016 0.1863 58
2.3633 -2.0078 -0.32130000000000003 22
3.0156 -2.5586 0.3193 130
2.3594 -2.002 -0.249 134
2.3691 -2.0117 -0.1782 227
2.3887 -2.0293 -0.10769999999999999 203
2.3789 -2.0195 -0.0356 207
2.0684 -1.7686000000000002 -0.4727 76
2.3828 -2.0352 0.035699999999999996 223
2.1289 -1.8203 -0.4207 138
2.4023 -2.0527 0.10859999999999999 139
2.2285 -1.9053 -0.3716 181
2.4629 -2.1055 0.1858 222
2.3516 -2.0098 -0.3206 26
2.9882999999999997 -2.5547 0.31739999999999996 166
2.3633 -2.0195 -0.2502 229
2.3594 -2.0176 -0.17800000000000002 200
2.3887 -2.041 -0.1079 19
2.3789 -2.0332 -0.035699999999999996 239
2.0664 -1.7783000000000002 -0.4731 3
2.373 -2.041 0.035699999999999996 77
2.1191 -1.8241999999999998 -0.4199 183
2.4043 -2.0703 0.10890000000000001 30
2.2227 -1.9141 -0.3718 140
2.4629 -2.1211 0.1864 145
2.3477 -2.0195 -0.3208 153
2.9551 -2.543 0.3147 182
2.3633 -2.0332 -0.251 152
2.3594 -2.0312 -0.17850000000000002 90
2.375 -2.0449 -0.10769999999999999 122
2.3789 -2.0469 -0.0358 153
2.0723 -1.7959 -0.47609999999999997 190
2.3809 -2.0625 0.0359 140
2.1094 -1.8281 -0.4192 248
2.3906 -2.0723 0.10869999999999999 215
2.2188 -1.9228999999999998 -0.3721 32
2.4551 -2.127 0.1863 174
2.3496 -2.0352 -0.3223 151
2.9199 -2.5293 0.3118 45
2.3496 -2.0371 -0.2502 103
2.3613 -2.0469 -0.1791 89
2.3711 -2.0547 -0.10779999999999999 213
2.3809 -2.0625 -0.0359 218
2.0781 -1.8144999999999998 -0.4792 3
2.3789 -2.0762 0.036000000000000004 68
2.1035 -1.8359 -0.4192 94
2.3789 -2.0762 0.1085 202
2.2031 -1.9228999999999998 -0.37060000000000004 154
2.4512 -2.1406 0.1866 50
2.3477 -2.0488 -0.32299999999999995 35
2.9082 -2.5391 0.3118 91
2.3418 -2.0449 -0.2502 64
2.3574 -2.0566 -0.1793 178
2.3691 -2.0684 -0.10800000000000001 121
2.3691 -2.0684 -0.0359 6
2.0664 -1.8163999999999998 -0.4778 140
2.375 -2.0879 0.0361 16
2.1055 -1.8516 -0.42090000000000005 42
2.3828 -2.0938 0.10890000000000001 157
2.1875 -1.9228999999999998 -0.3691 134
2.4316 -2.1367 0.1857 240
2.3379 -2.0547 -0.3225 18
2.8906 -2.541 0.31079999999999997 248
2.3496 -2.0645 -0.25170000000000003 112
2.3496 -2.0664 -0.1793 160
2.3711 -2.0859 -0.1085 41
2.3633 -2.0781 -0.0359 97
2.0605 -1.8241999999999998 -0.4778 95
2.3633 -2.0938 0.036000000000000004 122
2.1055 -1.8643 -0.42210000000000003 30
2.3809 -2.1094 0.1093 223
2.1855 -1.9355000000000002 -0.3701 235
2.4219 -2.1445 0.1855 162
2.3301 -2.0645 -0.3225 213
2.8613 -2.5352 0.3086 126
2.3457 -2.0781 -0.2522 135
2.3398 -2.0723 -0.1791 13
2.3711 -2.0996 -0.10880000000000001 144
2.3633 -2.0918 -0.036000000000000004 51
2.0586 -1.835 -0.4788 230
2.3574 -2.1016 0.036000000000000004 111
2.0996 -1.8730000000000002 -0.4226 100
2.373 -2.1172 0.1093 135
2.1816 -1.9463 -0.37060000000000004 11
2.4219 -2.1602 0.18600000000000003 248
2.3262 -2.0742 -0.32299999999999995 166
2.832 -2.5254 0.3064 198
2.3418 -2.0879 -0.2527 117
2.3418 -2.0879 -0.17980000000000002 106
2.3574 -2.1016 -0.1085 30
2.3633 -2.1094 -0.0361 100
2.0703 -1.8594 -0.48340000000000005 194
2.3594 -2.1172 0.0362 53
2.0859 -1.8730000000000002 -0.42090000000000005 194
2.3633 -2.1211 0.1091 92
2.1758 -1.9531 -0.37060000000000004 106
2.418 -2.1719 0.1864 237
2.3242 -2.0879 -0.3237 135
2.8026999999999997 -2.5176 0.304 70
2.332 -2.0938 -0.2522 136
2.3379 -2.0977 -0.1801 218
2.3496 -2.1094 -0.1085 144
2.3613 -2.1211 -0.0362 174
2.0703 -1.8711000000000002 -0.48460000000000003 137
2.3633 -2.1367 0.0363 253
2.082 -1.8828 -0.4216 226
2.3594 -2.1328 0.1093 21
2.1602 -1.9531 -0.3691 210
2.416 -2.1836 0.1868 110
2.3223 -2.0996 -0.3245 91
2.7891000000000004 -2.5215 0.3035 108
2.3184 -2.0957 -0.25170000000000003 80
2.3418 -2.1172 -0.18100000000000002 202
2.3555 -2.1289 -0.1091 115
2.3535 -2.127 -0.0362 46
2.0566 -1.8730000000000002 -0.4829 2
2.3613 -2.1504 0.0364 161
2.0879 -1.9013999999999998 -0.4241 249
2.3535 -2.1445 0.1094 236
2.1504 -1.959 -0.36869999999999997 49
2.4023 -2.1895 0.1864 201
2.3066 -2.1016 -0.3235 123
2.7733999999999996 -2.5273 0.30269999999999997 182
2.3184 -2.1133 -0.2527 22
2.3301 -2.123 -0.1808 124
2.3555 -2.1465 -0.1094 80
2.3418 -2.1328 -0.0361 253
2.0488 -1.8809 -0.4829 199
2.3477 -2.1543 0.0363 59
2.0879 -1.9169999999999998 -0.42579999999999996 88
2.3535 -2.1602 0.1097 50
2.1445 -1.9678 -0.3689 63
2.3926 -2.1953 0.1862 20
2.3047 -2.1152 -0.32420000000000004 155
2.7637 -2.5371 0.30269999999999997 57
2.3203 -2.1289 -0.25370000000000004 113
2.3164 -2.127 -0.18030000000000002 236
2.3535 -2.1602 -0.1097 201
2.3418 -2.1504 -0.0363 240
2.0605 -1.9022999999999999 -0.48710000000000003 203
2.3379 -2.1582 0.0363 45
2.0801 -1.9209 -0.4253 197
2.3574 -2.1777 0.1103 75
2.1387 -1.9746000000000001 -0.3689 70
2.3945 -2.2109 0.1869 22
2.293 -2.1172 -0.3235 89
2.7305 -2.5215 0.2998 9
2.3223 -2.1445 -0.2546 36
2.3164 -2.1387 -0.1808 76
2.3457 -2.166 -0.1097 160
2.3379 -2.1582 -0.0363 134
2.0605 -1.916 -0.4888 203
2.3418 -2.1777 0.0365 96
2.0762 -1.9306999999999999 -0.42579999999999996 175
2.3477 -2.1816 0.1101 21
2.1309 -1.9794999999999998 -0.36869999999999997 81
2.3887 -2.2207 0.18710000000000002 109
2.2969 -2.1348 -0.325 163
2.707 -2.5156 0.2981 88
2.3164 -2.1523 -0.2546 29
2.3203 -2.1582 -0.1816 39
2.3301 -2.166 -0.1093 170
2.3398 -2.1738 -0.0364 179
2.0586 -1.9287 -0.49 176
2.3418 -2.1953 0.0366 21
2.0723 -1.9413999999999998 -0.4265 246
2.334 -2.1855 0.1099 63
2.1172 -1.9844 -0.3679 228
2.3867 -2.2363 0.18760000000000002 42
2.2988 -2.1543 -0.3267 159
2.6855 -2.5156 0.2969 44
2.3008 -2.1562 -0.2539 112
2.3203 -2.1738 -0.18239999999999998 137
2.3359 -2.1875 -0.1099 78
2.3281 -2.1816 -0.0364 206
2.0547 -1.9385 -0.4907 148
2.3398 -2.209 0.036699999999999997 180
2.0703 -1.9541 -0.4277 12
2.3359 -2.2031 0.1104 52
2.1074 -1.9883000000000002 -0.36719999999999997 242
2.377 -2.2422 0.18739999999999998 73
2.291 -2.1621 -0.3267 85
2.6738 -2.5215 0.2966 17
2.2969 -2.166 -0.25420000000000004 111
2.3086 -2.1777 -0.1819 136
2.3301 -2.1973 -0.11 139
2.3164 -2.1855 -0.0363 203
2.0488 -1.9453 -0.4907 214
2.3242 -2.207 0.0366 30
2.0723 -1.9687999999999999 -0.4294 23
2.3398 -2.2227 0.1109 175
2.1113 -2.0059 -0.3691 253
2.3633 -2.2441 0.1869 56
2.2812 -2.166 -0.3259 193
2.6719 -2.5371 0.29710000000000003 49
2.3105 -2.1934 -0.2566 62
2.2969 -2.1816 -0.1816 14
2.3281 -2.2109 -0.1103 146
2.3164 -2.1992 -0.0364 209
2.0508 -1.96 -0.4927 72
2.3223 -2.2207 0.036699999999999997 239
2.0605 -1.9697 -0.4282 132
2.3379 -2.2344 0.11109999999999999 218
2.1035 -2.0117 -0.3689 71
2.3613 -2.2578 0.18739999999999998 125
2.2695 -2.168 -0.32520000000000004 46
2.6308999999999996 -2.5156 0.2937 50
2.3027 -2.2012 -0.2566 98
2.2988 -2.1973 -0.18239999999999998 21
2.3242 -2.2227 -0.1105 81
2.3164 -2.2148 -0.0366 18
2.0508 -1.9756 -0.4949 207
2.3203 -2.2344 0.0368 32
2.0566 -1.9805000000000001 -0.429 70
2.3242 -2.2383 0.1108 49
2.0918 -2.0156 -0.3682 97
2.3633 -2.2773 0.1882 68
2.2695 -2.1855 -0.3267 154
2.5957 -2.5 0.2908 112
2.291 -2.207 -0.2561 7
2.3047 -2.2207 -0.18350000000000002 85
2.3125 -2.2266 -0.1103 206
2.3125 -2.2266 -0.0366 235
2.0508 -1.9883000000000002 -0.4961 46
2.3262 -2.2578 0.037000000000000005 213
2.0625 -2.002 -0.43189999999999995 157
2.3164 -2.248 0.1109 152
2.0938 -2.0312 -0.3699 130
2.3594 -2.2891 0.1885 72
2.2656 -2.1973 -0.3271 48
2.582 -2.5039 0.29 123
2.2832 -2.2148 -0.2561 171
2.3008 -2.2305 -0.1837 245
2.3066 -2.2383 -0.1104 185
2.3047 -2.2344 -0.0366 144
2.0371 -1.9902000000000002 -0.4949 60
2.3223 -2.2676 0.037000000000000005 238
2.0645 -2.0176 -0.4336 252
2.3145 -2.2617 0.1112 3
2.0781 -2.0312 -0.36840000000000006 62
2.3535 -2.2988 0.1887 3
2.2695 -2.2168 -0.3289 64
2.5625 -2.5039 0.2888 253
2.2852 -2.2324 -0.2571 48
2.2891 -2.2363 -0.18350000000000002 229
2.3145 -2.2617 -0.1112 252
2.2988 -2.2461 -0.036699999999999997 19
2.0332 -2.0 -0.49560000000000004 124
2.3145 -2.2754 0.037000000000000005 72
2.0605 -2.0273 -0.4343 192
2.3184 -2.2812 0.1118 76
2.0801 -2.0469 -0.3699 42
2.3379 -2.3008 0.1882 11
2.2598 -2.2227 -0.3286 74
2.5352 -2.4941 0.2869 17
2.2871 -2.25 -0.2585 107
2.2871 -2.25 -0.184 125
2.3184 -2.2812 -0.1118 129
2.293 -2.2559 -0.036699999999999997 34
2.0352 -2.0156 -0.4976 192
2.3066 -2.2832 0.037000000000000005 189
2.0566 -2.0371 -0.43479999999999996 121
2.3203 -2.2969 0.11220000000000001 88
2.0762 -2.0547 -0.3704 81
2.3359 -2.3125 0.1885 225
2.2441 -2.2227 -0.3274 26
2.5098 -2.4844 0.2849 143
2.2871 -2.2637 -0.259 22
2.2832 -2.2598 -0.18420000000000003 65
2.3008 -2.2773 -0.11130000000000001 193
2.2988 -2.2754 -0.0369 52
2.0371 -2.0293 -0.49979999999999997 110
2.2988 -2.291 0.037000000000000005 126
2.0527 -2.0469 -0.4355 85
2.3066 -2.2988 0.1119 104
2.0762 -2.0703 -0.3716 232
2.3379 -2.3301 0.1893 51
2.2344 -2.2266 -0.32689999999999997 236
2.4648 -2.4551 0.2805 196
2.2793 -2.2715 -0.259 227
2.2832 -2.2754 -0.18489999999999998 58
2.2949 -2.2871 -0.11130000000000001 231
2.2988 -2.291 -0.037000000000000005 86
2.0352 -2.043 -0.501 88
2.3027 -2.3105 0.037200000000000004 241
2.0508 -2.0586 -0.4368 155
2.2988 -2.3066 0.1119 12
2.0645 -2.0723 -0.37060000000000004 173
2.3359 -2.3457 0.18989999999999999 103
2.2305 -2.2383 -0.3276 167
2.4316 -2.4395 0.2776 150
2.2676 -2.2773 -0.2588 193
2.2832 -2.293 -0.1857 97
2.2949 -2.3047 -0.1118 208
2.2852 -2.293 -0.037000000000000005 214
2.0332 -2.0547 -0.5024000000000001 68
2.3027 -2.3281 0.0374 42
2.0586 -2.0801 -0.4397 188
2.3027 -2.3281 0.1125 252
2.0625 -2.084 -0.3716 124
2.3242 -2.3496 0.18960000000000002 205
2.2227 -2.2461 -0.3276 179
2.4199 -2.4453 0.2773 37
2.2715 -2.2969 -0.26030000000000003 210
2.2734 -2.2988 -0.18539999999999998 133
2.2988 -2.3242 -0.11230000000000001 226
2.2832 -2.3086 -0.0371 235
2.0234 -2.0605 -0.502 226
2.2949 -2.3359 0.0374 75
2.0586 -2.0957 -0.4414 81
2.3027 -2.3438 0.113 199
2.0625 -2.0996 -0.37329999999999997 98
2.3164 -2.3574 0.18960000000000002 245
2.207 -2.248 -0.3267 74
2.4102 -2.4551 0.2773 110
2.2715 -2.3125 -0.261 177
2.2676 -2.3086 -0.1857 78
2.2949 -2.3359 -0.1125 211
2.2773 -2.3184 -0.0371 249
2.0273 -2.0781 -0.5044 158
2.2891 -2.3457 0.0374 222
2.0469 -2.0977 -0.44020000000000004 218
2.2988 -2.3574 0.11320000000000001 195
2.0605 -2.1133 -0.3743 210
2.3125 -2.3711 0.19010000000000002 17
2.1914 -2.2461 -0.32520000000000004 26
2.377 -2.4375 0.27440000000000003 196
2.2734 -2.3301 -0.2622 98
2.2656 -2.3223 -0.18600000000000003 26
2.2832 -2.3398 -0.1124 177
2.2871 -2.3457 -0.0374 222
2.0254 -2.0918 -0.5059 32
2.2852 -2.3613 0.0375 196
2.041 -2.1074 -0.4409 179
2.2871 -2.3613 0.113 109
2.0625 -2.1289 -0.3757 40
2.3105 -2.3867 0.1906 162
2.1836 -2.2539 -0.32520000000000004 90
2.377 -2.4551 0.2754 149
2.2617 -2.3359 -0.262 89
2.2676 -2.3418 -0.187 229
2.2715 -2.3457 -0.11220000000000001 177
2.2852 -2.3613 -0.0375 231
2.0234 -2.1035 -0.5073 136
2.2852 -2.377 0.0377 249
2.041 -2.123 -0.4426 56
2.2812 -2.373 0.11320000000000001 92
2.0566 -2.1387 -0.3762 146
2.3105 -2.4043 0.1913 4
2.1914 -2.2793 -0.32789999999999997 50
2.375 -2.4707 0.2761 116
2.252 -2.3418 -0.26170000000000004 202
2.2676 -2.3594 -0.1877 169
2.2715 -2.3633 -0.1127 151
2.2715 -2.3633 -0.0374 22
2.0156 -2.1113 -0.5073 118
2.2832 -2.3906 0.0378 144
2.0508 -2.1465 -0.44630000000000003 185
2.2773 -2.3828 0.1133 10
2.0469 -2.1426 -0.3757 136
2.3008 -2.4082 0.191 169
2.1855 -2.2871 -0.32789999999999997 97
2.3633 -2.4746 0.2759 52
2.252 -2.3574 -0.2627 50
2.2578 -2.3633 -0.1875 101
2.2812 -2.3867 -0.11349999999999999 252
2.2617 -2.3672 -0.0374 194
2.0098 -2.1172 -0.5073 44
2.2773 -2.4004 0.0378 201
2.0488 -2.1602 -0.4475 251
2.2832 -2.4062 0.114 205
2.0508 -2.1621 -0.37770000000000004 59
2.2871 -2.4102 0.1906 60
2.166 -2.2832 -0.3262 5
2.3633 -2.4922 0.27690000000000003 94
2.2539 -2.375 -0.2637 148
2.25 -2.3711 -0.1875 225
2.2812 -2.4043 -0.114 149
2.2676 -2.3887 -0.037599999999999995 28
2.0117 -2.1367 -0.5103 13
2.2617 -2.4004 0.0377 116
2.0469 -2.1738 -0.4487 116
2.2812 -2.4219 0.1144 197
2.0488 -2.1758 -0.3787 249
2.2832 -2.4238 0.191 234
2.1504 -2.2832 -0.32520000000000004 31
2.3477 -2.4922 0.2761 111
2.252 -2.3906 -0.2646 107
2.2461 -2.3848 -0.188 120
2.2695 -2.4102 -0.11380000000000001 94
2.2695 -2.4102 -0.0378 207
2.0117 -2.1523 -0.5122 61
2.2598 -2.418 0.0378 189
2.0332 -2.1758 -0.4475 68
2.2695 -2.4277 0.1143 120
2.0566 -2.1992 -0.3818 157
2.2852 -2.4434 0.192 18
2.1445 -2.293 -0.32520000000000004 77
2.3398 -2.502 0.2761 183
2.2402 -2.3965 -0.2644 155
2.252 -2.4082 -0.1891 162
2.2578 -2.4141 -0.11359999999999999 210
2.2656 -2.4238 -0.0379 123
2.0156 -2.1699 -0.5151 89
2.2656 -2.4395 0.038 61
2.0312 -2.1875 -0.4487 83
2.2617 -2.4355 0.1143 24
2.0449 -2.2012 -0.3809 182
2.2891 -2.4629 0.193 230
2.1367 -2.2988 -0.32520000000000004 234
2.334 -2.5117 0.2764 129
2.2305 -2.4004 -0.2639 131
2.248 -2.4219 -0.18960000000000002 61
2.2578 -2.4316 -0.11410000000000001 25
2.2617 -2.4355 -0.038 143
2.0098 -2.1777 -0.5151 28
2.2637 -2.4531 0.0381 124
2.0352 -2.2051 -0.4512 105
2.2676 -2.457 0.115 228
2.0371 -2.207 -0.3809 58
2.2812 -2.4727 0.193 230
2.1367 -2.3164 -0.3267 168
2.3359 -2.5312 0.2776 34
2.2324 -2.4199 -0.26539999999999997 250
2.2383 -2.4258 -0.1893 61
2.2617 -2.4492 -0.11460000000000001 118
2.248 -2.4375 -0.0379 14
2.0039 -2.1875 -0.5156000000000001 90
2.2539 -2.4609 0.0381 92
2.041 -2.2285 -0.45409999999999995 136
2.2637 -2.4727 0.1152 42
2.0332 -2.2207 -0.3818 90
2.2754 -2.4844 0.1932 199
2.1113 -2.3047 -0.3237 7
2.3262 -2.5391 0.2776 65
2.2305 -2.4336 -0.2659 130
2.2344 -2.4395 -0.1898 176
2.2578 -2.4648 -0.1149 15
2.248 -2.4531 -0.038 129
2.0098 -2.209 -0.519 148
2.252 -2.4746 0.0382 182
2.0293 -2.2324 -0.4536 113
2.2637 -2.4883 0.1157 125
2.0391 -2.2422 -0.3843 220
2.2773 -2.5039 0.1942 248
2.1035 -2.3125 -0.324 71
2.3223 -2.5527 0.2781 59
2.2344 -2.457 -0.2676 46
2.2324 -2.4531 -0.19030000000000002 42
2.2461 -2.4688 -0.11470000000000001 42
2.2422 -2.4648 -0.0381 151
2.0156 -2.2305 -0.5225 15
2.252 -2.4922 0.0384 218
2.0312 -2.248 -0.45530000000000004 183
2.248 -2.4883 0.1153 223
2.0449 -2.2617 -0.38670000000000004 30
2.2715 -2.5137 0.1945 151
2.1055 -2.3301 -0.32539999999999997 4
2.3086 -2.5547 0.2776 222
2.2207 -2.459 -0.2668 32
2.2363 -2.4746 -0.19140000000000001 114
2.2461 -2.4863 -0.1152 171
2.248 -2.4883 -0.0383 132
2.0137 -2.2422 -0.5239 160
2.2461 -2.502 0.0384 33
2.0312 -2.2637 -0.4573 102
2.2422 -2.498 0.1155 124
2.0293 -2.2617 -0.38549999999999995 236
2.2734 -2.5332 0.1954 114
2.0938 -2.332 -0.325 69
2.3105 -2.5742000000000003 0.2788 50
2.2148 -2.4688 -0.2673 111
2.2305 -2.4863 -0.1917 45
2.2461 -2.502 -0.11560000000000001 152
2.2363 -2.4922 -0.0382 87
2.0039 -2.25 -0.5239 133
2.2422 -2.5176 0.0385 172
2.0312 -2.2793 -0.45899999999999996 111
2.2441 -2.5195 0.11599999999999999 68
2.0293 -2.2773 -0.387 51
2.2598 -2.5371 0.1949 179
2.0977 -2.3535 -0.3267 28
2.3047 -2.5879000000000003 0.27949999999999997 41
2.2168 -2.4883 -0.2686 109
2.2188 -2.4922 -0.19140000000000001 209
2.2383 -2.5137 -0.1157 64
2.2285 -2.5039 -0.0383 200
2.002 -2.2637 -0.5254 246
2.2383 -2.5293 0.038599999999999995 213
2.0273 -2.293 -0.46020000000000005 178
2.2422 -2.5352 0.1164 155
2.0352 -2.3008 -0.38939999999999997 119
2.25 -2.5449 0.1949 245
2.0859 -2.3594 -0.3264 244
2.2988 -2.5995999999999997 0.2798 89
2.209 -2.4961 -0.2686 189
2.2109 -2.5 -0.19140000000000001 98
2.2422 -2.5371 -0.1165 25
2.2285 -2.5195 -0.0384 235
2.002 -2.2793 -0.5273 205
2.2285 -2.5371 0.038599999999999995 214
2.0215 -2.3027 -0.4607 113
2.2402 -2.5508 0.1168 195
2.0371 -2.3184 -0.39159999999999995 141
2.252 -2.5645 0.19579999999999997 112
2.0664 -2.3535 -0.3247 97
2.291 -2.6074 0.2798 110
2.209 -2.5156 -0.2698 222
2.209 -2.5156 -0.19210000000000002 167
2.2324 -2.541 -0.11630000000000001 197
2.2285 -2.5371 -0.038599999999999995 26
2.002 -2.2969 -0.5297999999999999 81
2.2324 -2.5586 0.0388 151
2.0176 -2.3125 -0.46140000000000003 155
2.2344 -2.5625 0.11689999999999999 189
2.0332 -2.332 -0.3926 215
2.248 -2.5781 0.1963 64
2.0742 -2.377 -0.32689999999999997 247
2.2773 -2.6132999999999997 0.27949999999999997 111
2.1992 -2.5215 -0.2695 113
2.2129 -2.5391 -0.1932 120
2.2207 -2.5449 -0.1161 26
2.2246 -2.5527 -0.0387 180
2.0078 -2.3184 -0.5332 44
2.2305 -2.5742000000000003 0.038900000000000004 168
2.0195 -2.332 -0.4639 137
2.2227 -2.5664 0.1168 63
2.0254 -2.3398 -0.3926 140
2.252 -2.5995999999999997 0.1975 45
2.0781 -2.3984 -0.3289 19
2.2715 -2.623 0.2798 87
2.1973 -2.5371 -0.2705 253
2.2129 -2.5547 -0.19399999999999998 238
2.2227 -2.5645 -0.1167 31
2.2168 -2.5586 -0.0387 2
2.2324 -2.5938 0.0391 48
2.0273 -2.3555 -0.4675 43
2.2227 -2.5839999999999996 0.11720000000000001 125
2.0234 -2.3516 -0.3936 130
2.2441 -2.6074 0.1975 71
2.0781 -2.416 -0.33030000000000004 81
2.2715 -2.6406 0.2808 49
2.1895 -2.5449 -0.2705 155
2.2051 -2.5625 -0.19399999999999998 59
2.2188 -2.5781 -0.11699999999999999 121
2.2051 -2.5625 -0.038599999999999995 232
2.6348000000000003 -3.0839999999999996 -0.7075 162
2.2109 -2.5898000000000003 0.038900000000000004 200
2.0137 -2.3574 -0.46630000000000005 221
2.2246 -2.6035000000000004 0.1177 131
2.0234 -2.3672 -0.395 194
2.2324 -2.6132999999999997 0.1973 60
2.0664 -2.4199 -0.3298 33
2.2637 -2.6504000000000003 0.281 187
2.1934 -2.5683999999999996 -0.2722 233
2.1934 -2.5664 -0.1937 87
2.2246 -2.6035000000000004 -0.1177 250
2.207 -2.5839999999999996 -0.0388 218
2.6367000000000003 -3.1074 -0.7109000000000001 119
2.2109 -2.6074 0.0391 110
2.0098 -2.3711 -0.4675 214
2.2246 -2.623 0.1183 242
2.0215 -2.3848 -0.3967 236
2.2285 -2.627 0.1978 201
2.0566 -2.4238 -0.3296 111
2.2578 -2.6620999999999997 0.2815 13
2.1875 -2.5801 -0.2727 116
2.1973 -2.5898000000000003 -0.1949 228
2.209 -2.6035000000000004 -0.1174 48
2.207 -2.6016000000000004 -0.039 95
2.6151999999999997 -3.1055 -0.7084999999999999 85
2.209 -2.623 0.0392 96
2.0098 -2.3867 -0.4692 178
2.2148 -2.6308999999999996 0.1183 223
2.0293 -2.4102 -0.3997 169
2.2305 -2.6504000000000003 0.1989 244
2.0605 -2.4473 -0.33149999999999996 23
2.2695 -2.6952999999999996 0.2842 74
2.1875 -2.5957 -0.2737 251
2.1973 -2.6094 -0.19579999999999997 65
2.4355 -2.8926 0.48100000000000004 254
2.2051 -2.6172000000000004 -0.1177 212
2.2148 -2.6308999999999996 -0.0393 179
2.6289 -3.1445 -0.7153 50
2.2285 -2.6641000000000004 0.0397 33
2.0059 -2.4004 -0.4705 2
2.2246 -2.6601999999999997 0.1193 148
2.0137 -2.4082 -0.39840000000000003 5
2.2461 -2.6875 0.201 5
2.0645 -2.4688 -0.3337 73
2.2598 -2.7031 0.2839 220
2.1973 -2.627 -0.2761 25
2.2207 -2.6562 -0.19870000000000002 141
2.2207 -2.6562 -0.1191 6
2.2148 -2.6504000000000003 -0.0395 50
2.5976999999999997 -3.1289 -0.71 244
2.2246 -2.6797000000000004 0.0398 185
2.0195 -2.4316 -0.4756 43
2.2148 -2.668 0.1193 141
2.0098 -2.4199 -0.3992 19
2.2305 -2.6875 0.2004 209
2.0645 -2.4863 -0.33520000000000005 138
2.248 -2.7089999999999996 0.2839 159
2.1973 -2.6464999999999996 -0.2771 224
2.3047 -2.7754000000000003 0.37450000000000006 110
2.1973 -2.6464999999999996 -0.1975 250
2.2109 -2.6620999999999997 -0.11900000000000001 72
2.1992 -2.6504000000000003 -0.0394 49
2.5898000000000003 -3.1406 -0.7104 139
2.2129 -2.6855 0.0398 230
2.0156 -2.4434 -0.47659999999999997 175
2.2109 -2.6816000000000004 0.11960000000000001 100
2.0117 -2.4414 -0.40159999999999996 197
2.2207 -2.6933999999999996 0.2003 188
2.0566 -2.4941 -0.33520000000000005 199
2.2559 -2.7363 0.2859 208
2.1875 -2.6523000000000003 -0.2771 50
2.293 -2.7812 0.3743 43
2.1836 -2.6483999999999996 -0.19699999999999998 50
2.209 -2.6797000000000004 -0.1195 243
2.1914 -2.6582 -0.0394 47
2.5839999999999996 -3.1562 -0.7119 33
2.2031 -2.6933999999999996 0.0398 49
2.0137 -2.4609 -0.4783 56
2.209 -2.6992000000000003 0.12 215
2.0234 -2.4727 -0.40549999999999997 136
2.2109 -2.7031 0.2004 246
2.0469 -2.5 -0.335 19
2.2363 -2.7324 0.2849 97
2.1934 -2.6797000000000004 -0.2791 107
2.2832 -2.7910000000000004 0.37450000000000006 215
2.1816 -2.6660000000000004 -0.1978 168
2.1973 -2.6855 -0.11939999999999999 216
2.2031 -2.6914 -0.0398 163
2.5781 -3.1719 -0.7134 104
2.1992 -2.7051 0.039900000000000005 92
2.0039 -2.4648 -0.478 205
2.1934 -2.6992000000000003 0.11960000000000001 250
2.0176 -2.4824 -0.406 142
2.207 -2.7168 0.2009 185
2.0469 -2.5176 -0.33640000000000003 37
2.2246 -2.7363 0.2844 213
2.1836 -2.6875 -0.2791 171
2.2695 -2.793 0.3735 114
2.1895 -2.6933999999999996 -0.19920000000000002 90
2.1895 -2.6952999999999996 -0.11939999999999999 99
2.1953 -2.7012 -0.0398 80
2.5645 -3.1776999999999997 -0.7123999999999999 240
2.0156 -2.498 -0.4832 180
2.1953 -2.7207 0.12029999999999999 208
2.0176 -2.5 -0.4077 114
2.207 -2.7363 0.20190000000000002 125
2.0488 -2.541 -0.33840000000000003 233
2.2227 -2.7558999999999996 0.2854 21
2.2441 -2.7812 0.3711 172
2.1797 -2.7031 -0.1993 152
2.1758 -2.6973000000000003 -0.039599999999999996 218
2.5527 -3.1855 -0.7123999999999999 96
2.1914 -2.7363 0.0401 61
2.0469 -2.5527 -0.4924 192
2.1914 -2.7344 0.12050000000000001 156
2.0059 -2.5039 -0.4075 1
2.2012 -2.748 0.2021 0
2.0469 -2.5547 -0.3396 137
2.2227 -2.7754000000000003 0.2869 148
2.166 -2.7031 -0.2793 82
2.2441 -2.8026999999999997 0.3728 96
2.1738 -2.7129000000000003 -0.1996 225
2.2617 -2.8242000000000003 0.46 102
2.1855 -2.7285000000000004 -0.12029999999999999 54
2.1719 -2.7108999999999996 -0.0397 14
2.5312 -3.1836 -0.71 173
2.1797 -2.7401999999999997 0.04 122
2.0586 -2.5879000000000003 -0.4978 208
2.1895 -2.7539 0.121 135
2.0098 -2.5254 -0.4097 38
2.1953 -2.7617000000000003 0.2026 161
2.0391 -2.5625 -0.3396 100
2.2129 -2.7832 0.2869 188
2.1621 -2.7188 -0.28 18
2.2266 -2.7988 0.3713 171
2.1641 -2.7207 -0.1996 50
2.2402 -2.8164 0.4573 105
2.1855 -2.748 -0.1208 252
2.3086 -2.9023000000000003 0.5590999999999999 144
2.168 -2.7245999999999997 -0.0398 130
2.5234 -3.1952999999999996 -0.7104 101
2.1719 -2.752 0.0401 223
2.0723 -2.623 -0.5034000000000001 77
2.1914 -2.7754000000000003 0.1217 74
2.0195 -2.5586 -0.4138 156
2.1914 -2.7754000000000003 0.203 20
2.0312 -2.5723000000000003 -0.3398 213
2.207 -2.793 0.2871 146
2.1641 -2.7382999999999997 -0.2815 149
2.2188 -2.8105 0.3716 212
2.1641 -2.7401999999999997 -0.2004 148
2.2227 -2.8145 0.4558 197
2.1797 -2.7598000000000003 -0.121 144
2.2715 -2.877 0.5522 211
2.166 -2.7441000000000004 -0.04 134
2.5078 -3.1973000000000003 -0.7090000000000001 92
2.1719 -2.7676 0.0403 161
2.0703 -2.6387 -0.5049 92
2.1836 -2.7812 0.1217 213
2.0176 -2.5702999999999996 -0.41479999999999995 246
2.1914 -2.793 0.2039 115
2.0352 -2.5938 -0.342 218
2.1934 -2.7949 0.2864 123
2.1504 -2.7422000000000004 -0.281 75
2.2148 -2.8223000000000003 0.3726 190
2.1699 -2.7656 -0.20190000000000002 54
2.2266 -2.8379000000000003 0.4587 54
2.1719 -2.7676 -0.121 188
2.2363 -2.8516000000000004 0.5459 63
2.166 -2.7617000000000003 -0.0401 39
2.2637 -2.8827999999999996 0.6392 108
2.4883 -3.1933999999999996 -0.7061 221
2.1797 -2.7969 0.0406 247
2.0605 -2.6426 -0.5044 178
2.1758 -2.793 0.12179999999999999 43
2.0137 -2.5839999999999996 -0.4158 130
2.1934 -2.8145 0.205 82
2.0605 -2.6445 -0.3477 249
2.1504 -2.7598000000000003 -0.282 182
2.2031 -2.8262 0.3721 243
2.166 -2.7793 -0.2024 247
2.2129 -2.8398000000000003 0.4575 209
2.2461 -2.8827999999999996 0.6367 189
2.4688 -3.1914 -0.7041 76
2.1758 -2.8145 0.0407 27
2.0605 -2.6641000000000004 -0.5068 27
2.1699 -2.8066000000000004 0.12210000000000001 113
2.002 -2.5898000000000003 -0.4155 116
2.1836 -2.8223000000000003 0.205 174
2.0703 -2.6757999999999997 -0.35109999999999997 201
2.1895 -2.832 0.2888 124
2.2168 -2.8651999999999997 0.376 33
2.1504 -2.7812 -0.20190000000000002 191
2.209 -2.8555 0.45899999999999996 143
2.1758 -2.8125 -0.12240000000000001 107
2.2246 -2.877 0.5478999999999999 138
2.1445 -2.7714999999999996 -0.0401 92
2.2324 -2.8867000000000003 0.6362 149
2.457 -3.1992000000000003 -0.7041 143
2.1602 -2.8125 0.0406 141
2.0586 -2.6797000000000004 -0.5088 179
2.1875 -2.8495999999999997 0.12369999999999999 249
2.0195 -2.6289 -0.42090000000000005 4
2.1855 -2.8457 0.2061 248
2.0449 -2.6620999999999997 -0.34840000000000004 204
2.1973 -2.8613 0.29100000000000004 11
2.1465 -2.7949 -0.2842 149
2.207 -2.875 0.3762 12
2.1387 -2.7851999999999997 -0.20170000000000002 165
2.1992 -2.8632999999999997 0.45899999999999996 49
2.1602 -2.8125 -0.122 235
2.2227 -2.8945 0.5498 98
2.1562 -2.8066000000000004 -0.0405 119
2.2168 -2.8867000000000003 0.6343 143
2.4297 -3.1875 -0.6992 207
2.1445 -2.8125 0.0405 195
2.041 -2.6776999999999997 -0.5068 93
2.1523 -2.8223000000000003 0.1222 67
2.0137 -2.6426 -0.4219 174
2.1562 -2.8301 0.2043 218
2.0352 -2.668 -0.3481 98
2.1699 -2.8476999999999997 0.2888 154
2.1348 -2.7988 -0.2839 75
2.1914 -2.875 0.37549999999999994 184
2.1289 -2.793 -0.20170000000000002 232
2.1875 -2.8691000000000004 0.4587 56
2.1445 -2.8125 -0.1217 49
2.2168 -2.9082 0.5513 121
2.1426 -2.8105 -0.0404 133
2.2266 -2.9219 0.6401 228
2.4395 -3.2245999999999997 -0.7056 237
2.1328 -2.8183999999999996 0.0404 224
2.0508 -2.7108999999999996 -0.5117 205
2.1426 -2.8301 0.1222 141
2.0059 -2.6483999999999996 -0.4219 22
2.1504 -2.8418 0.2047 39
2.043 -2.6992000000000003 -0.3513 29
2.1465 -2.8379000000000003 0.2869 88
2.1191 -2.7988 -0.28300000000000003 172
2.1855 -2.8867000000000003 0.376 238
2.1211 -2.8026999999999997 -0.20190000000000002 14
2.1309 -2.8164 -0.1215 170
2.209 -2.918 0.5518 102
2.1348 -2.8202999999999996 -0.0405 155
2.2148 -2.9257999999999997 0.6396000000000001 55
2.4531 -3.2637 -0.7123999999999999 131
2.125 -2.8281 0.0405 75
2.0527 -2.7324 -0.5146000000000001 11
2.123 -2.8262 0.1216 28
2.0 -2.6620999999999997 -0.4229 144
2.1465 -2.8555 0.2051 166
2.0449 -2.7207 -0.353 133
2.1191 -2.8183999999999996 0.2844 140
2.1035 -2.8007999999999997 -0.2825 250
2.1465 -2.8555 0.37079999999999996 255
2.1152 -2.8145 -0.2021 178
2.1777 -2.8983999999999996 0.46090000000000003 39
2.1172 -2.8164 -0.1213 244
2.1211 -2.8242000000000003 -0.0404 168
2.207 -2.9375 0.6401 248
2.1172 -2.8398000000000003 0.0405 33
2.0859 -2.7969 -0.5254 229
2.1152 -2.8358999999999996 0.12179999999999999 89
1.9950999999999999 -2.6738 -0.4236 52
2.127 -2.8495999999999997 0.20420000000000002 111
2.0586 -2.7598000000000003 -0.35719999999999996 25
2.1094 -2.8281 0.2844 175
2.0996 -2.8145 -0.28300000000000003 184
2.1211 -2.8438 0.36840000000000006 182
2.0996 -2.8145 -0.20170000000000002 235
2.1426 -2.8711 0.45530000000000004 245
2.1133 -2.8339999999999996 -0.1217 214
4.1016 -5.5 1.04 189
2.0957 -2.8105 -0.0401 61
2.1055 -2.8438 0.0405 2
2.0703 -2.7949 -0.5239 160
2.1074 -2.8457 0.1219 110
2.0 -2.7012 -0.4268 158
2.1133 -2.8555 0.204 123
2.0664 -2.7891000000000004 -0.3601 152
2.0898 -2.8223000000000003 0.2832 165
2.0898 -2.8202999999999996 -0.28300000000000003 214
2.1211 -2.8651999999999997 0.3701 200
2.0859 -2.8164 -0.20120000000000002 142
2.1289 -2.875 0.4548 141
2.1074 -2.8457 -0.12179999999999999 159
2.1367 -2.8848000000000003 0.541 199
2.0879 -2.8202999999999996 -0.0401 42
3.0976999999999997 -4.1836 0.9106000000000001 235
2.0879 -2.8398000000000003 0.0403 102
2.0527 -2.793 -0.522 36
2.1055 -2.8632999999999997 0.1223 123
1.9971 -2.7168 -0.4282 80
2.1016 -2.8594 0.20370000000000002 215
2.1055 -2.8651999999999997 -0.3691 77
2.0449 -2.7812 0.2783 230
2.082 -2.832 -0.2834 32
2.127 -2.8926 0.3728 195
2.0762 -2.8242000000000003 -0.20120000000000002 255
2.1133 -2.875 0.4536 132
2.0898 -2.8418 -0.12140000000000001 213
2.084 -2.8358999999999996 -0.0403 180
3.0879000000000003 -4.1992 0.9120999999999999 159
2.0801 -2.8516000000000004 0.0404 144
2.0762 -2.8438 -0.5303 225
2.0879 -2.8613 0.1219 56
2.0039 -2.7461 -0.43189999999999995 5
2.0938 -2.8691000000000004 0.204 19
2.127 -2.9141000000000004 -0.37450000000000006 122
2.0449 -2.8007999999999997 0.27949999999999997 45
2.0645 -2.8301 -0.2825 244
2.1191 -2.9043 0.373 158
2.0703 -2.8379000000000003 -0.20170000000000002 25
2.1074 -2.8887 0.4546 188
2.0703 -2.8358999999999996 -0.1208 194
2.1172 -2.9004000000000003 0.541 132
2.0781 -2.8457 -0.0403 119
2.1055 -2.8848000000000003 0.6221 226
0.5488000000000001 -0.7578 -0.1576 128
2.0762 -2.8651999999999997 0.0405 122
2.0488 -2.8301 -0.5264 113
2.0723 -2.8613 0.1216 211
1.999 -2.7598000000000003 -0.4329 250
2.0918 -2.8867000000000003 0.2047 4
2.1875 -3.0195 -0.3872 237
2.0352 -2.8086 0.27949999999999997 164
2.0508 -2.8301 -0.2817 31
2.1113 -2.9160000000000004 0.3738 172
2.0684 -2.8535000000000004 -0.2024 221
2.0957 -2.8926 0.45409999999999995 105
2.0684 -2.8555 -0.1213 83
2.0605 -2.8457 -0.04019999999999999 77
0.5693 -0.7915000000000001 -0.1646 124
2.0664 -2.873 0.0405 252
2.0059 -2.7891000000000004 -0.5176 150
2.0645 -2.8711 0.1217 18
2.0 -2.7812 -0.4351 161
2.0781 -2.8906 0.2045 31
2.1035 -2.9238 -0.374 15
2.0254 -2.8164 0.27949999999999997 156
2.043 -2.8398000000000003 -0.282 190
2.0488 -2.8476999999999997 -0.2014 2
2.0645 -2.8711 -0.1217 166
2.0449 -2.8438 -0.0401 205
0.5435 -0.7612000000000001 -0.1576 192
2.0508 -2.873 0.0404 182
2.0059 -2.8105 -0.52 92
2.0586 -2.8848000000000003 0.1219 70
2.002 -2.8047000000000004 -0.43770000000000003 44
2.0605 -2.8887 0.20370000000000002 82
2.041 -2.8613 -0.36469999999999997 250
2.0156 -2.8223000000000003 0.27949999999999997 203
2.0371 -2.8535000000000004 -0.2827 35
2.0332 -2.8476999999999997 -0.20079999999999998 48
2.0527 -2.875 -0.1215 3
2.043 -2.8613 -0.04019999999999999 201
0.5590999999999999 -0.7890999999999999 -0.1631 233
2.0332 -2.8711 0.0403 54
1.9980000000000002 -2.8202999999999996 -0.5205 143
2.0488 -2.8906 0.1219 6
2.0059 -2.8301 -0.4407 60
2.0508 -2.8945 0.20370000000000002 216
2.0293 -2.8632999999999997 -0.3643 179
2.0059 -2.8301 0.27949999999999997 108
2.0312 -2.8672000000000004 -0.2834 71
2.0254 -2.8574 -0.201 35
2.0352 -2.8711 -0.1211 142
2.0391 -2.877 -0.0403 205
0.5562 -0.7909999999999999 -0.1631 116
2.0312 -2.8867000000000003 0.0404 23
1.9941 -2.8339999999999996 -0.522 159
2.0332 -2.8926 0.1217 239
2.0117 -2.8613 -0.4443 22
2.0488 -2.9120999999999997 0.2045 252
2.0156 -2.8672000000000004 -0.3638 55
1.9863 -2.8242000000000003 0.2783 124
2.0156 -2.8651999999999997 -0.2825 25
2.0234 -2.875 -0.20190000000000002 140
2.0176 -2.8691000000000004 -0.1207 87
2.0234 -2.877 -0.0403 111
0.5444 -0.7803 -0.1604 26
2.0234 -2.8983999999999996 0.0404 128
1.9961000000000002 -2.8594 -0.5254 182
2.0195 -2.8926 0.12140000000000001 253
2.0039 -2.8691000000000004 -0.4446 127
2.041 -2.9219 0.2047 64
2.0156 -2.8867000000000003 -0.3655 158
1.9980000000000002 -2.8613 -0.2815 41
2.0098 -2.8789 -0.20170000000000002 152
2.0156 -2.8887 -0.12119999999999999 50
2.0078 -2.877 -0.0401 171
0.5239 -0.7559 -0.1548 62
2.0156 -2.9082 0.0405 94
1.9980000000000002 -2.8827999999999996 -0.5283 225
2.0117 -2.9023000000000003 0.1215 224
2.0078 -2.8964999999999996 -0.44799999999999995 88
2.0234 -2.9219 0.2041 124
2.0039 -2.8906 -0.365 159
1.9922 -2.875 -0.282 5
1.9931999999999999 -2.877 -0.2009 30
2.0098 -2.9004000000000003 -0.1215 234
2.0039 -2.8906 -0.0403 240
0.5166 -0.7515000000000001 -0.1534 199
1.9971 -2.9062 0.0403 209
2.002 -2.9120999999999997 -0.5327000000000001 156
2.0059 -2.9160000000000004 0.12179999999999999 82
2.0117 -2.9257999999999997 -0.4512 142
2.0098 -2.9219 0.2036 106
1.9922 -2.8983999999999996 -0.365 142
1.9844 -2.8867000000000003 -0.2825 66
1.9813999999999998 -2.8827999999999996 -0.20079999999999998 18
2.002 -2.9120999999999997 -0.1216 193
1.9971 -2.9062 -0.0403 230
0.5361 -0.7856000000000001 -0.1604 254
1.9805000000000001 -2.9023000000000003 0.04019999999999999 90
1.999 -2.9297000000000004 -0.5342 119
1.9950999999999999 -2.9238 0.12179999999999999 165
2.0527 -3.0077999999999996 -0.4629 211
2.002 -2.9316000000000004 0.2039 158
1.9794999999999998 -2.9023000000000003 -0.36450000000000005 165
2.7422000000000004 -4.0156 0.3936 54
1.9727000000000001 -2.8906 -0.2822 171
1.9736000000000002 -2.8926 -0.201 186
1.9834 -2.9062 -0.121 186
1.9893 -2.9160000000000004 -0.0404 0
0.5093 -0.752 -0.1527 35
1.9794999999999998 -2.9219 0.0404 22
1.9971 -2.9473000000000003 -0.5366 218
1.9853999999999998 -2.9316000000000004 0.12179999999999999 115
2.8125 -4.1523 -0.6396000000000001 57
1.9971 -2.9492000000000003 0.2046 75
1.9678 -2.9043 -0.3643 194
1.9609 -2.8945 -0.282 73
1.9668 -2.9043 -0.2014 93
1.9687999999999999 -2.9062 -0.1208 70
1.9824000000000002 -2.9276999999999997 -0.0404 25
0.522 -0.7764 -0.1576 230
1.9668 -2.9257999999999997 0.0403 218
1.999 -2.9726999999999997 -0.5396 92
1.9707 -2.9316000000000004 0.1215 203
2.752 -4.0938 -0.6289 112
1.9893 -2.9589999999999996 0.2048 121
1.9628999999999999 -2.9199 -0.3652 200
1.9502000000000002 -2.9023000000000003 -0.282 245
1.9580000000000002 -2.9120999999999997 -0.20149999999999998 46
1.7793 -2.6464999999999996 0.4048 98
1.9668 -2.9257999999999997 -0.1213 166
1.8203 -2.707 0.491 95
1.9647999999999999 -2.9219 -0.0403 200
1.7812000000000001 -2.6504000000000003 0.5557 95
0.5195000000000001 -0.7783 -0.1576 254
1.96 -2.9355 0.0404 156
2.0098 -3.0117000000000003 -0.5454 122
1.9658000000000002 -2.9433999999999996 0.12179999999999999 118
2.7245999999999997 -4.0781 -0.6255 197
1.9756 -2.9589999999999996 0.2043 42
1.9580000000000002 -2.9336 -0.366 128
1.9413999999999998 -2.9082 -0.282 170
1.9413999999999998 -2.9082 -0.2007 249
1.7538999999999998 -2.627 0.4006 187
1.96 -2.9355 -0.1215 116
1.7480000000000002 -2.6172000000000004 0.47340000000000004 127
1.9550999999999998 -2.9297000000000004 -0.0403 196
1.749 -2.6191000000000004 0.5478999999999999 155
0.4951 -0.7471 -0.1506 106
1.9502000000000002 -2.9414 0.0404 162
2.0195 -3.0449 -0.5508 56
1.9561000000000002 -2.9512 0.12179999999999999 216
1.9794999999999998 -2.9863 -0.45530000000000004 120
1.9569999999999999 -2.9531 0.2034 94
1.9434 -2.9316000000000004 -0.365 194
1.9355000000000002 -2.9199 -0.2825 22
1.9325999999999999 -2.9160000000000004 -0.20079999999999998 143
1.7383000000000002 -2.623 0.3992 62
1.9472999999999998 -2.9375 -0.1213 24
1.7441 -2.6308999999999996 0.47490000000000004 37
1.9463 -2.9355 -0.0403 11
1.7393 -2.623 0.5474 205
0.5054 -0.7686 -0.1548 25
1.9325999999999999 -2.9395 0.0403 86
2.7031 -4.1133 -0.7441 146
1.9491999999999998 -2.9648000000000003 0.12210000000000001 157
1.9219 -2.9219 -0.4443 149
1.9502000000000002 -2.9668 0.2039 104
1.9209 -2.9219 -0.363 25
1.9199000000000002 -2.9199 -0.2817 191
1.9209 -2.9219 -0.2007 2
1.7313999999999998 -2.6327999999999996 0.39990000000000003 97
1.9394999999999998 -2.9492000000000003 -0.1215 167
1.7353999999999998 -2.6387 0.47490000000000004 82
1.9394999999999998 -2.9492000000000003 -0.0404 43
1.7227000000000001 -2.6191000000000004 0.5454 170
0.49829999999999997 -0.7637 -0.1534 15
1.9375 -2.9688 0.0406 203
2.6933999999999996 -4.1289 -0.7451000000000001 196
1.9325999999999999 -2.9608999999999996 0.1217 103
1.9443000000000001 -2.9805 0.2043 74
1.9180000000000001 -2.9375 -0.3643 147
1.9111000000000002 -2.9276999999999997 -0.282 132
1.9141 -2.9336 -0.201 131
1.7246000000000001 -2.6426 0.4004 81
1.9277000000000002 -2.9551 -0.12140000000000001 148
1.7256 -2.6445 0.47490000000000004 131
1.7256 -2.6445 0.5493 217
0.4636 -0.7158 -0.1429 42
2.7031 -4.1719 -0.752 54
1.9169999999999998 -2.9589999999999996 0.1213 121
1.9043 -2.9395 -0.4451 234
1.9346 -2.9863 0.2043 51
1.9121000000000001 -2.9512 -0.365 188
1.8965 -2.9276999999999997 -0.2812 212
1.7686000000000002 -2.7305 0.33740000000000003 51
1.9033000000000002 -2.9395 -0.201 216
1.7168 -2.6504000000000003 0.4006 63
1.9111000000000002 -2.9512 -0.121 202
1.7305000000000001 -2.6719 0.479 204
1.9111000000000002 -2.9512 -0.04019999999999999 113
1.7334 -2.6757999999999997 0.5547 197
0.5059 -0.7870999999999999 -0.1576 202
1.916 -2.9805 0.0405 182
2.6816000000000004 -4.1719 -0.75 145
1.9141 -2.9785000000000004 0.12179999999999999 174
1.8887 -2.9395 -0.44380000000000003 8
1.9258000000000002 -2.9961 0.2046 190
1.9053 -2.9648000000000003 -0.366 248
1.8866999999999998 -2.9355 -0.2815 57
1.7597999999999998 -2.7382999999999997 0.33740000000000003 111
1.8936000000000002 -2.9452999999999996 -0.201 16
1.7207 -2.6757999999999997 0.40380000000000005 166
1.9091999999999998 -2.9707 -0.1215 189
1.7207 -2.6776999999999997 0.479 192
1.8984 -2.9551 -0.04019999999999999 245
1.7246000000000001 -2.6816000000000004 0.5547 138
1.8975 -2.9766000000000004 0.0404 170
2.7129000000000003 -4.2578 -0.7631999999999999 46
1.9053 -2.9882999999999997 0.1219 244
1.8799000000000001 -2.9492000000000003 -0.4443 21
1.9062000000000001 -2.9901999999999997 0.2036 98
1.8887 -2.9608999999999996 -0.36450000000000005 106
1.8809 -2.9492000000000003 -0.282 105
2.6035000000000004 -4.082 0.5044 227
1.8769999999999998 -2.9452999999999996 -0.2004 107
1.7236000000000002 -2.7031 0.4067 183
1.9033000000000002 -2.9844 -0.12179999999999999 211
1.8847999999999998 -2.957 -0.0401 106
2.6191000000000004 -4.1094 0.8521 70
1.8828 -2.9766000000000004 0.0403 14
2.6601999999999997 -4.207 -0.7524 152
1.8994 -3.002 0.1223 234
1.8721 -2.9589999999999996 -0.4448 212
1.8984 -3.0 0.2039 146
1.8700999999999999 -2.957 -0.363 193
1.999 -3.1601999999999997 0.3018 110
1.8700999999999999 -2.957 -0.282 64
1.8691 -2.9551 -0.2007 150
2.5176 -3.9805 0.6001 24
1.8838 -2.9785000000000004 -0.1213 101
1.8799000000000001 -2.9707 -0.04019999999999999 85
2.6016000000000004 -4.1094 0.8506 1
1.876 -2.9882999999999997 0.0403 69
2.6620999999999997 -4.2383 -0.7563 222
1.8828 -2.998 0.12179999999999999 166
1.8613 -2.9629000000000003 -0.4446 219
1.8925999999999998 -3.0137 0.2043 97
1.8643 -2.9688 -0.3638 113
1.9502000000000002 -3.1055 0.2959 130
1.8594 -2.9608999999999996 -0.282 168
2.5215 -4.0156 0.4939 58
1.8594 -2.9608999999999996 -0.2007 169
2.5117 -3.998 0.6015999999999999 241
1.875 -2.9863 -0.1213 49
2.5527 -4.0664 0.7256 0
1.8700999999999999 -2.9766000000000004 -0.04019999999999999 57
2.5858999999999996 -4.1172 0.8495999999999999 206
1.8691 -2.998 0.0404 247
2.6504000000000003 -4.25 -0.7573000000000001 122
1.8662 -2.9941000000000004 0.12140000000000001 154
1.8486000000000002 -2.9668 -0.44409999999999994 184
1.8779 -3.0117000000000003 0.2039 142
1.8584 -2.9805 -0.36450000000000005 24
1.9404 -3.1132999999999997 0.2959 35
1.8496000000000001 -2.9668 -0.282 135
1.8603999999999998 -2.9844 -0.20190000000000002 127
2.4727 -3.9668 0.5957 31
1.8691 -2.998 -0.1216 246
2.5 -4.0117 0.7139 183
1.8544999999999998 -2.9745999999999997 -0.0401 115
2.5683999999999996 -4.1172 0.8481000000000001 76
0.4919 -0.7959 -0.1576 188
1.8652000000000002 -3.0156 0.0406 165
2.6151999999999997 -4.2305 -0.752 225
1.8594 -3.0077999999999996 0.1217 145
1.835 -2.9668 -0.4434 172
1.8691 -3.0233999999999996 0.2041 129
1.8477000000000001 -2.9882999999999997 -0.36450000000000005 29
1.9453 -3.1464999999999996 0.2986 109
1.8369 -2.9707 -0.2815 198
2.4785 -4.0078 0.491 54
1.8388999999999998 -2.9726999999999997 -0.2007 228
2.4434 -3.9512 0.5922999999999999 159
1.8672 -3.0195 -0.1222 27
2.5078 -4.0547 0.7206999999999999 172
1.8525 -2.9961 -0.0403 181
2.5527 -4.1289 0.8481000000000001 223
1.8437999999999999 -3.0058999999999996 0.0403 182
2.6074 -4.25 -0.7534000000000001 56
1.8555000000000001 -3.0233999999999996 0.12210000000000001 147
1.8291 -2.9805 -0.4443 109
1.8563999999999998 -3.0254000000000003 0.2039 123
1.835 -2.9901999999999997 -0.3643 31
1.8975 -3.0918 0.2927 62
1.8359 -2.9922000000000004 -0.28300000000000003 149
2.4648 -4.0195 0.491 78
1.8281 -2.9805 -0.2007 122
2.4297 -3.9589999999999996 0.5922999999999999 105
1.8584 -3.0293 -0.1223 157
2.5352 -4.1328 0.7329000000000001 113
1.8311000000000002 -2.9844 -0.04 221
2.5234 -4.1133 0.8432999999999999 45
0.4866 -0.7988 -0.1576 218
1.834 -3.0117000000000003 0.0403 151
2.6132999999999997 -4.2891 -0.7598 4
1.8428 -3.0273000000000003 0.1219 240
1.8213 -2.9901999999999997 -0.4448 159
1.8506 -3.0391000000000004 0.2043 191
1.8232 -2.9941000000000004 -0.3638 24
1.8828 -3.0918 0.292 6
1.8271000000000002 -3.0 -0.2832 64
2.4141 -3.9648000000000003 0.48340000000000005 220
1.8271000000000002 -3.0 -0.20170000000000002 13
2.4258 -3.9844 0.5947 87
1.8418 -3.0254000000000003 -0.1219 173
2.5312 -4.1562 0.7358 175
1.8271000000000002 -3.002 -0.04019999999999999 85
2.5039 -4.1133 0.8418000000000001 237
1.8241999999999998 -3.0176 0.0403 52
2.6757999999999997 -4.4297 -0.7827 136
1.8330000000000002 -3.0332 0.1219 91
1.8135 -3.0 -0.44530000000000003 23
1.8466999999999998 -3.0547000000000004 0.2051 225
1.8096 -2.9941000000000004 -0.363 218
1.8437999999999999 -3.0507999999999997 0.2874 220
1.8125 -3.0 -0.2825 27
2.4219 -4.0078 0.4875 214
1.8144999999999998 -3.002 -0.2014 211
2.4688 -4.0859 0.6084 173
1.8281 -3.0233999999999996 -0.1216 145
2.5078 -4.1484 0.7329000000000001 8
1.8291 -3.0254000000000003 -0.0404 193
2.4902 -4.1211 0.8418000000000001 102
0.5171 -0.8633 -0.17 226
1.8144999999999998 -3.0273000000000003 0.0404 217
2.7344 -4.5625 -0.8047 42
1.8154 -3.0293 0.1215 56
1.7959 -2.9961 -0.44380000000000003 55
1.8330000000000002 -3.0586 0.2048 20
1.8105000000000002 -3.0214999999999996 -0.3657 137
1.8486000000000002 -3.0839999999999996 0.29 6
1.8008000000000002 -3.0058999999999996 -0.2825 220
1.8047 -3.0117000000000003 -0.20170000000000002 208
2.4668 -4.1172 0.6118 220
1.8203 -3.0391000000000004 -0.1219 136
2.4727 -4.1289 0.7275 121
1.8047 -3.0117000000000003 -0.04019999999999999 83
2.4766 -4.1328 0.8423 181
0.49829999999999997 -0.8379000000000001 -0.1646 81
1.8075999999999999 -3.0410000000000004 0.0405 97
2.7266000000000004 -4.5859 -0.8070999999999999 224
1.8105000000000002 -3.0469 0.1219 14
1.7852000000000001 -3.002 -0.44380000000000003 99
1.8184 -3.0586 0.2043 162
1.8008000000000002 -3.0293 -0.366 73
1.8311000000000002 -3.0801 0.2891 74
1.7919999999999998 -3.0137 -0.2827 67
1.791 -3.0117000000000003 -0.20120000000000002 176
2.4668 -4.1484 0.6157 168
1.8135 -3.0507999999999997 -0.1222 40
2.459 -4.1367 0.7271 4
1.79 -3.0117000000000003 -0.0401 29
2.4512 -4.1211 0.8384 67
0.4753 -0.8057 -0.1576 235
1.7949000000000002 -3.0410000000000004 0.0404 163
2.7188 -4.6094 -0.8096 112
1.8066 -3.0625 0.12240000000000001 243
1.7812000000000001 -3.0195 -0.44530000000000003 147
1.8018 -3.0547000000000004 0.2036 63
1.7891 -3.0312 -0.3655 22
1.8378999999999999 -3.1151999999999997 0.2917 16
1.7852000000000001 -3.0254000000000003 -0.2832 182
2.4766 -4.1953 0.5078 243
1.7803 -3.0176 -0.20120000000000002 68
2.4355 -4.1289 0.6113000000000001 184
1.8075999999999999 -3.0645 -0.12240000000000001 246
2.4492 -4.1484 0.728 70
1.7969 -3.0449 -0.0404 9
2.4277 -4.1133 0.835 99
