# .PCD v0.7 - Point Cloud Data file format
VERSION 0.7
FIELDS x y z intensity
SIZE 4 4 4 4
TYPE F F F F
COUNT 1 1 1 1
WIDTH 1248
HEIGHT 1
VIEWPOINT 0 0 0 1 0 0 0
POINTS 1248
DATA ascii
-13.5547 -2.7558999999999996 1.126 71
-3.1445 -0.6392 -0.2585 130
-13.476600000000001 -2.7382999999999997 1.4404 35
-3.1327999999999996 -0.6367 -0.1833 56
-12.25 -2.4902 1.6025 155
-3.1327999999999996 -0.6367 -0.10980000000000001 209
-12.085899999999999 -2.4551 1.874 130
-11.773399999999999 -2.3926 2.1113 145
-2.9668 -0.5918 -0.5259 74
-3.0058999999999996 -0.5996 -0.4607 132
-3.2441000000000004 -0.647 0.1137 135
-3.1055 -0.6191 -0.4019 211
-13.585899999999999 -2.7089999999999996 0.8031999999999999 55
-3.0898000000000003 -0.6162 -0.3267 68
-13.585899999999999 -2.7089999999999996 1.1279000000000001 113
-3.1151999999999997 -0.6215999999999999 -0.2559 126
-13.460899999999999 -2.6836 1.4375 204
-12.2578 -2.4453 1.6025 196
-12.093800000000002 -2.4121 1.874 254
-3.1699 -0.6323 -0.0369 250
-11.7578 -2.3438 2.1055 118
-2.957 -0.5791 -0.5239 241
-3.0077999999999996 -0.5889 -0.4607 0
-3.248 -0.6362 0.11380000000000001 219
-3.1074 -0.6084 -0.4019 90
-13.5781 -2.6582 0.8022 137
-3.0762 -0.6025 -0.325 148
-13.593800000000002 -2.6620999999999997 1.1279000000000001 83
-3.1308999999999996 -0.6128 -0.2568 239
-13.468800000000002 -2.6387 1.4385 205
-12.25 -2.3984 1.5996000000000001 148
-12.093800000000002 -2.3691 1.8730000000000002 127
-11.75 -2.3008 2.1035 216
-2.9629000000000003 -0.5703 -0.5244 229
-3.2656 -0.6284000000000001 0.038 136
-3.0077999999999996 -0.5786 -0.4604 140
-3.2363 -0.6225999999999999 0.1133 129
-3.082 -0.5928 -0.3982 243
-13.585899999999999 -2.6132999999999997 0.8022 73
-3.0898000000000003 -0.5942000000000001 -0.3262 53
-13.593800000000002 -2.6151999999999997 1.127 199
-3.1132999999999997 -0.5986 -0.2551 87
-13.476600000000001 -2.5918 1.4375 13
-3.2832 -0.6318 -0.19190000000000002 169
-12.2422 -2.3555 1.5986000000000002 51
-12.0 -2.3086 1.8563999999999998 57
-11.7578 -2.2617 2.1035 97
-2.9688 -0.561 -0.5254 159
-2.9941000000000004 -0.5659000000000001 -0.45799999999999996 106
-3.2461 -0.6133 0.11359999999999999 146
-3.0683999999999996 -0.5796 -0.3962 148
-13.593800000000002 -2.5683999999999996 0.8022 55
-3.0957 -0.585 -0.3267 8
-13.5703 -2.5645 1.125 219
-3.0918 -0.584 -0.2532 111
-13.468800000000002 -2.5449 1.4365 64
-3.0898000000000003 -0.584 -0.18030000000000002 68
-12.2422 -2.3125 1.5966999999999998 18
-11.851600000000001 -2.2383 1.8319999999999999 155
-11.7578 -2.2227 2.1035 13
-2.9745999999999997 -0.5503 -0.5259 159
-3.0077999999999996 -0.5562 -0.46 53
-3.2285000000000004 -0.5972 0.11289999999999999 175
-3.0702999999999996 -0.5679 -0.3962 48
-13.593800000000002 -2.5137 0.8018000000000001 254
-3.0742000000000003 -0.5688 -0.324 135
-13.585899999999999 -2.5137 1.125 165
-3.0781 -0.5693 -0.252 126
-13.460899999999999 -2.4902 1.4346 190
-12.2578 -2.2676 1.5986000000000002 222
-11.851600000000001 -2.1914 1.8311000000000002 76
-11.781199999999998 -2.1797 2.1055 159
-2.9608999999999996 -0.5371 -0.5234000000000001 220
-3.0077999999999996 -0.5454 -0.4597 125
-3.2089999999999996 -0.5820000000000001 0.1121 226
-3.0762 -0.5581 -0.3967 79
-13.585899999999999 -2.4629 0.8003 206
-3.0839999999999996 -0.5596 -0.325 201
-13.585899999999999 -2.4629 1.124 133
-3.1035000000000004 -0.563 -0.2539 40
-13.468800000000002 -2.4434 1.4336000000000002 13
-3.1641000000000004 -0.5742 -0.1844 222
-12.2578 -2.2227 1.5966999999999998 181
-3.2382999999999997 -0.5874 -0.11320000000000001 214
-11.851600000000001 -2.1504 1.8311000000000002 119
-11.773399999999999 -2.1348 2.1016 60
-2.9512 -0.5249 -0.521 237
-3.0058999999999996 -0.5342 -0.45899999999999996 37
-3.2266000000000004 -0.5737 0.1127 243
-3.0351999999999997 -0.5396 -0.3911 45
-13.5703 -2.4121 0.7993000000000001 246
-3.082 -0.5478999999999999 -0.3245 123
-13.593800000000002 -2.416 1.124 172
-3.1132999999999997 -0.5532 -0.2546 173
-13.4844 -2.3965 1.4346 193
-3.2226999999999997 -0.5728 -0.1877 169
-12.25 -2.1777 1.5947 216
-11.9844 -2.1309 1.8496000000000001 145
-11.7578 -2.0898 2.0977 152
-2.9688 -0.5171 -0.5239 216
-3.0039 -0.5229 -0.4585 90
-3.2382999999999997 -0.564 0.113 196
-3.0566000000000004 -0.5322 -0.3936 140
-13.585899999999999 -2.3652 0.7998000000000001 216
-3.0683999999999996 -0.5347 -0.32280000000000003 44
-13.5703 -2.3633 1.1220999999999999 233
-3.0839999999999996 -0.5371 -0.252 184
-13.4922 -2.3496 1.4346 188
-3.1367000000000003 -0.5464 -0.1826 167
-12.25 -2.1328 1.5937999999999999 141
-12.125 -2.1113 1.8700999999999999 126
-11.7656 -2.0488 2.0977 138
-2.9688 -0.5068 -0.5234000000000001 35
-3.0 -0.5122 -0.4575 207
-3.2129000000000003 -0.5488000000000001 0.1121 140
-3.0077999999999996 -0.5136999999999999 -0.387 226
-13.5703 -2.3164 0.7983 5
-3.0781 -0.5254 -0.3237 145
-13.5625 -2.3164 1.1201 94
-3.0723000000000003 -0.5249 -0.251 115
-13.5 -2.3047 1.4346 120
-3.123 -0.5332 -0.1816 65
-12.25 -2.0918 1.5928 32
-12.1172 -2.0684 1.8672 32
-11.7656 -2.0098 2.0977 2
-2.9707 -0.4971 -0.5234000000000001 136
-3.0 -0.502 -0.4573 203
-3.2226999999999997 -0.5396 0.11230000000000001 102
-3.0410000000000004 -0.5088 -0.3911 180
-13.5781 -2.2715 0.7983 91
-3.0839999999999996 -0.5161 -0.324 191
-13.5625 -2.2695 1.1191 252
-3.1016000000000004 -0.519 -0.2532 12
-13.5156 -2.2617 1.4355000000000002 88
-3.1719 -0.5307999999999999 -0.1844 53
-12.2656 -2.0527 1.5947 94
-12.101600000000001 -2.0254 1.8652000000000002 238
-11.773399999999999 -1.9697 2.0977 42
-2.9629000000000003 -0.4851 -0.522 182
-3.0077999999999996 -0.4927 -0.4585 176
-3.2188 -0.5273 0.1121 132
-3.0195 -0.49439999999999995 -0.38789999999999997 195
-13.5469 -2.2188 0.7959 147
-3.0858999999999996 -0.5054 -0.324 134
-13.5781 -2.2227 1.1201 29
-3.0526999999999997 -0.5 -0.249 146
-13.5078 -2.2109 1.4336000000000002 186
-3.1151999999999997 -0.5103 -0.18100000000000002 250
-12.2656 -2.0078 1.5928 94
-12.1094 -1.9834 1.8652000000000002 197
-11.7656 -1.9268 2.0938 26
-2.9551 -0.47409999999999997 -0.5205 23
-3.0077999999999996 -0.4824 -0.45799999999999996 168
-3.2226999999999997 -0.5166 0.11220000000000001 41
-3.0293 -0.4858 -0.3892 7
-13.539100000000001 -2.1699 0.7948999999999999 173
-3.0918 -0.49560000000000004 -0.3245 67
-13.5469 -2.1719 1.1172 95
-3.0938 -0.4961 -0.2522 187
-13.468800000000002 -2.1602 1.4287 82
-3.1289 -0.5015 -0.1816 13
-12.2578 -1.9658000000000002 1.5918 243
-3.25 -0.521 -0.11320000000000001 72
-12.1172 -1.9424000000000001 1.8643 230
-11.7578 -1.8847999999999998 2.0918 255
-2.957 -0.46259999999999996 -0.5205 32
-3.0039 -0.47 -0.4573 29
-3.2266000000000004 -0.5049 0.11220000000000001 48
-3.0214999999999996 -0.4727 -0.38789999999999997 34
-13.468800000000002 -2.1055 0.7905 136
-3.082 -0.4819 -0.3232 189
-13.4375 -2.1016 1.1074 90
-3.0995999999999997 -0.4849 -0.2527 1
-13.4531 -2.1035 1.4268 113
-3.1543 -0.49340000000000006 -0.18309999999999998 241
-12.2422 -1.915 1.5888999999999998 74
-3.252 -0.5088 -0.11320000000000001 15
-12.1172 -1.8955000000000002 1.8633000000000002 82
-11.7656 -1.8408000000000002 2.0918 70
-2.9648000000000003 -0.4531 -0.5215 41
-2.9941000000000004 -0.4578 -0.45530000000000004 113
-3.2285000000000004 -0.49340000000000006 0.11220000000000001 252
-3.0312 -0.46340000000000003 -0.3889 200
-13.4453 -2.0547 0.7886 1
-3.0918 -0.47240000000000004 -0.324 90
-13.4375 -2.0547 1.1064 192
-3.0898000000000003 -0.4722 -0.25170000000000003 254
-13.460899999999999 -2.0586 1.4268 117
-3.1094 -0.47509999999999997 -0.18030000000000002 212
-12.2656 -1.875 1.5908000000000002 37
-3.127 -0.478 -0.10869999999999999 62
-12.1172 -1.8516 1.8622999999999998 205
-3.1543 -0.48219999999999996 -0.0364 111
-11.773399999999999 -1.7988 2.0918 66
-2.9688 -0.44310000000000005 -0.522 140
-3.2031 -0.478 0.037000000000000005 41
-3.0 -0.44780000000000003 -0.4561 76
-3.1952999999999996 -0.4768 0.111 117
-13.4453 -2.0078 0.7886 32
-13.4375 -2.0059 1.1064 245
-13.4453 -2.0078 1.4238 91
-12.281199999999998 -1.8330000000000002 1.5918 135
-12.101600000000001 -1.8066 1.8594 235
-3.2558999999999996 -0.4861 -0.037599999999999995 220
-11.773399999999999 -1.7578 2.0918 213
-2.9629000000000003 -0.4316 -0.5205 130
-2.998 -0.4368 -0.45530000000000004 99
-3.2401999999999997 -0.4722 0.1125 146
-13.4375 -1.9580000000000002 0.7876000000000001 112
-13.4531 -1.96 1.1064 104
-13.4531 -1.96 1.4238 38
-12.281199999999998 -1.79 1.5918 221
-12.101600000000001 -1.7637 1.8584 143
-11.7656 -1.7147999999999999 2.0898 236
-2.9473000000000003 -0.4194 -0.5176 124
-2.998 -0.4268 -0.45530000000000004 65
-3.2226999999999997 -0.4587 0.1119 210
-13.4297 -1.9111000000000002 0.7866 141
-13.4531 -1.915 1.1064 65
-13.4453 -1.9141 1.4228999999999998 195
-12.281199999999998 -1.7471 1.5897999999999999 244
-12.1172 -1.7246000000000001 1.8594 240
-11.7578 -1.6738 2.0859 121
-2.9551 -0.4106 -0.5186 195
-2.9901999999999997 -0.4155 -0.4539 239
-3.2188 -0.4473 0.1117 17
-13.4375 -1.8672 0.7866 160
-13.4375 -1.8672 1.1045 86
-13.4375 -1.8662 1.4209 221
-12.2578 -1.7031 1.5859 54
-12.125 -1.6846 1.8603999999999998 156
-11.7578 -1.6338 2.0859 95
-2.9531 -0.3987 -0.5181 156
-2.9805 -0.4023 -0.4521 208
-3.2245999999999997 -0.4355 0.1118 119
-13.4453 -1.8154 0.7866 125
-13.4297 -1.8135 1.1035 172
-12.531199999999998 -1.6924000000000001 1.3241999999999998 234
-12.2656 -1.6562000000000001 1.5869 77
-12.1172 -1.6366999999999998 1.8584 2
-11.773399999999999 -1.5888999999999998 2.0859 104
-2.9707 -0.3906 -0.521 195
-2.9863 -0.3926 -0.4526 158
-3.2148000000000003 -0.4226 0.1114 169
-12.5 -1.6436000000000002 1.0264 124
-12.5156 -1.6455000000000002 1.3222999999999998 112
-12.273399999999999 -1.6133000000000002 1.5869 93
-12.101600000000001 -1.5918 1.8555000000000001 185
-11.7578 -1.5449000000000002 2.082 86
-2.9512 -0.3782 -0.5176 190
-2.9961 -0.38380000000000003 -0.45409999999999995 1
-3.2188 -0.41240000000000004 0.1116 211
-12.5 -1.6016 0.7304999999999999 72
-12.5 -1.6016 1.0264 184
-12.4922 -1.5996000000000001 1.3184 197
-12.273399999999999 -1.5722999999999998 1.5869 139
-12.1094 -1.5508000000000002 1.8544999999999998 158
-11.75 -1.5049000000000001 2.0801 139
-2.9452999999999996 -0.3674 -0.5161 72
-3.002 -0.37450000000000006 -0.4548 213
-3.2324 -0.4033 0.11199999999999999 145
-12.468800000000002 -1.5556999999999999 0.7284999999999999 227
-12.460899999999999 -1.5537 1.0215 84
-12.3594 -1.5419999999999998 1.3047 19
-12.2578 -1.5293 1.584 110
-11.8906 -1.4824000000000002 1.8203 51
-11.75 -1.4658000000000002 2.0801 192
-2.9473000000000003 -0.3567 -0.5161 189
-2.9961 -0.3625 -0.4536 182
-3.207 -0.38789999999999997 0.111 6
-12.335899999999999 -1.4931999999999999 0.7202 217
-12.3672 -1.4961000000000002 1.0137 104
-12.335899999999999 -1.4931999999999999 1.3018 93
-12.2422 -1.4813999999999998 1.5811000000000002 59
-11.8828 -1.4385 1.8193000000000001 47
-11.7344 -1.4209 2.0781 199
-2.9551 -0.3472 -0.5176 161
-2.9882999999999997 -0.35109999999999997 -0.4524 38
-3.2168 -0.37770000000000004 0.11130000000000001 206
-12.3125 -1.4463 0.7182999999999999 67
-12.335899999999999 -1.4491999999999998 1.0107 138
-12.3281 -1.4482 1.2997999999999998 203
-12.2578 -1.4404 1.5819999999999999 115
-11.8828 -1.3965 1.8184 53
-11.75 -1.3809 2.0801 218
-2.9531 -0.33640000000000003 -0.5166 61
-2.9941000000000004 -0.3411 -0.45289999999999997 54
-3.2051 -0.3652 0.1108 118
-12.2969 -1.4013999999999998 0.7173 216
-12.281199999999998 -1.3994 1.0059 242
-12.289100000000001 -1.3994 1.2949000000000002 189
-12.2656 -1.3975 1.5819999999999999 97
-11.9375 -1.3603999999999998 1.8262 47
-11.75 -1.3388999999999998 2.0781 49
-2.9433999999999996 -0.325 -0.5146000000000001 195
-2.9901999999999997 -0.33030000000000004 -0.4524 63
-3.207 -0.354 0.1108 203
-12.289100000000001 -1.3563999999999998 0.7162999999999999 49
-12.335899999999999 -1.3622999999999998 1.0098 35
-12.3203 -1.3594 1.2978999999999998 107
-12.2656 -1.3535 1.5819999999999999 115
-12.1094 -1.3369 1.8516 121
-11.75 -1.2969 2.0762 12
-2.9316000000000004 -0.3132 -0.5127 50
-3.0 -0.3206 -0.4536 122
-3.2031 -0.3423 0.1107 149
-12.3047 -1.3144999999999998 0.7173 205
-12.343800000000002 -1.3184 1.0098 164
-12.343800000000002 -1.3193000000000001 1.2997999999999998 151
-12.25 -1.3096 1.5800999999999998 252
-12.1172 -1.2949000000000002 1.8516 54
-11.7344 -1.2539 2.0742 226
-2.9414 -0.304 -0.5136999999999999 228
-2.9882999999999997 -0.3086 -0.4514 135
-3.1973000000000003 -0.33030000000000004 0.1104 86
-12.335899999999999 -1.2744 0.7188 86
-12.3594 -1.2773 1.0107 104
-12.406199999999998 -1.2822 1.3066 64
-12.25 -1.2666 1.5791 13
-12.1094 -1.252 1.8506 233
-11.7422 -1.2139 2.0742 33
-2.9512 -0.29469999999999996 -0.5156000000000001 216
-2.9785000000000004 -0.2974 -0.45 13
-3.2012 -0.3196 0.1106 57
-12.398399999999999 -1.2373 0.7222 140
-12.468800000000002 -1.2451 1.0205 153
-12.5156 -1.249 1.3174000000000001 139
-12.4531 -1.2431999999999999 1.6044999999999998 80
-12.101600000000001 -1.208 1.8477000000000001 120
-11.7422 -1.1719 2.0723 241
-2.957 -0.2847 -0.5161 5
-2.9805 -0.2869 -0.45 172
-3.1875 -0.3069 0.11 207
-12.5 -1.2031 0.728 186
-12.4922 -1.2021 1.0215 177
-12.4922 -1.2031 1.3144999999999998 253
-12.335899999999999 -1.1875 1.5888999999999998 72
-12.101600000000001 -1.165 1.8466999999999998 88
-11.75 -1.1318000000000001 2.0742 95
-2.9492000000000003 -0.2737 -0.5151 130
-2.998 -0.2781 -0.4526 129
-3.2012 -0.2969 0.1104 188
-12.4844 -1.1582 0.7271 221
-12.5 -1.1592 1.0215 94
-12.4844 -1.1582 1.3135 209
-12.476600000000001 -1.1572 1.6063999999999998 75
-12.1328 -1.126 1.8516 215
-11.7344 -1.0889 2.0703 121
-2.9395 -0.2622 -0.5127 100
-3.0039 -0.2681 -0.4534 187
-3.2089999999999996 -0.2864 0.1107 137
-12.4844 -1.1143 0.7265999999999999 141
-12.5 -1.1152 1.0215 102
-12.5 -1.1152 1.3144999999999998 91
-12.4844 -1.1143 1.6063999999999998 20
-12.351600000000001 -1.1025 1.8838 75
-11.726600000000001 -1.0469 2.0684 63
-2.9433999999999996 -0.2534 -0.5136999999999999 76
-2.9922000000000004 -0.2576 -0.4514 221
-3.1973000000000003 -0.2754 0.1103 136
-12.4922 -1.0752 0.7265999999999999 98
-12.4922 -1.0752 1.0205 180
-12.4922 -1.0752 1.3135 204
-12.468800000000002 -1.0732 1.6044999999999998 85
-12.343800000000002 -1.0625 1.8828 99
-11.726600000000001 -1.0098 2.0684 192
-2.9492000000000003 -0.2439 -0.5142 86
-2.9805 -0.24670000000000003 -0.4497 63
-3.1992000000000003 -0.2646 0.1103 205
-12.468800000000002 -1.0312000000000001 0.7251000000000001 201
-12.4375 -1.0293 1.0156 186
-12.4453 -1.0293 1.3075999999999999 95
-12.4297 -1.0283 1.5986000000000002 104
-12.335899999999999 -1.0205 1.8809 177
-11.7344 -0.9706999999999999 2.0684 155
-2.9531 -0.2329 -0.5151 231
-2.9805 -0.2351 -0.4495 149
-3.1875 -0.2515 0.1099 141
-12.468800000000002 -0.9834 0.7251000000000001 178
-12.4844 -0.9843999999999999 1.0195 210
-12.476600000000001 -0.9839 1.3105000000000002 247
-12.468800000000002 -0.9839 1.6035 233
-12.3281 -0.9727 1.8799000000000001 60
-11.7422 -0.9262999999999999 2.0703 60
-2.9375 -0.2214 -0.5122 167
-2.9941000000000004 -0.2257 -0.4514 212
-3.1933999999999996 -0.24059999999999998 0.11 149
-12.4844 -0.9409000000000001 0.7256 51
-12.4922 -0.9414 1.0195 234
-12.4844 -0.9409000000000001 1.3115 153
-12.476600000000001 -0.9404 1.6035 103
-12.335899999999999 -0.9297 1.8799000000000001 79
-11.7344 -0.8843000000000001 2.0664 211
-2.9355 -0.2114 -0.5112 219
-3.0039 -0.2163 -0.4526 109
-3.2089999999999996 -0.23120000000000002 0.1106 86
-12.476600000000001 -0.8989 0.7251000000000001 73
-12.4922 -0.8998999999999999 1.0195 118
-12.476600000000001 -0.8989 1.3105000000000002 14
-12.468800000000002 -0.8979 1.6025 59
-12.343800000000002 -0.8892 1.8809 5
-11.726600000000001 -0.8447 2.0645 64
-2.9355 -0.20170000000000002 -0.5112 191
-2.9844 -0.2051 -0.4497 74
-3.2148000000000003 -0.2208 0.1107 250
-12.476600000000001 -0.8573999999999999 0.7251000000000001 108
-12.4844 -0.8579000000000001 1.0186 166
-12.4922 -0.8584 1.3115 130
-12.460899999999999 -0.856 1.6006 120
-12.414100000000001 -0.853 1.8916 255
-11.718800000000002 -0.8051999999999999 2.0645 243
-2.9433999999999996 -0.19140000000000001 -0.5127 9
-2.9766000000000004 -0.1936 -0.4485 79
-3.1952999999999996 -0.2078 0.11 114
-12.4922 -0.812 0.7256 90
-12.4922 -0.812 1.0186 179
-12.5078 -0.8134999999999999 1.3125 240
-12.468800000000002 -0.8105 1.6016 187
-12.4531 -0.8096 1.8955000000000002 215
-12.1406 -0.7890999999999999 2.1367 53
-2.9492000000000003 -0.1814 -0.5136999999999999 81
-2.9726999999999997 -0.18289999999999998 -0.4475 225
-3.1914 -0.19640000000000002 0.1099 15
-12.4922 -0.7686 0.7256 149
-12.4922 -0.7686 1.0186 238
-12.4844 -0.7681 1.3105000000000002 34
-12.476600000000001 -0.7676000000000001 1.6025 102
-12.4297 -0.7646 1.8925999999999998 80
-12.375 -0.7612000000000001 2.1797 34
-2.9375 -0.1709 -0.5112 217
-2.9844 -0.17370000000000002 -0.4495 91
-3.1973000000000003 -0.18600000000000003 0.11 12
-12.4922 -0.7265999999999999 0.7251000000000001 175
-12.4922 -0.7271 1.0186 178
-12.476600000000001 -0.7261 1.3096 184
-12.468800000000002 -0.7256 1.6016 188
-12.460899999999999 -0.7251000000000001 1.8975 228
-10.1719 -0.5918 1.7891 185
-2.9257999999999997 -0.1605 -0.5093 12
-2.9863 -0.1638 -0.4497 24
-3.1933999999999996 -0.1752 0.1099 99
-12.476600000000001 -0.6840999999999999 0.7241 104
-12.4922 -0.6851 1.0186 131
-12.476600000000001 -0.6846 1.3086000000000002 19
-12.468800000000002 -0.6840999999999999 1.6016 232
-12.476600000000001 -0.6846 1.8994 52
-10.1875 -0.5590999999999999 1.7919999999999998 236
-2.9355 -0.1503 -0.5107 8
-2.9785000000000004 -0.1523 -0.4482 148
-3.1933999999999996 -0.1635 0.1099 255
-12.476600000000001 -0.6386999999999999 0.7241 105
-12.4844 -0.6392 1.0176 6
-12.4922 -0.6392 1.3096 212
-12.460899999999999 -0.6377 1.5996000000000001 132
-12.476600000000001 -0.6386999999999999 1.8984 219
-10.2188 -0.5229 1.7969 143
-2.9473000000000003 -0.1405 -0.5127 76
-2.9766000000000004 -0.142 -0.44780000000000003 124
-3.1719 -0.1512 0.1091 43
-12.4922 -0.5957 0.7245999999999999 166
-12.476600000000001 -0.5947 1.0166 118
-12.4922 -0.5957 1.3096 74
-12.476600000000001 -0.5947 1.6006 214
-12.4531 -0.5938 1.8944999999999999 239
-12.375 -0.5903 2.1777 99
-2.9433999999999996 -0.1301 -0.5122 134
-2.9707 -0.13119999999999998 -0.447 166
-3.1660000000000004 -0.1399 0.10890000000000001 53
-12.4844 -0.5518 0.7245999999999999 11
-12.476600000000001 -0.5513 1.0166 201
-12.4844 -0.5513 1.3086000000000002 196
-12.476600000000001 -0.5513 1.6006 248
-12.4531 -0.5503 1.8936000000000002 236
-12.3828 -0.5474 2.1777 230
-2.9395 -0.11960000000000001 -0.5112 239
-2.9844 -0.1215 -0.449 207
-3.1836 -0.1295 0.1094 165
-12.4844 -0.5078 0.7241 228
-12.476600000000001 -0.5078 1.0166 16
-12.476600000000001 -0.5073 1.3075999999999999 135
-12.476600000000001 -0.5078 1.6006 245
-12.468800000000002 -0.5073 1.8965 67
-12.375 -0.5034000000000001 2.1758 171
-2.9336 -0.10859999999999999 -0.5103 184
-2.9901999999999997 -0.1107 -0.4497 193
-3.2012 -0.1185 0.1101 107
-12.468800000000002 -0.46140000000000003 0.7231000000000001 44
-12.4844 -0.4622 1.0166 20
-12.4844 -0.4619 1.3075999999999999 203
-12.468800000000002 -0.4617 1.5996000000000001 159
-12.476600000000001 -0.4619 1.8975 125
-12.375 -0.4583 2.1758 240
-2.9375 -0.0984 -0.5107 60
-2.9785000000000004 -0.0999 -0.44780000000000003 99
-3.2012 -0.1073 0.11 192
-12.468800000000002 -0.418 0.7231000000000001 172
-12.468800000000002 -0.418 1.0156 197
-12.4922 -0.4189 1.3096 197
-12.460899999999999 -0.4177 1.5977000000000001 17
-12.476600000000001 -0.4182 1.8975 35
-12.3828 -0.415 2.1777 28
-2.9492000000000003 -0.0891 -0.5127 84
-2.9726999999999997 -0.0898 -0.447 78
-3.1776999999999997 -0.096 0.1093 192
-12.4844 -0.377 0.7236 47
-12.468800000000002 -0.37670000000000003 1.0156 53
-12.4922 -0.3772 1.3086000000000002 247
-12.460899999999999 -0.3765 1.5986000000000002 182
-12.468800000000002 -0.3765 1.8955000000000002 247
-10.0 -0.302 1.7568000000000001 60
-2.9492000000000003 -0.0793 -0.5127 242
-2.9805 -0.0801 -0.4482 178
-3.1836 -0.08560000000000001 0.1094 223
-12.4844 -0.3357 0.7236 123
-12.468800000000002 -0.33520000000000005 1.0156 162
-12.476600000000001 -0.3354 1.3075999999999999 155
-12.468800000000002 -0.33520000000000005 1.5986000000000002 123
-12.460899999999999 -0.335 1.8944999999999999 196
-10.0156 -0.2693 1.7588 226
-2.9316000000000004 -0.0681 -0.5097999999999999 141
-2.9882999999999997 -0.0694 -0.4495 107
-3.1836 -0.0739 0.1094 32
-12.468800000000002 -0.2896 0.7231000000000001 229
-12.4844 -0.2898 1.0166 46
-12.476600000000001 -0.2898 1.3075999999999999 89
-12.468800000000002 -0.2896 1.5986000000000002 49
-12.4531 -0.2891 1.8936000000000002 196
-12.3672 -0.2871 2.1738 30
-2.9297000000000004 -0.057800000000000004 -0.5093 26
-2.9805 -0.0588 -0.4482 132
-3.1914 -0.0629 0.1097 110
-12.468800000000002 -0.24600000000000002 0.7231000000000001 126
-12.4844 -0.2462 1.0166 211
-12.4844 -0.2462 1.3075999999999999 123
-12.460899999999999 -0.2458 1.5977000000000001 24
-12.476600000000001 -0.24609999999999999 1.8965 73
-12.3594 -0.2438 2.1719 138
-2.9336 -0.0482 -0.5103 157
-2.9726999999999997 -0.048799999999999996 -0.447 186
-3.168 -0.052000000000000005 0.10880000000000001 157
-12.468800000000002 -0.2045 0.7227 141
-12.468800000000002 -0.2046 1.0156 170
-12.476600000000001 -0.2047 1.3066 209
-12.4453 -0.20420000000000002 1.5957 65
-12.476600000000001 -0.2047 1.8965 115
-12.375 -0.203 2.1758 243
-2.9414 -0.0385 -0.5112 65
-2.9766000000000004 -0.039 -0.4475 230
-3.1757999999999997 -0.0416 0.1091 197
-12.476600000000001 -0.16329999999999997 0.7231000000000001 160
-12.460899999999999 -0.1631 1.0146 164
-12.4844 -0.1635 1.3075999999999999 229
-12.4453 -0.163 1.5957 207
-12.4531 -0.1631 1.8936000000000002 173
-12.3672 -0.16190000000000002 2.1738 79
-2.9355 -0.0277 -0.5103 242
-2.9629000000000003 -0.0279 -0.44530000000000003 118
-3.1641000000000004 -0.0298 0.10869999999999999 77
-12.468800000000002 -0.1176 0.7231000000000001 82
-12.468800000000002 -0.1175 1.0146 211
-12.4844 -0.1177 1.3075999999999999 219
-12.460899999999999 -0.1174 1.5977000000000001 203
-12.4453 -0.1173 1.8916 115
-12.375 -0.1166 2.1758 21
-2.9316000000000004 -0.0174 -0.5093 246
-2.9824 -0.0177 -0.4482 196
-3.168 -0.018799999999999997 0.10880000000000001 159
-12.468800000000002 -0.07400000000000001 0.7227 23
-12.4844 -0.0741 1.0166 116
-12.468800000000002 -0.07400000000000001 1.3066 215
-12.460899999999999 -0.0739 1.5977000000000001 160
-12.4453 -0.0739 1.8916 192
-12.375 -0.0735 2.1758 186
-2.9316000000000004 -0.0072 -0.5093 4
-2.9844 -0.0073 -0.4485 81
-3.1816000000000004 -0.0078000000000000005 0.1093 241
-12.4531 -0.0304 0.7222 248
-12.476600000000001 -0.0305 1.0156 194
-12.4922 -0.0305 1.3075999999999999 201
-12.4531 -0.0304 1.5966999999999998 131
-12.460899999999999 -0.0305 1.8936000000000002 241
-12.3672 -0.0302 2.1738 199
-2.9316000000000004 0.0031 -0.5093 247
-2.9668 0.0031 -0.446 71
-3.1952999999999996 0.0033 0.10980000000000001 90
-12.476600000000001 0.0131 0.7231000000000001 104
-12.5547 0.0131 1.0215 20
-12.5625 0.0132 1.3154 20
-12.4453 0.013000000000000001 1.5947 169
-12.460899999999999 0.0131 1.8936000000000002 218
-12.3672 0.0129 2.1738 111
-2.9355 0.013300000000000001 -0.5103 238
-2.9551 0.0134 -0.4443 22
-3.1620999999999997 0.0144 0.10859999999999999 222
-12.5469 0.056900000000000006 0.7275 144
-12.5625 0.057 1.0225 35
-12.585899999999999 0.0571 1.3184 192
-12.4531 0.0565 1.5966999999999998 196
-12.4531 0.0565 1.8925999999999998 130
-12.375 0.0562 2.1758 179
-2.9395 0.0236 -0.5107 177
-2.9629000000000003 0.023799999999999998 -0.44530000000000003 134
-3.1757999999999997 0.0255 0.1091 106
-12.585899999999999 0.10099999999999999 0.7295 93
-12.6875 0.10189999999999999 1.0332 154
-12.7578 0.1024 1.3369 100
-12.4531 0.1 1.5966999999999998 13
-12.4453 0.0999 1.8916 12
-12.375 0.09939999999999999 2.1738 76
-2.9257999999999997 0.0332 -0.5088 199
-2.9745999999999997 0.0338 -0.4473 41
-3.1855 0.0361 0.1094 15
-12.7422 0.1445 0.7387999999999999 147
-12.7656 0.1448 1.0391 18
-12.7656 0.1449 1.3369 190
-12.460899999999999 0.1414 1.5977000000000001 179
-12.4531 0.1412 1.8916 18
-12.3672 0.1404 2.1738 241
-2.918 0.042800000000000005 -0.5073 67
-2.9824 0.0437 -0.4485 192
-3.1836 0.0467 0.1094 47
-12.718800000000002 0.1864 0.7373000000000001 137
-12.773399999999999 0.1873 1.04 217
-12.75 0.1869 1.3359 236
-12.4453 0.1825 1.5957 190
-12.460899999999999 0.1827 1.8936000000000002 155
-12.343800000000002 0.18100000000000002 2.1699 255
-2.9219 0.0541 -0.5078 138
-2.9648000000000003 0.054900000000000004 -0.4458 65
-3.1952999999999996 0.0591 0.10980000000000001 52
-12.75 0.23579999999999998 0.7393000000000001 113
-12.7656 0.23620000000000002 1.0391 200
-12.773399999999999 0.23629999999999998 1.3378999999999999 202
-12.4453 0.2302 1.5957 55
-12.460899999999999 0.2306 1.8936000000000002 233
-12.3594 0.2286 2.1719 127
-2.9336 0.0645 -0.5103 76
-2.9551 0.065 -0.4443 239
-3.1699 0.0697 0.10890000000000001 114
-12.75 0.2805 0.7397 129
-12.75 0.2805 1.0381 145
-12.7656 0.2808 1.3369 91
-12.4453 0.2737 1.5957 23
-12.4375 0.2737 1.8906 100
-12.351600000000001 0.2717 2.1719 44
-2.9336 0.07429999999999999 -0.5103 20
-2.9688 0.0751 -0.44630000000000003 174
-3.1738 0.0803 0.1091 116
-12.726600000000001 0.322 0.7378 145
-12.7578 0.32299999999999995 1.0391 167
-12.7656 0.32299999999999995 1.3369 69
-12.460899999999999 0.3154 1.5977000000000001 172
-12.4453 0.31489999999999996 1.8916 104
-12.375 0.3132 2.1758 44
-2.918 0.0836 -0.5073 12
-2.9805 0.08529999999999999 -0.4482 111
-3.1776999999999997 0.0909 0.1092 55
-12.75 0.365 0.7397 57
-12.7656 0.3655 1.0391 12
-12.75 0.365 1.3359 114
-12.4531 0.3567 1.5977000000000001 12
-12.4453 0.3564 1.8925999999999998 200
-12.343800000000002 0.3533 2.1699 29
-2.918 0.0942 -0.5073 51
-2.9745999999999997 0.09609999999999999 -0.4473 20
-3.168 0.1024 0.10890000000000001 35
-12.726600000000001 0.41090000000000004 0.7378 2
-12.7656 0.41240000000000004 1.04 145
-12.75 0.4119 1.3369 238
-12.4297 0.40159999999999996 1.5947 100
-12.4453 0.4021 1.8925999999999998 109
-12.343800000000002 0.3987 2.1699 229
-2.9219 0.10460000000000001 -0.5078 205
-2.9668 0.10619999999999999 -0.44630000000000003 0
-3.168 0.1134 0.10890000000000001 14
-12.710899999999999 0.4551 0.7373000000000001 254
-12.75 0.45649999999999996 1.0391 245
-12.7656 0.457 1.3378999999999999 70
-12.4375 0.44530000000000003 1.5957 208
-12.4531 0.4458 1.8936000000000002 51
-12.351600000000001 0.4421 2.1719 32
-2.9336 0.1153 -0.5103 184
-2.9589999999999996 0.11630000000000001 -0.4451 141
-3.1562 0.124 0.1085 70
-12.710899999999999 0.49950000000000006 0.7378 253
-12.75 0.501 1.0391 195
-12.7656 0.5015 1.3378999999999999 71
-12.4453 0.489 1.5966999999999998 230
-12.4375 0.4885 1.8916 175
-12.3672 0.4858 2.1758 220
-2.9276999999999997 0.1252 -0.5093 209
-2.9668 0.127 -0.44630000000000003 112
-3.1836 0.1362 0.1094 202
-12.75 0.5454 0.7397 46
-12.75 0.5454 1.0391 76
-12.7578 0.5459 1.3378999999999999 97
-12.4453 0.5327000000000001 1.5977000000000001 71
-12.4297 0.5317000000000001 1.8906 217
-12.3594 0.5288 2.1738 27
-2.9219 0.13419999999999999 -0.5083 223
-2.9805 0.1368 -0.4485 96
-3.1582 0.1451 0.10859999999999999 152
-12.75 0.5854 0.7397 54
-12.7656 0.5864 1.04 218
-12.7422 0.585 1.3359 61
-12.460899999999999 0.5722999999999999 1.5986000000000002 206
-12.4375 0.5713 1.8916 216
-12.351600000000001 0.5674 2.1738 110
-2.918 0.1437 -0.5078 253
-2.9745999999999997 0.1465 -0.4475 225
-3.1776999999999997 0.1565 0.1093 70
-12.6875 0.625 0.7368000000000001 203
-12.75 0.6279 1.0391 66
-12.75 0.6279 1.3369 142
-12.4375 0.6128 1.5966999999999998 197
-12.4375 0.6128 1.8925999999999998 244
-12.335899999999999 0.6079 2.1699 251
-2.9257999999999997 0.1549 -0.5093 163
-2.957 0.1566 -0.4451 219
-3.1738 0.168 0.1092 38
-12.726600000000001 0.6738 0.7387999999999999 113
-12.75 0.6748000000000001 1.0391 113
-12.7422 0.6748000000000001 1.3369 186
-12.4297 0.6577 1.5957 23
-12.4531 0.6592 1.8944999999999999 56
-12.335899999999999 0.6528 2.1699 161
-2.9355 0.1656 -0.5112 77
-2.9589999999999996 0.16699999999999998 -0.44530000000000003 67
-3.1855 0.1797 0.1096 32
-12.7578 0.7197 0.7406999999999999 153
-12.7344 0.7188 1.0381 123
-12.75 0.7197 1.3378999999999999 82
-12.4453 0.7021 1.5977000000000001 0
-12.4297 0.7017 1.8925999999999998 179
-12.343800000000002 0.6968000000000001 2.1738 252
-2.9395 0.1766 -0.5117 114
-2.9608999999999996 0.17800000000000002 -0.4458 148
-3.1523000000000003 0.1895 0.1085 60
-12.710899999999999 0.7642 0.7383 27
-12.7422 0.7656000000000001 1.0391 30
-12.7422 0.7661 1.3369 210
-12.4375 0.7476 1.5977000000000001 170
-12.4375 0.7476 1.8936000000000002 34
-12.351600000000001 0.7426999999999999 2.1758 222
-2.9276999999999997 0.1862 -0.5097999999999999 216
-2.9648000000000003 0.1887 -0.4465 238
-3.1776999999999997 0.2021 0.1094 122
-12.718800000000002 0.8090999999999999 0.7387999999999999 38
-12.75 0.8109999999999999 1.04 35
-12.726600000000001 0.8096 1.3359 100
-12.4531 0.7925 1.5996000000000001 132
-12.4297 0.7909999999999999 1.8936000000000002 98
-12.343800000000002 0.7852 2.1738 117
-2.918 0.1953 -0.5083 194
-2.9766000000000004 0.1993 -0.4485 125
-3.1797000000000004 0.21280000000000002 0.1094 23
-12.6953 0.8501000000000001 0.7378 54
-12.6172 0.8447 1.0293 144
-12.5469 0.8398 1.3174000000000001 146
-12.4531 0.8340000000000001 1.6006 199
-12.4453 0.833 1.8955000000000002 50
-12.343800000000002 0.8262 2.1738 120
-2.9257999999999997 0.20559999999999998 -0.5097999999999999 9
-2.9589999999999996 0.2079 -0.4458 188
-3.1855 0.22390000000000002 0.1097 21
-12.523399999999999 0.8804000000000001 0.728 133
-12.531199999999998 0.8809 1.0225 46
-12.531199999999998 0.8804000000000001 1.3154 66
-12.4531 0.875 1.6006 191
-12.4297 0.8740000000000001 1.8944999999999999 104
-12.343800000000002 0.8676999999999999 2.1738 113
-2.9219 0.2162 -0.5093 126
-2.9589999999999996 0.2189 -0.446 202
-3.1816000000000004 0.2354 0.1096 67
-12.5078 0.9253 0.7271 236
-12.5078 0.9253 1.0215 101
-12.523399999999999 0.9262999999999999 1.3154 86
-12.460899999999999 0.9214 1.6016 180
-12.4375 0.9198999999999999 1.8944999999999999 90
-12.343800000000002 0.9131 2.1758 111
-2.9219 0.2263 -0.5093 109
-2.9688 0.23 -0.4475 133
-3.1738 0.24600000000000002 0.1094 225
-12.5156 0.9692000000000001 0.7275 254
-12.5156 0.9692000000000001 1.0215 74
-12.5078 0.9692000000000001 1.3144999999999998 67
-12.468800000000002 0.9658 1.6025 107
-12.414100000000001 0.9619 1.8925999999999998 199
-12.343800000000002 0.9565 2.1758 127
-2.9141000000000004 0.2365 -0.5078 97
-2.9766000000000004 0.2415 -0.4487 55
-3.1719 0.25730000000000003 0.1093 168
-12.5078 1.0156 0.7275 232
-12.523399999999999 1.0166 1.0225 40
-12.5078 1.0156 1.3144999999999998 52
-12.476600000000001 1.0127 1.6044999999999998 217
-12.4297 1.0088 1.8955000000000002 6
-12.343800000000002 1.002 2.1758 221
-2.9120999999999997 0.2466 -0.5078 226
-2.9726999999999997 0.25170000000000003 -0.4485 32
-3.1914 0.2703 0.11 151
-12.4844 1.0566 0.7261 213
-12.5078 1.0595999999999999 1.0215 144
-12.5156 1.0595999999999999 1.3154 83
-12.460899999999999 1.0547 1.6035 156
-12.4297 1.0527 1.8955000000000002 39
-12.335899999999999 1.0449 2.1758 73
-2.9141000000000004 0.2568 -0.5083 165
-2.9707 0.262 -0.4482 246
-3.1641000000000004 0.2791 0.1091 119
-12.5078 1.1035 0.728 212
-12.539100000000001 1.1055 1.0244 110
-12.6797 1.1181999999999999 1.3330000000000002 84
-12.460899999999999 1.0996 1.6044999999999998 85
-12.4297 1.0967 1.8965 65
-12.335899999999999 1.0879 2.1758 97
-2.9219 0.2681 -0.5103 213
-2.9608999999999996 0.27149999999999996 -0.447 134
-3.1797000000000004 0.2915 0.1097 56
-12.539100000000001 1.1504 0.73 27
-12.718800000000002 1.167 1.04 126
-12.7422 1.1689 1.3408000000000002 242
-12.460899999999999 1.1426 1.6044999999999998 231
-12.4297 1.1396 1.8965 87
-12.335899999999999 1.1318000000000001 2.1777 249
-2.9336 0.2783 -0.5122 38
-2.9648000000000003 0.2812 -0.4475 17
-3.1582 0.29960000000000003 0.10890000000000001 150
-12.523399999999999 1.1885 0.7295 9
-12.7344 1.208 1.041 38
-12.726600000000001 1.208 1.3388999999999998 242
-12.468800000000002 1.1836 1.6055000000000001 12
-12.414100000000001 1.1777 1.8944999999999999 117
-12.343800000000002 1.1709 2.1797 141
-2.9199 0.2869 -0.5103 171
-2.9766000000000004 0.2925 -0.4497 184
-3.1719 0.3118 0.1096 231
-12.4844 1.2266 0.7271 6
-12.7422 1.252 1.042 6
-12.718800000000002 1.25 1.3388999999999998 227
-12.476600000000001 1.2256 1.6074000000000002 171
-12.414100000000001 1.2197 1.8955000000000002 31
-12.335899999999999 1.2119 2.1777 234
-2.9120999999999997 0.2979 -0.5088 105
-2.9745999999999997 0.3042 -0.4495 182
-3.1523000000000003 0.3223 0.10880000000000001 163
-12.5 1.2793 0.7284999999999999 135
-12.7344 1.3027000000000002 1.042 239
-12.726600000000001 1.3018 1.3397999999999999 92
-12.460899999999999 1.2744 1.6055000000000001 187
-12.4219 1.2705 1.8975 158
-12.3281 1.2607 2.1777 52
-2.9120999999999997 0.3086 -0.5088 195
-2.9668 0.3145 -0.4485 96
-3.1620999999999997 0.33520000000000005 0.1093 218
-12.5156 1.3262 0.7295 168
-12.718800000000002 1.3486000000000002 1.041 171
-12.7422 1.3506 1.3428 145
-12.460899999999999 1.3203 1.6063999999999998 163
-12.4297 1.3174000000000001 1.8994 73
-12.3281 1.3066 2.1797 213
-2.918 0.3191 -0.5103 189
-2.9512 0.32280000000000003 -0.44630000000000003 191
-3.1776999999999997 0.34740000000000004 0.10980000000000001 88
-12.4297 1.3594 0.7245999999999999 245
-12.718800000000002 1.3906 1.041 156
-12.7422 1.3925999999999998 1.3428 165
-12.460899999999999 1.3633000000000002 1.6074000000000002 248
-12.4219 1.3584 1.8984 220
-12.3281 1.3477000000000001 2.1797 197
-2.9238 0.3301 -0.5112 15
-2.9668 0.335 -0.4487 181
-3.1562 0.35619999999999996 0.1091 134
-12.5078 1.4121000000000001 0.73 126
-12.710899999999999 1.4355000000000002 1.042 179
-12.726600000000001 1.4365 1.3418 116
-12.476600000000001 1.4082 1.6094 215
-12.414100000000001 1.4013999999999998 1.8984 161
-12.335899999999999 1.3925999999999998 2.1816 28
-2.9120999999999997 0.33909999999999996 -0.5097999999999999 195
-2.9668 0.3455 -0.449 47
-3.1660000000000004 0.36869999999999997 0.1096 102
-12.5 1.4550999999999998 0.7295 65
-12.7344 1.4824000000000002 1.043 236
-12.726600000000001 1.4813999999999998 1.3418 83
-12.476600000000001 1.4521000000000002 1.6103999999999998 8
-12.406199999999998 1.4443000000000001 1.8984 245
-12.3281 1.4346 2.1816 174
-2.9101999999999997 0.34909999999999997 -0.5093 52
-2.9668 0.3557 -0.449 18
-3.1660000000000004 0.3796 0.1096 161
-12.4922 1.4980000000000002 0.7295 47
-12.718800000000002 1.5253999999999999 1.043 27
-12.718800000000002 1.5253999999999999 1.3418 247
-12.468800000000002 1.4961000000000002 1.6103999999999998 89
-12.4219 1.4902000000000002 1.9013999999999998 87
-12.3125 1.4766 2.1797 131
-2.9160000000000004 0.35960000000000003 -0.5107 198
-2.9688 0.36619999999999997 -0.4497 99
-3.1641000000000004 0.3901 0.1096 149
-12.4531 1.5352000000000001 0.7271 122
-12.718800000000002 1.5684 1.043 239
-12.710899999999999 1.5674000000000001 1.3418 99
-12.468800000000002 1.5371000000000001 1.6103999999999998 36
-12.414100000000001 1.5312000000000001 1.9013999999999998 211
-12.3125 1.5186000000000002 2.1797 226
-2.9238 0.3704 -0.5122 130
-2.9473000000000003 0.3735 -0.4465 98
-3.1620999999999997 0.4006 0.1096 19
-12.523399999999999 1.5869 0.7319 238
-12.7031 1.6094 1.042 110
-12.726600000000001 1.6122999999999998 1.3437999999999999 134
-12.468800000000002 1.5800999999999998 1.6113 187
-12.414100000000001 1.5722999999999998 1.9013999999999998 148
-12.3281 1.5615 2.1836 117
-2.9276999999999997 0.3818 -0.5132 161
-2.9589999999999996 0.3857 -0.4485 50
-3.1620999999999997 0.41240000000000004 0.1096 218
-12.5469 1.6366999999999998 0.7339 163
-12.718800000000002 1.6582 1.0439 255
-12.710899999999999 1.6582 1.3428 218
-12.4844 1.6279 1.6143 84
-12.406199999999998 1.6172 1.9013999999999998 35
-12.3281 1.6074000000000002 2.1855 28
-2.918 0.3909 -0.5117 229
-2.9608999999999996 0.3967 -0.449 73
-3.1523000000000003 0.42210000000000003 0.1093 116
-12.3828 1.6591999999999998 0.7245999999999999 64
-12.7031 1.7012 1.043 67
-12.7031 1.7021000000000002 1.3428 50
-12.468800000000002 1.6709 1.6133000000000002 186
-12.406199999999998 1.6611000000000002 1.9013999999999998 88
-12.3203 1.6503999999999999 2.1855 37
-2.9043 0.3982 -0.5093 173
-3.1367000000000003 0.4302 0.0361 220
-2.9745999999999997 0.4082 -0.4514 159
-3.1620999999999997 0.4338 0.1097 61
-12.5781 1.7246000000000001 0.7358 202
-12.710899999999999 1.7431999999999999 1.0439 201
-12.710899999999999 1.7431999999999999 1.3437999999999999 154
-12.4844 1.7119 1.6152000000000002 141
-3.127 0.429 -0.1084 13
-12.406199999999998 1.7012 1.9022999999999999 26
-3.1191000000000004 0.4277 -0.0359 207
-12.3125 1.6894999999999998 2.1836 44
-2.9101999999999997 0.4089 -0.5107 191
-3.293 0.4629 0.038 166
-2.9688 0.4172 -0.45039999999999997 183
-3.1738 0.4458 0.1101 23
-3.1074 0.4368 -0.3982 2
-12.593800000000002 1.7705000000000002 0.7373000000000001 187
-12.7031 1.7852000000000001 1.0439 234
-3.1151999999999997 0.43770000000000003 -0.2532 57
-12.710899999999999 1.7871000000000001 1.3447 24
-3.0781 0.4326 -0.1782 165
-12.460899999999999 1.7519999999999998 1.6133000000000002 193
-3.1327999999999996 0.4404 -0.10869999999999999 133
-12.414100000000001 1.7441 1.9043 189
-3.2598000000000003 0.45799999999999996 -0.037599999999999995 169
-12.3203 1.7313999999999998 2.1875 91
-2.9199 0.4214 -0.5127 98
-2.9492000000000003 0.4255 -0.44780000000000003 184
-3.1719 0.4575 0.1101 144
-2.9961 0.4324 -0.38380000000000003 178
-12.601600000000001 1.8184 0.7378 25
-3.0547000000000004 0.4409 -0.31980000000000003 164
-12.585899999999999 1.8154 1.0352 205
-3.0273000000000003 0.4368 -0.24609999999999999 112
-12.726600000000001 1.8359 1.3466999999999998 50
-3.0839999999999996 0.4451 -0.17859999999999998 194
-12.460899999999999 1.7978999999999998 1.6143 78
-3.1074 0.4485 -0.10779999999999999 65
-12.406199999999998 1.79 1.9053 107
-3.1582 0.4558 -0.0364 193
-12.3203 1.7772999999999999 2.1875 192
-2.918 0.4316 -0.5127 84
-2.957 0.43729999999999997 -0.4495 32
-3.1699 0.4685 0.1101 220
-2.9922000000000004 0.4424 -0.3835 47
-12.5703 1.8584 0.7363 123
-3.0098000000000003 0.4451 -0.3152 170
-12.6719 1.874 1.043 248
-3.002 0.4436 -0.2441 91
-12.5469 1.8555000000000001 1.3291 96
-3.1699 0.46880000000000005 -0.1837 251
-12.476600000000001 1.8447 1.6172 45
-3.1191000000000004 0.46090000000000003 -0.10830000000000001 233
-12.3906 1.8319999999999999 1.9033000000000002 125
-3.1582 0.4668 -0.0364 221
-12.3203 1.8213 2.1895 33
-2.9101999999999997 0.4404 -0.5112 240
-2.9688 0.4497 -0.4514 49
-3.1562 0.4778 0.1097 246
-2.9805 0.4514 -0.3823 93
-12.523399999999999 1.8965 0.7343999999999999 250
-3.0351999999999997 0.4595 -0.3179 168
-12.5156 1.8944999999999999 1.0303 130
-3.0195 0.4573 -0.2457 92
-12.4844 1.8896000000000002 1.3222999999999998 63
-3.0898000000000003 0.4678 -0.1791 57
-12.476600000000001 1.8896000000000002 1.6181999999999999 27
-3.1367000000000003 0.47490000000000004 -0.10890000000000001 12
-12.398399999999999 1.8779 1.9062000000000001 151
-3.1562 0.4778 -0.0364 141
-12.3125 1.8643 2.1895 211
-2.9004000000000003 0.4495 -0.5103 124
-2.9844 0.46240000000000003 -0.4539 247
-3.1660000000000004 0.4907 0.1101 137
-2.9961 0.46409999999999996 -0.3843 84
-12.476600000000001 1.9336000000000002 0.7319 178
-3.0117000000000003 0.4668 -0.3157 0
-12.476600000000001 1.9336000000000002 1.0283 162
-3.0370999999999997 0.4707 -0.24739999999999998 12
-12.468800000000002 1.9325999999999999 1.3222999999999998 142
-3.0410000000000004 0.47119999999999995 -0.17629999999999998 76
-12.4297 1.9258000000000002 1.6122999999999998 224
-3.1699 0.4915 -0.11019999999999999 41
-12.406199999999998 1.9228999999999998 1.9072 116
-12.2969 1.9053 2.1855 63
-2.9062 0.46090000000000003 -0.5112 247
-2.9589999999999996 0.469 -0.45020000000000004 196
-3.1719 0.5029 0.1104 47
-2.9961 0.47509999999999997 -0.3848 193
-12.4219 1.9697 0.7290000000000001 240
-3.0058999999999996 0.47659999999999997 -0.3152 168
-12.3906 1.9647999999999999 1.0215 97
-3.0312 0.4807 -0.24710000000000001 96
-12.4219 1.9697 1.3174000000000001 44
-3.0547000000000004 0.4844 -0.1772 186
-12.3828 1.9628999999999999 1.6074000000000002 24
-3.1523000000000003 0.5 -0.1097 252
-12.406199999999998 1.9668 1.9091999999999998 96
-3.1523000000000003 0.49979999999999997 -0.0364 173
-12.2969 1.9502000000000002 2.1875 227
-2.9082 0.4717 -0.5122 22
-2.957 0.47950000000000004 -0.45020000000000004 159
-3.1348000000000003 0.5083 0.1091 157
-2.9901999999999997 0.4849 -0.384 70
-12.3906 2.0098 0.728 145
-3.0098000000000003 0.488 -0.3159 153
-12.3906 2.0098 1.0215 25
-3.0137 0.4888 -0.2457 142
-12.4219 2.0137 1.3184 156
-3.0762 0.4988 -0.17859999999999998 179
-12.3906 2.0078 1.6094 73
-3.1074 0.5039 -0.1082 230
-12.398399999999999 2.0098 1.9082 9
-3.123 0.5063 -0.0361 151
-12.3203 1.9971 2.1934 232
-2.9101999999999997 0.4824 -0.5127 125
-2.9589999999999996 0.4905 -0.4509 92
-3.1445 0.5215 0.1096 193
-2.9824 0.49439999999999995 -0.3833 159
-12.398399999999999 2.0547 0.7284999999999999 184
-3.0137 0.49950000000000006 -0.3164 72
-12.3906 2.0547 1.0225 8
-3.0293 0.502 -0.24710000000000001 55
-12.406199999999998 2.0566 1.3174000000000001 27
-3.1426 0.5205 -0.1826 180
-12.3906 2.0527 1.6094 142
-3.1483999999999996 0.522 -0.1097 254
-12.3828 2.0508 1.9072 75
-3.1483999999999996 0.522 -0.0364 67
-12.3047 2.0391 2.1914 150
-2.9082 0.4927 -0.5127 65
-2.9745999999999997 0.5039 -0.4536 166
-3.1660000000000004 0.5361 0.1104 98
-2.9901999999999997 0.5063 -0.3848 30
-12.3906 2.0977 0.7284999999999999 30
-3.0254000000000003 0.5122 -0.3179 97
-12.398399999999999 2.0996 1.0234 88
-3.0351999999999997 0.5136999999999999 -0.2477 45
-12.398399999999999 2.0996 1.3163999999999998 232
-3.0488 0.5161 -0.1772 39
-12.3906 2.0977 1.6113 226
-3.1757999999999997 0.5376 -0.1107 93
-12.3828 2.0977 1.9091999999999998 212
-3.1464999999999996 0.5327000000000001 -0.0364 50
-12.2969 2.082 2.1914 117
-2.9004000000000003 0.5015 -0.5112 74
-2.9688 0.5132 -0.45289999999999997 22
-3.1699 0.5478999999999999 0.1105 127
-3.0039 0.5195000000000001 -0.38670000000000004 80
-12.3906 2.1426 0.7284999999999999 248
-3.0137 0.521 -0.3169 182
-12.398399999999999 2.1445 1.0244 190
-3.0098000000000003 0.5205 -0.2457 143
-12.398399999999999 2.1426 1.3174000000000001 17
-3.043 0.5264 -0.177 177
-12.3828 2.1406 1.6113 37
-3.2441000000000004 0.561 -0.11320000000000001 143
-12.406199999999998 2.1445 1.9131 55
-3.1445 0.5439 -0.0364 74
-12.289100000000001 2.125 2.1914 196
-2.9276999999999997 0.5166 -0.5166 215
-2.9688 0.5239 -0.4534 62
-3.1445 0.5552 0.1097 89
-3.0 0.5297999999999999 -0.3865 226
-12.3906 2.1855 0.7290000000000001 186
-2.9922000000000004 0.5283 -0.31489999999999996 179
-12.3828 2.1855 1.0234 185
-3.0391000000000004 0.5361 -0.2484 205
-12.414100000000001 2.1914 1.3203 58
-3.082 0.5439 -0.1793 246
-12.375 2.1836 1.6103999999999998 165
-3.1426 0.5547 -0.1097 176
-12.398399999999999 2.1895 1.9141 190
-3.1426 0.5547 -0.0364 13
-12.3047 2.1719 2.1953 176
-2.9219 0.5264 -0.5161 38
-2.9452999999999996 0.5307999999999999 -0.45 113
-3.3026999999999997 0.5947 0.11539999999999999 32
-2.9961 0.5396 -0.3862 56
-12.3906 2.2324 0.73 177
-3.0214999999999996 0.5444 -0.3181 138
-12.3906 2.2324 1.0244 105
-3.002 0.5405 -0.2455 18
-12.414100000000001 2.2363 1.3213 248
-3.1191000000000004 0.5615 -0.1816 64
-12.375 2.2285 1.6122999999999998 235
-3.1172000000000004 0.5615 -0.10880000000000001 121
-12.3828 2.2305 1.9121000000000001 193
-3.1094 0.5600999999999999 -0.036000000000000004 34
-12.3047 2.2168 2.1973 195
-2.9257999999999997 0.5376 -0.5171 168
-2.9531 0.5425 -0.4514 26
-3.1620999999999997 0.5806 0.1104 230
-2.9901999999999997 0.5493 -0.3857 147
-12.3906 2.2754 0.7304999999999999 113
-3.0566000000000004 0.5615 -0.322 238
-12.398399999999999 2.2773 1.0254 217
-3.0195 0.5547 -0.24710000000000001 90
-12.3828 2.2754 1.3193000000000001 150
-3.0781 0.5654 -0.1793 217
-12.3828 2.2754 1.6143 89
-3.1387 0.5767 -0.1097 128
-12.375 2.2734 1.9121000000000001 138
-3.1895 0.5859000000000001 -0.037000000000000005 94
-12.3047 2.2598 2.1973 7
-2.9043 0.5439 -0.5136999999999999 85
-3.2695 0.6123 0.038 62
-2.9589999999999996 0.5542 -0.4526 167
-3.1776999999999997 0.5952000000000001 0.11109999999999999 195
-2.9882999999999997 0.5600999999999999 -0.3857 227
-12.3828 2.3203 0.7304999999999999 228
-3.0273000000000003 0.5669 -0.3191 209
-12.3906 2.3203 1.0264 100
-3.0214999999999996 0.5659000000000001 -0.24739999999999998 194
-12.3828 2.3184 1.3193000000000001 109
-3.0918 0.5791 -0.18030000000000002 106
-12.3906 2.3203 1.6162 212
-3.1367000000000003 0.5879 -0.1097 182
-12.3828 2.3184 1.9141 30
-3.1641000000000004 0.5928 -0.036699999999999997 28
-12.2969 2.3047 2.1992 214
-2.8945 0.5527000000000001 -0.5122 139
-2.9648000000000003 0.5664 -0.4539 198
-3.1699 0.6054999999999999 0.1109 201
-2.9707 0.5674 -0.3835 193
-12.375 2.3613 0.73 55
-3.0312 0.5791 -0.31980000000000003 193
-12.398399999999999 2.3672 1.0273 81
-3.0 0.5728 -0.2457 61
-12.3828 2.3652 1.3203 247
-3.0683999999999996 0.5859000000000001 -0.1791 1
-12.375 2.3633 1.6152000000000002 147
-3.1699 0.6054999999999999 -0.1109 231
-12.3828 2.3652 1.916 124
-12.281199999999998 2.3457 2.1973 226
-2.9120999999999997 0.5664 -0.5156000000000001 224
-2.9629000000000003 0.5767 -0.4539 122
-3.1797000000000004 0.6187 0.11130000000000001 2
-2.9922000000000004 0.5825 -0.38670000000000004 107
-12.3828 2.4082 0.7314 149
-3.0332 0.5903 -0.32030000000000003 6
-12.3672 2.4062 1.0254 146
-3.0332 0.5898 -0.2487 248
-12.398399999999999 2.4121 1.3232 46
-3.0858999999999996 0.6006 -0.18030000000000002 73
-12.3594 2.4043 1.6143 171
-12.3828 2.4082 1.9169999999999998 83
-12.3047 2.3945 2.2031 42
-2.9101999999999997 0.5767 -0.5156000000000001 46
-2.9512 0.585 -0.4524 48
-3.1660000000000004 0.6274000000000001 0.1109 203
-2.9805 0.5908 -0.38549999999999995 8
-12.3828 2.4551 0.7319 99
-3.0233999999999996 0.5991 -0.3193 88
-12.3828 2.4531 1.0273 47
-3.0586 0.606 -0.251 125
-12.398399999999999 2.457 1.3241999999999998 8
-12.375 2.4531 1.6172 154
-12.3672 2.4512 1.916 122
-12.2969 2.4375 2.2031 8
-2.9238 0.5893999999999999 -0.5186 75
-2.9608999999999996 0.5972 -0.45409999999999995 190
-3.1562 0.6362 0.1107 79
-2.9531 0.5957 -0.3821 111
-12.3906 2.498 0.7323999999999999 156
-3.2129000000000003 0.6479 -0.3398 143
-12.375 2.4941 1.0273 54
-12.398399999999999 2.5 1.3252000000000002 104
-4.2539 0.8573999999999999 -0.2498 19
-12.375 2.4961 1.6181999999999999 33
-12.3594 2.4922 1.916 127
-12.2969 2.4785 2.2031 179
-2.9062 0.5957 -0.5156000000000001 219
-2.9608999999999996 0.6074 -0.4546 162
-3.1387 0.6436 0.1101 224
-3.1327999999999996 0.6426000000000001 -0.4058 237
-12.3828 2.5391 0.7323999999999999 245
-12.3828 2.5391 1.0293 18
-4.1953 0.8604 -0.34590000000000004 216
-12.3828 2.5391 1.3241999999999998 62
-12.375 2.5371 1.6191 94
-12.3672 2.5371 1.9188999999999998 115
-12.281199999999998 2.5195 2.2031 89
-2.8964999999999996 0.6054999999999999 -0.5142 223
-2.9648000000000003 0.6201 -0.45530000000000004 251
-3.1620999999999997 0.6611 0.111 61
-3.2656 0.6831 -0.4236 223
-12.3594 2.5839999999999996 0.7319 71
-12.3828 2.5898000000000003 1.0293 135
-4.1992 0.8779 -0.3467 212
-12.3828 2.5898000000000003 1.3252000000000002 94
-12.3672 2.5858999999999996 1.6200999999999999 58
-12.3906 2.5918 1.9238 11
-12.289100000000001 2.5683999999999996 2.2051 101
-2.9004000000000003 0.6172 -0.5156000000000001 238
-2.9551 0.6284000000000001 -0.45409999999999995 190
-3.1660000000000004 0.6733 0.1112 135
-12.3672 2.6308999999999996 0.7329000000000001 253
-12.375 2.6327999999999996 1.0303 89
-4.2266 0.8994 -0.3494 93
-12.3828 2.6348000000000003 1.3262 175
-12.3594 2.6289 1.6200999999999999 203
-12.375 2.6327999999999996 1.9228999999999998 171
-12.289100000000001 2.6151999999999997 2.207 203
-2.9101999999999997 0.6294 -0.5176 12
-2.9492000000000003 0.6377 -0.4536 77
-3.1464999999999996 0.6807 0.1107 144
-12.3828 2.6776999999999997 0.7343999999999999 105
-12.375 2.6757999999999997 1.0303 149
-4.2383 0.9165000000000001 -0.3506 82
-12.3828 2.6776999999999997 1.3271000000000002 4
-12.3594 2.6719 1.6211000000000002 56
-12.3672 2.6738 1.9228999999999998 70
-12.2969 2.6582 2.2109 127
