# .PCD v0.7 - Point Cloud Data file format
VERSION 0.7
FIELDS x y z intensity
SIZE 4 4 4 4
TYPE F F F F
COUNT 1 1 1 1
WIDTH 1280
HEIGHT 1
VIEWPOINT 0 0 0 1 0 0 0
POINTS 1280
DATA ascii
2.5879000000000003 -10.3906 -1.8809 163
1.7959 -7.2109000000000005 0.086 124
2.1523 -8.6406 -1.3516 38
1.7959 -7.207000000000001 0.2576 139
2.1172 -8.5 -1.1211 249
1.8075999999999999 -7.2539 0.4324 212
2.0977 -8.4219 -0.9077 138
1.8163999999999998 -7.292999999999999 0.6103999999999999 160
2.0801 -8.3516 -0.6992 0
1.8262 -7.332000000000001 0.7896 67
1.7763999999999998 -7.1328 -0.425 125
1.835 -7.3672 0.9712000000000001 153
1.7852000000000001 -7.167999999999999 -0.2561 169
1.8428 -7.394500000000001 1.1553 128
1.7919999999999998 -7.1953 -0.0858 116
1.8563999999999998 -7.449199999999999 1.3466999999999998 63
2.5527 -10.398399999999999 -1.8809 55
1.7891 -7.2890999999999995 0.08689999999999999 98
2.1191 -8.6328 -1.3486000000000002 190
1.7930000000000001 -7.3047 0.2607 227
2.0781 -8.4688 -1.1162 103
1.8047 -7.3515999999999995 0.43770000000000003 132
2.1211 -8.6406 -0.9301999999999999 19
1.8105000000000002 -7.375 0.6167 196
2.0742 -8.4531 -0.7070000000000001 179
1.8222999999999998 -7.425800000000001 0.7988 29
1.7725 -7.2227 -0.4299 189
1.8281 -7.449199999999999 0.9814 58
1.7841999999999998 -7.269500000000001 -0.2595 150
1.8408000000000002 -7.5039 1.1719 232
1.7891 -7.2890999999999995 -0.08689999999999999 27
1.8525 -7.546900000000001 1.3622999999999998 102
2.5059 -10.3828 -1.876 13
1.7803 -7.3789 0.08779999999999999 47
2.0859 -8.6406 -1.3486000000000002 184
1.79 -7.4140999999999995 0.2646 239
2.0723 -8.5859 -1.1299 243
1.7988 -7.453099999999999 0.4434 83
2.0605 -8.5391 -0.9185 126
1.8075999999999999 -7.488300000000001 0.6255 186
2.0703 -8.5781 -0.7173 57
1.8154 -7.519500000000001 0.8086 40
1.7675999999999998 -7.324199999999999 -0.4355 25
1.8262 -7.5664 0.9956 29
1.7793 -7.3711 -0.26289999999999997 213
1.8397999999999999 -7.625 1.1895 140
1.7832 -7.390599999999999 -0.08800000000000001 102
1.8466999999999998 -7.6484000000000005 1.3799000000000001 28
2.4609 -10.3672 -1.8711000000000002 8
1.7763999999999998 -7.480499999999999 0.0891 184
2.0605 -8.6797 -1.3535 45
1.7881 -7.5273 0.2683 63
2.0645 -8.6953 -1.1445 44
1.7930000000000001 -7.550800000000001 0.449 207
2.0469 -8.6172 -0.9262999999999999 170
1.8047 -7.5977 0.6343 36
2.0684 -8.7109 -0.7275 110
1.8203 -7.6640999999999995 0.8231999999999999 213
1.7616999999999998 -7.417999999999999 -0.4409 138
1.8184 -7.6562 1.0068000000000001 92
1.7725 -7.4609000000000005 -0.2661 135
1.834 -7.7227 1.2041 178
1.7812000000000001 -7.5 -0.0892 106
1.8418 -7.7539 1.3975 6
2.4375 -10.406199999999998 -1.8769999999999998 162
1.7763999999999998 -7.578099999999999 0.0901 131
2.9608999999999996 -12.6406 -1.9727000000000001 231
1.7841999999999998 -7.613300000000001 0.2712 209
2.1074 -8.9922 -1.1816 146
1.7969 -7.667999999999999 0.4556 176
2.041 -8.7109 -0.9355 59
1.8066 -7.707000000000001 0.6431 183
2.0684 -8.8203 -0.7363 202
1.8144999999999998 -7.7422 0.8311 240
1.7646000000000002 -7.5273 -0.4473 86
1.8222999999999998 -7.7773 1.0225 77
1.7734 -7.5664 -0.2695 145
1.8378999999999999 -7.8398 1.2217 108
1.7832 -7.605499999999999 -0.09050000000000001 42
1.8486000000000002 -7.890599999999999 1.4209 151
2.4023 -10.398399999999999 -1.875 86
1.7783000000000002 -7.703099999999999 0.0916 116
2.9238 -12.664100000000001 -1.9756 24
1.7822 -7.7188 0.2749 133
2.0703 -8.9609 -1.1777 88
1.7930000000000001 -7.769500000000001 0.4612 155
3.457 -14.976600000000001 -1.6113 14
1.8047 -7.8164 0.6514 7
2.0645 -8.9375 -0.7456 97
1.8144999999999998 -7.859400000000001 0.8432999999999999 106
1.7637 -7.636699999999999 -0.4534 221
1.8222999999999998 -7.894500000000001 1.0361 12
1.7725 -7.675800000000001 -0.2732 78
1.8319999999999999 -7.9336 1.2354 51
1.7822 -7.7188 -0.0917 232
1.8466999999999998 -8.0 1.4404 54
2.3613 -10.414100000000001 -1.875 248
1.7725 -7.8164 0.0928 60
2.8613 -12.6172 -1.9658000000000002 134
1.7772999999999999 -7.8359000000000005 0.2788 167
3.623 -15.976600000000001 -2.1016 183
1.7881 -7.8828 0.4678 179
2.0938 -9.2266 -0.9902 35
1.8018 -7.9414 0.6616 209
2.0586 -9.0781 -0.7568 1
1.8066 -7.9609000000000005 0.8534999999999999 61
1.7597999999999998 -7.7578 -0.46020000000000005 219
1.8203 -8.0234 1.0527 202
1.7705000000000002 -7.8086 -0.2778 173
1.8311000000000002 -8.0703 1.2559 28
1.7705000000000002 -7.8086 -0.09269999999999999 167
1.8378999999999999 -8.1016 1.4580000000000002 133
2.3242 -10.414100000000001 -1.874 12
1.7725 -7.9414 0.0942 52
2.8202999999999996 -12.6406 -1.9678 34
1.7772999999999999 -7.9648 0.2832 54
3.5702999999999996 -16.0 -2.1035 44
1.7832 -7.9922 0.4736 189
1.7988 -8.0625 0.6709 184
2.0547 -9.2031 -0.7666 112
1.8096 -8.1094 0.8687 129
1.7529 -7.855499999999999 -0.4658 49
1.8135 -8.125 1.0654000000000001 102
1.7656 -7.9102 -0.2812 238
1.8241999999999998 -8.1719 1.2705 38
1.7734 -7.9453 -0.0943 190
1.8359 -8.2266 1.4794999999999998 236
2.2871 -10.414100000000001 -1.8730000000000002 93
1.7607 -8.0234 0.09519999999999999 249
2.7754000000000003 -12.648399999999999 -1.9678 87
1.7734 -8.0781 0.2871 168
3.5058999999999996 -15.968800000000002 -2.0977 159
1.7812000000000001 -8.1172 0.4807 248
1.7881 -8.1484 0.6777 240
2.0547 -9.3594 -0.7793000000000001 32
1.7997999999999998 -8.2031 0.8779 119
1.751 -7.9765999999999995 -0.47240000000000004 221
1.8027000000000002 -8.2109 1.0762 111
1.7637 -8.0312 -0.2854 210
1.8232 -8.3047 1.29 55
1.7694999999999999 -8.0625 -0.0956 209
1.8291 -8.3359 1.4971 43
2.25 -10.4219 -1.8730000000000002 156
1.7578 -8.1406 0.0966 135
2.7207 -12.6094 -1.96 89
1.7646000000000002 -8.1719 0.2903 22
3.4531 -16.0 -2.0996 164
1.7725 -8.2109 0.4861 125
3.1738 -14.7031 -1.5762 238
1.7881 -8.2812 0.6884999999999999 255
2.0566 -9.5234 -0.792 15
1.8008000000000002 -8.3438 0.8920999999999999 79
1.7471 -8.0938 -0.4792 192
1.8066 -8.3672 1.0957 117
1.7538999999999998 -8.125 -0.28859999999999997 219
1.8241999999999998 -8.4531 1.3115 160
1.7616999999999998 -8.1641 -0.0967 105
1.8330000000000002 -8.4922 1.5244 52
2.209 -10.414100000000001 -1.8691 232
1.7568000000000001 -8.2812 0.0981 49
2.6699 -12.585899999999999 -1.9550999999999998 126
1.7627000000000002 -8.3047 0.29469999999999996 162
3.3867000000000003 -15.960899999999999 -2.0938 151
1.7772999999999999 -8.375 0.49560000000000004 45
3.127 -14.7344 -1.5791 4
1.7861000000000002 -8.4141 0.6992 0
3.1933999999999996 -15.0469 -1.2529000000000001 201
1.8037 -8.5 0.9087000000000001 24
1.7461000000000002 -8.2266 -0.4866 41
1.8018 -8.4922 1.1113 129
1.7529 -8.2578 -0.2932 221
1.8163999999999998 -8.5625 1.3281 84
1.7588 -8.2891 -0.09820000000000001 212
1.8311000000000002 -8.625 1.5478999999999998 189
2.1738 -10.4297 -1.8711000000000002 251
1.7568000000000001 -8.4219 0.09970000000000001 9
2.623 -12.5781 -1.9531 244
1.7616999999999998 -8.4453 0.29960000000000003 143
3.3242000000000003 -15.9453 -2.0898 237
1.7725 -8.5 0.5024000000000001 75
3.1094 -14.914100000000001 -1.5966999999999998 223
1.7822 -8.5469 0.7095 158
3.0547000000000004 -14.648399999999999 -1.2187999999999999 134
1.7997999999999998 -8.6328 0.9218999999999999 188
1.7393 -8.3359 -0.4929 149
1.8027000000000002 -8.6406 1.1299 165
1.7538999999999998 -8.4141 -0.2983 140
1.8174000000000001 -8.7109 1.3506 40
1.7559 -8.4219 -0.09970000000000001 2
1.8271000000000002 -8.7656 1.5713 3
2.1348 -10.414100000000001 -1.8672 91
1.75 -8.5312 0.10099999999999999 158
2.5918 -12.6406 -1.9609 59
1.7607 -8.5859 0.3042 242
3.2656 -15.9219 -2.084 241
1.7686000000000002 -8.625 0.5097999999999999 162
3.0702999999999996 -14.968800000000002 -1.6016 185
1.791 -8.7344 0.7245999999999999 246
3.0 -14.625 -1.2158 69
1.791 -8.7344 0.9326000000000001 239
1.7393 -8.4844 -0.501 145
1.8027000000000002 -8.7891 1.1484 235
1.751 -8.5391 -0.3025 115
1.8203 -8.875 1.375 109
1.7538999999999998 -8.5547 -0.1012 132
1.8262 -8.9062 1.5957 238
2.1055 -10.4375 -1.8700999999999999 29
1.7412 -8.6328 0.10210000000000001 74
2.5352 -12.5703 -1.9482 36
1.7559 -8.7109 0.30829999999999996 88
3.2089999999999996 -15.906199999999998 -2.082 87
1.7656 -8.7578 0.5171 158
3.0195 -14.976600000000001 -1.6016 237
1.7694999999999999 -8.7734 0.7275 97
3.0233999999999996 -14.9922 -1.2451 101
1.7997999999999998 -8.9297 0.9526 234
1.7372999999999998 -8.6172 -0.5088 88
1.7969 -8.9141 1.1641 111
1.7450999999999999 -8.6562 -0.3064 90
1.8193000000000001 -9.0234 1.3975 59
1.7538999999999998 -8.6953 -0.10279999999999999 101
1.8241999999999998 -9.0469 1.6200999999999999 111
2.0684 -10.4531 -1.8721 101
1.7471 -8.8281 0.10439999999999999 233
2.4844 -12.5625 -1.9453 92
1.749 -8.8438 0.313 178
3.1406 -15.875 -2.0762 175
1.7637 -8.9141 0.5259 241
2.9551 -14.9453 -1.5966999999999998 171
1.7694999999999999 -8.9453 0.7412000000000001 121
2.9336 -14.8281 -1.2305 10
1.7959 -9.0781 0.9678 128
1.7383000000000002 -8.7812 -0.5186 176
1.7938999999999998 -9.0625 1.1836 35
1.7393 -8.7969 -0.31129999999999997 64
1.8086000000000002 -9.1406 1.415 64
1.7471 -8.8281 -0.10439999999999999 36
1.8213 -9.2031 1.6475 248
2.0332 -10.468800000000002 -1.8730000000000002 246
1.7441 -8.9844 0.1061 234
2.4434 -12.5781 -1.9472999999999998 167
1.7441 -8.9766 0.3176 228
3.0683999999999996 -15.7969 -2.0645 71
1.7597999999999998 -9.0625 0.5342 187
2.8789 -14.8203 -1.5830000000000002 252
1.7666 -9.1016 0.7534000000000001 189
2.8651999999999997 -14.7578 -1.2246 102
1.7871000000000001 -9.2031 0.9804999999999999 99
1.7266 -8.8906 -0.5244 51
1.7938999999999998 -9.2344 1.2051 95
1.7353999999999998 -8.9375 -0.31620000000000004 86
1.8056999999999999 -9.2969 1.4375 131
1.7402000000000002 -8.9609 -0.1058 90
1.8193000000000001 -9.3672 1.6758000000000002 217
1.9931999999999999 -10.468800000000002 -1.8721 199
1.7393 -9.1406 0.10779999999999999 217
2.4004 -12.6094 -1.9512 32
1.7402000000000002 -9.1406 0.32299999999999995 62
3.0098000000000003 -15.8125 -2.0645 124
1.7529 -9.2031 0.5425 185
2.8476999999999997 -14.9531 -1.5957 105
1.7666 -9.2812 0.7676000000000001 21
2.7754000000000003 -14.5703 -1.208 79
1.7793 -9.3438 0.9951000000000001 71
1.7216999999999998 -9.0391 -0.5327000000000001 192
1.7891 -9.3984 1.2256 242
1.7305000000000001 -9.0859 -0.32130000000000003 69
1.8018 -9.4609 1.4619 85
1.7334 -9.1094 -0.1075 199
1.8096 -9.5078 1.6982 125
1.9531 -10.460899999999999 -1.8681999999999999 138
1.7246000000000001 -9.2344 0.10890000000000001 178
2.3535 -12.601600000000001 -1.9482 63
1.7353999999999998 -9.2891 0.3281 243
2.9473000000000003 -15.781199999999998 -2.0586 254
1.751 -9.375 0.5522 64
2.8007999999999997 -14.9922 -1.5986000000000002 208
1.7637 -9.4453 0.7812 69
2.7207 -14.5625 -1.2061 243
1.7725 -9.4844 1.0098 239
1.7168 -9.1875 -0.5415 0
1.7783000000000002 -9.5234 1.2402 50
1.7256 -9.2422 -0.3264 85
1.8037 -9.6562 1.4912 229
1.7324000000000002 -9.2734 -0.1094 162
1.8096 -9.6875 1.7305000000000001 120
1.9188999999999998 -10.460899999999999 -1.8681999999999999 85
1.7285 -9.4297 0.1112 15
2.3066 -12.5781 -1.9434 117
1.7324000000000002 -9.4453 0.3335 227
2.8983999999999996 -15.8047 -2.0625 175
1.7402000000000002 -9.4922 0.5586 2
2.7422000000000004 -14.9531 -1.5937999999999999 52
1.7646000000000002 -9.625 0.7954000000000001 143
2.6757999999999997 -14.593800000000002 -1.208 234
1.7803 -9.7109 1.0332 30
1.7128999999999999 -9.3438 -0.5498 109
1.7793 -9.7031 1.2637 169
1.7197 -9.3828 -0.33130000000000004 113
1.8056999999999999 -9.8516 1.5205000000000002 56
1.7294999999999998 -9.4375 -0.11130000000000001 87
1.8096 -9.8672 1.7616999999999998 72
1.8799000000000001 -10.4531 -1.8652000000000002 4
1.7207 -9.5625 0.1127 122
2.2656 -12.593800000000002 -1.9453 135
1.7313999999999998 -9.625 0.3396 36
2.8438 -15.8047 -2.0605 186
1.7461000000000002 -9.7031 0.5713 198
2.6914 -14.960899999999999 -1.5928 160
1.7568000000000001 -9.7656 0.8066 55
2.6738 -14.851600000000001 -1.2295 151
1.7772999999999999 -9.875 1.0508 4
1.7119 -9.5156 -0.5596 14
1.7803 -9.8906 1.2881 237
1.7197 -9.5547 -0.33740000000000003 90
1.7969 -9.9844 1.541 59
1.7305000000000001 -9.6172 -0.1133 20
1.8105000000000002 -10.0625 1.7959 89
1.8457 -10.4844 -1.8691 100
1.7236000000000002 -9.7812 0.1152 142
2.2246 -12.625 -1.9482 161
1.7246000000000001 -9.7891 0.3452 122
2.7812 -15.781199999999998 -2.0566 63
1.7383000000000002 -9.8672 0.5806 196
2.6191000000000004 -14.875 -1.5830000000000002 55
1.7568000000000001 -9.9766 0.8237000000000001 107
2.623 -14.898399999999999 -1.2314 0
1.7705000000000002 -10.0547 1.0684 101
1.7061000000000002 -9.6875 -0.5693 174
1.7753999999999999 -10.0781 1.3115 170
1.7147999999999999 -9.7344 -0.3435 179
1.7891 -10.1562 1.5663999999999998 93
1.7207 -9.7656 -0.1151 154
1.8047 -10.25 1.8271000000000002 153
1.8047 -10.460899999999999 -1.8643 82
1.7178 -9.9531 0.11720000000000001 248
2.1758 -12.6094 -1.9453 20
1.7207 -9.9688 0.35159999999999997 170
2.7129000000000003 -15.718800000000002 -2.0469 203
1.7324000000000002 -10.0391 0.5903 255
2.5293 -14.656199999999998 -1.5586000000000002 64
1.7529 -10.1562 0.8384 46
2.582 -14.960899999999999 -1.2363 82
1.7588 -10.1953 1.082 92
1.7002000000000002 -9.8516 -0.5791 175
1.7725 -10.273399999999999 1.3359 229
1.71 -9.9062 -0.3494 114
1.7871000000000001 -10.3594 1.5966999999999998 214
1.7138999999999998 -9.9297 -0.11689999999999999 74
1.8008000000000002 -10.4375 1.8603999999999998 178
1.7656 -10.4531 -1.8613 24
1.71 -10.1172 0.1191 121
2.1328 -12.625 -1.9463 48
1.7147999999999999 -10.1484 0.3577 56
2.6562 -15.718800000000002 -2.0449 160
1.7294999999999998 -10.2344 0.6011 18
2.4727 -14.6328 -1.5547 10
1.749 -10.351600000000001 0.8540000000000001 110
3.0683999999999996 -18.1719 -1.501 240
1.7666 -10.460899999999999 1.1104 15
1.7012 -10.0703 -0.5913 183
1.7686000000000002 -10.468800000000002 1.3603999999999998 231
1.7061000000000002 -10.0938 -0.3557 200
1.791 -10.593800000000002 1.6328 104
1.71 -10.1172 -0.1191 204
1.8008000000000002 -10.656199999999998 1.8984 26
1.7313999999999998 -10.468800000000002 -1.8643 57
1.6991999999999998 -10.281199999999998 0.1209 250
2.0859 -12.6094 -1.9424000000000001 86
1.71 -10.335899999999999 0.3643 167
2.6055 -15.7578 -2.0488 245
1.7256 -10.4297 0.6128 161
2.4238 -14.656199999999998 -1.5566 153
1.749 -10.5781 0.8721 240
3.0039 -18.1719 -1.501 63
1.7705000000000002 -10.7031 1.1357 59
1.6953 -10.25 -0.6021 155
1.7656 -10.6797 1.3866999999999998 252
1.7002000000000002 -10.281199999999998 -0.36210000000000003 74
1.7812000000000001 -10.773399999999999 1.6582 218
1.7050999999999998 -10.3125 -0.1213 124
1.7891 -10.8125 1.9258000000000002 59
1.6924000000000001 -10.4531 -1.8594 193
1.7031 -10.5156 0.12369999999999999 233
2.0391 -12.585899999999999 -1.9375 219
1.71 -10.5547 0.3716 60
2.5273 -15.601600000000001 -2.0273 176
1.7256 -10.656199999999998 0.6255 105
2.3965 -14.789100000000001 -1.5703 68
1.7353999999999998 -10.710899999999999 0.8828 166
2.332 -14.398399999999999 -1.1875 100
1.7480000000000002 -10.7969 1.1445 13
1.6943000000000001 -10.460899999999999 -0.6143 233
1.7588 -10.8594 1.4091999999999998 70
1.6953 -10.468800000000002 -0.36840000000000006 23
1.7772999999999999 -10.976600000000001 1.6894999999999998 48
1.7050999999999998 -10.531199999999998 -0.12380000000000001 152
1.7988 -11.1094 1.9766 81
1.6582 -10.460899999999999 -1.8594 227
1.6953 -10.6953 0.1257 113
2.0 -12.6094 -1.9404 81
1.6972999999999998 -10.7031 0.37670000000000003 192
2.4922 -15.710899999999999 -2.041 162
1.71 -10.789100000000001 0.6328 254
2.375 -14.976600000000001 -1.5888999999999998 143
1.7372999999999998 -10.960899999999999 0.9028 112
2.2812 -14.3906 -1.1865 197
1.7607 -11.101600000000001 1.1768 176
1.6904 -10.656199999999998 -0.625 77
1.7616999999999998 -11.1094 1.4413999999999998 99
1.6885 -10.648399999999999 -0.37479999999999997 36
1.7812000000000001 -11.2344 1.7285 202
1.6953 -10.6953 -0.1257 239
1.8300999999999998 -11.5469 2.0527 32
1.6172 -10.4453 -1.8563999999999998 35
1.7012 -10.9844 0.1292 225
1.9541 -12.6172 -1.9404 26
1.6934 -10.9375 0.3848 47
2.4102 -15.5781 -2.0215 113
1.7128999999999999 -11.0625 0.6489 78
2.3086 -14.914100000000001 -1.5811000000000002 199
1.7324000000000002 -11.1953 0.9214 220
2.2383 -14.460899999999999 -1.1914 122
1.7519999999999998 -11.3203 1.1992 176
1.6846 -10.8828 -0.6382 202
1.7549000000000001 -11.335899999999999 1.4707 163
1.6846 -10.8828 -0.38280000000000003 85
1.7783000000000002 -11.4844 1.7656 251
1.6904 -10.914100000000001 -0.1283 245
1.7891 -11.5547 2.0547 75
1.5811000000000002 -10.4531 -1.8563999999999998 237
1.6836000000000002 -11.1328 0.1307 120
1.9102000000000001 -12.6328 -1.9413999999999998 203
1.6934 -11.1953 0.3936 44
2.373 -15.6875 -2.0352 155
1.7061000000000002 -11.281199999999998 0.6611 108
2.2559 -14.914100000000001 -1.5811000000000002 120
1.7216999999999998 -11.3828 0.937 35
2.3125 -15.2969 -1.2598 126
1.749 -11.5625 1.2246 211
1.6768 -11.085899999999999 -0.6498999999999999 116
1.749 -11.5703 1.499 134
1.6816 -11.1172 -0.3909 167
1.7725 -11.718800000000002 1.8008000000000002 18
1.6875 -11.164100000000001 -0.1311 150
1.5391 -10.4297 -1.8516 209
1.6806999999999999 -11.3906 0.1338 16
1.8555000000000001 -12.585899999999999 -1.9325999999999999 43
1.6865 -11.4375 0.4019 116
2.3203 -15.726600000000001 -2.0391 67
1.6963 -11.5 0.6738 144
2.1387 -14.5078 -1.5361000000000002 235
1.7187999999999999 -11.648399999999999 0.9584999999999999 20
1.75 -11.8672 1.2559 92
1.6641 -11.281199999999998 -0.6611 156
1.7431999999999999 -11.8203 1.5312000000000001 58
1.6709 -11.3281 -0.3982 176
1.7646000000000002 -11.960899999999999 1.8369 145
1.6787 -11.3828 -0.13369999999999999 239
1.5029 -10.4453 -1.8535 233
1.6688999999999998 -11.593800000000002 0.1361 195
1.8086000000000002 -12.5625 -1.9297 0
1.6768 -11.648399999999999 0.4092 40
2.123 -14.75 -1.9111000000000002 116
1.6943000000000001 -11.773399999999999 0.6895 245
2.0879 -14.5 -1.5352000000000001 87
1.71 -11.875 0.9765999999999999 142
1.7305000000000001 -12.023399999999999 1.2715 221
1.6631 -11.5547 -0.6768000000000001 182
1.7344 -12.0547 1.5605000000000002 175
1.666 -11.5781 -0.4065 34
1.7559 -12.2031 1.8730000000000002 12
1.6728999999999998 -11.625 -0.1365 111
1.4678 -10.4453 -1.8525 75
1.6680000000000001 -11.8672 0.1393 182
1.7675999999999998 -12.5781 -1.9306999999999999 196
1.6719 -11.898399999999999 0.4177 93
2.0645 -14.6875 -1.9022999999999999 208
1.6885 -12.0156 0.7031000000000001 22
2.0352 -14.4844 -1.5322 230
1.7012 -12.101600000000001 0.9945999999999999 248
1.7246000000000001 -12.273399999999999 1.2978999999999998 243
1.6621000000000001 -11.8281 -0.6923999999999999 39
1.7334 -12.335899999999999 1.5966999999999998 122
1.6602000000000001 -11.8125 -0.41479999999999995 37
1.6680000000000001 -11.8672 -0.1393 207
1.4297 -10.4219 -1.8466999999999998 199
1.6494 -12.031199999999998 0.1411 20
1.7275 -12.593800000000002 -1.9316 234
1.6641 -12.1328 0.42579999999999996 214
2.0215 -14.7344 -1.9072 178
1.6846 -12.281199999999998 0.7182999999999999 47
1.9883000000000002 -14.4922 -1.5332 125
1.7031 -12.414100000000001 1.0195 216
2.0234 -14.7578 -1.2129 30
1.7275 -12.593800000000002 1.3319999999999999 222
1.6572 -12.0781 -0.7065 187
1.7334 -12.6328 1.6347999999999998 167
1.6562000000000001 -12.0703 -0.4238 139
1.791 -13.0625 2.0039 20
1.6602000000000001 -12.1094 -0.142 182
1.3877000000000002 -10.414100000000001 -1.8457 253
1.6522999999999999 -12.406199999999998 0.1454 136
1.6728999999999998 -12.5547 -1.9247999999999998 111
1.6621000000000001 -12.468800000000002 0.4375 70
1.959 -14.7031 -1.9022999999999999 65
1.6738 -12.5625 0.7349 175
1.9346 -14.5156 -1.5341999999999998 101
1.7002000000000002 -12.7578 1.0479 94
1.7158000000000002 -12.875 1.3603999999999998 77
1.6416 -12.3125 -0.7202 190
1.7236000000000002 -12.9375 1.6738 78
1.6465 -12.351600000000001 -0.43329999999999996 238
1.6513999999999998 -12.3906 -0.14529999999999998 78
1.3506 -10.414100000000001 -1.8447 181
1.6288999999999998 -12.5625 -1.9247999999999998 127
1.6494 -12.718800000000002 0.446 116
1.9072 -14.7031 -1.9022999999999999 79
1.6699000000000002 -12.875 0.7524 41
1.8994 -14.648399999999999 -1.5478999999999998 234
1.6913999999999998 -13.039100000000001 1.0703 120
1.916 -14.773399999999999 -1.2129 91
1.7216999999999998 -13.273399999999999 1.4022999999999999 4
1.6366999999999998 -12.6172 -0.7378 34
1.7207 -13.2656 1.7158000000000002 252
1.6377000000000002 -12.625 -0.4429 120
1.6465 -12.6875 -0.14880000000000002 42
10.2266 -78.875 14.0156 233
1.3163999999999998 -10.4219 -1.8447 46
1.6436000000000002 -13.0078 0.1525 186
1.5878999999999999 -12.5703 -1.9247999999999998 25
1.6484 -13.0469 0.4575 14
1.8691 -14.7969 -1.9131 65
1.6641 -13.1719 0.77 38
1.8643 -14.7578 -1.5586000000000002 176
1.6768 -13.273399999999999 1.0889 185
1.8936000000000002 -14.9922 -1.2305 153
1.6904 -13.3828 1.4131 103
1.6299000000000001 -12.906199999999998 -0.7544 104
1.7119 -13.5469 1.751 77
1.6299000000000001 -12.898399999999999 -0.4521 180
1.6425999999999998 -13.0 -0.1523 53
1.2841999999999998 -10.4375 -1.8477000000000001 101
1.6309 -13.2578 0.15539999999999998 197
1.5381 -12.5078 -1.915 234
1.6328 -13.281199999999998 0.4653 159
1.6522999999999999 -13.4375 0.7852 194
1.7861000000000002 -14.523399999999999 -1.5332 111
1.6728999999999998 -13.601600000000001 1.1162 129
1.7061000000000002 -13.875 1.4647999999999999 51
1.6288999999999998 -13.2422 -0.7739 233
1.709 -13.898399999999999 1.7959 123
1.6269999999999998 -13.2344 -0.4639 18
1.6299000000000001 -13.25 -0.1553 56
1.2461 -10.4453 -1.8477000000000001 12
1.4950999999999999 -12.539100000000001 -1.9188999999999998 191
1.6328 -13.6953 0.48 250
1.7559 -14.726600000000001 -1.9022999999999999 159
1.6484 -13.8203 0.8070999999999999 88
1.7294999999999998 -14.5 -1.5303 251
1.6680000000000001 -13.9844 1.1465 237
1.7519999999999998 -14.6875 -1.2051 7
1.6152000000000002 -13.5469 -0.7909999999999999 68
1.7002000000000002 -14.2578 1.8418 103
1.6152000000000002 -13.5469 -0.4746 246
1.6211000000000002 -13.593800000000002 -0.1592 93
1.2061 -10.4297 -1.8437999999999999 126
1.4512 -12.539100000000001 -1.9188999999999998 84
1.6035 -13.8594 0.4854 122
1.7041 -14.7344 -1.9022999999999999 61
1.6366999999999998 -14.1406 0.8256999999999999 245
1.6825999999999999 -14.539100000000001 -1.5332 40
1.6621000000000001 -14.3672 1.1777 43
1.6875 -14.5781 1.5381 222
1.6016 -13.843800000000002 -0.8081 105
1.7275 -14.9297 1.9277000000000002 248
1.6063999999999998 -13.8828 -0.4863 232
1.6143 -13.9453 -0.16329999999999997 78
1.1709 -10.4453 -1.8457 38
1.4053 -12.531199999999998 -1.916 243
1.6094 -14.351600000000001 0.5024000000000001 153
1.6533000000000002 -14.7344 -1.9022999999999999 16
1.6269999999999998 -14.5078 0.8467 48
1.6279 -14.5156 -1.5303 229
1.6387 -14.6094 1.1973 197
1.5937999999999999 -14.210899999999999 -0.8295999999999999 109
1.5947 -14.218800000000002 -0.4978 91
1.6035 -14.289100000000001 -0.1672 31
1.1367 -10.460899999999999 -1.8486000000000002 197
1.3603999999999998 -12.523399999999999 -1.9141 7
1.5830000000000002 -14.5703 0.5103 198
1.6016 -14.7422 -1.9022999999999999 56
1.6162 -14.875 0.8676999999999999 67
1.6436000000000002 -15.1328 1.2393 119
1.5869 -14.6094 -0.8521 220
1.5830000000000002 -14.5781 -0.5103 17
1.5859 -14.601600000000001 -0.1709 172
1.0996 -10.460899999999999 -1.8466999999999998 101
1.3163999999999998 -12.531199999999998 -1.9141 132
1.5811000000000002 -15.0469 0.5264 167
1.5497999999999998 -14.75 -1.9022999999999999 183
1.6103999999999998 -15.3281 0.894 112
1.6006 -15.2344 -1.6055000000000001 227
1.5713 -14.9453 -1.2236 22
1.5752000000000002 -14.9922 -0.8745 137
1.5713 -14.9531 -0.5234000000000001 166
1.5830000000000002 -15.0547 -0.1761 38
1.0615 -10.4453 -1.8437999999999999 128
1.2676 -12.4844 -1.9062000000000001 191
1.5791 -15.5469 0.5439 241
1.5888999999999998 -15.6406 -2.0156 124
1.6025 -15.781199999999998 0.9198999999999999 35
1.5478999999999998 -15.2422 -1.6055000000000001 99
1.6162 -15.906199999999998 1.3027000000000002 154
1.5459 -15.210899999999999 -1.2451 222
1.5625 -15.3828 -0.897 61
1.5615 -15.3672 -0.5376 158
1.5713 -15.476600000000001 -0.18100000000000002 178
1.0234 -10.4375 -1.8418 180
1.2236 -12.4844 -1.9062000000000001 12
1.5575999999999999 -15.8828 0.5557 13
1.54 -15.7031 -2.0254 99
1.5918 -16.2344 0.9462999999999999 140
1.6055000000000001 -16.375 -1.7256 224
1.6055000000000001 -16.375 -1.3408000000000002 232
1.5508000000000002 -15.8203 -0.9224 202
1.5488 -15.789100000000001 -0.5522 236
1.5547 -15.851600000000001 -0.18539999999999998 2
0.9873000000000001 -10.4453 -1.8428 228
1.1787 -12.476600000000001 -1.9043 198
1.5644999999999998 -16.5469 0.5786 126
1.4785 -15.6406 -2.0156 144
1.5859 -16.7812 0.978 26
1.5488 -16.3906 -1.7256 126
1.6200999999999999 -17.1406 1.4022999999999999 128
1.5518 -16.4062 -1.3428 127
1.6455000000000002 -17.4062 1.8330000000000002 204
1.5322 -16.2188 -0.9448000000000001 251
1.5341999999999998 -16.2344 -0.5674 121
1.541 -16.3125 -0.1907 17
0.9512 -10.4453 -1.8428 6
1.1348 -12.460899999999999 -1.9022999999999999 85
1.5518 -17.0469 0.5962 150
1.4258000000000002 -15.6719 -2.0176 171
1.5684 -17.2344 1.0039 141
1.9238 -21.1406 -2.2266 48
1.5263999999999998 -16.7656 -0.9771 175
1.5234 -16.7344 -0.585 222
1.5459 -16.9844 -0.1986 255
0.9155 -10.460899999999999 -1.8447 36
1.0937999999999999 -12.5078 -1.9072 36
1.3681999999999999 -15.6406 -2.0137 229
1.8516 -21.1562 -2.2285 54
1.5303 -17.4844 -1.0186 58
1.5078 -17.2344 -0.6025 128
0.8809 -10.468800000000002 -1.8447 83
1.0537 -12.523399999999999 -1.9091999999999998 70
1.3174000000000001 -15.648399999999999 -2.0156 99
1.7852000000000001 -21.2188 -2.2324 180
0.8442000000000001 -10.4531 -1.8408000000000002 148
1.0127 -12.531199999999998 -1.9102000000000001 102
1.2646 -15.656199999999998 -2.0156 205
1.7041 -21.0938 -2.2188 251
4.3203 -53.4375 -3.1172000000000004 73
0.8066 -10.460899999999999 -1.8428 186
0.9639 -12.5 -1.9053 154
1.2051 -15.625 -2.0098 4
5.2852 -68.5625 3.998 123
1.6269999999999998 -21.0938 -2.2188 6
0.7709999999999999 -10.476600000000001 -1.8447 13
0.917 -12.460899999999999 -1.8984 52
1.1475 -15.585899999999999 -2.0039 104
0.7363 -10.476600000000001 -1.8447 73
0.8759999999999999 -12.468800000000002 -1.8994 243
1.0937999999999999 -15.5625 -2.002 0
0.7012 -10.476600000000001 -1.8437999999999999 46
0.8359000000000001 -12.4922 -1.9022999999999999 193
1.04 -15.539100000000001 -1.9980000000000002 179
4.6055 -68.8125 4.0078 50
1.4053 -20.9844 -2.2051 210
0.6616 -10.460899999999999 -1.8408000000000002 183
0.7909999999999999 -12.5078 -1.9043 192
0.9819 -15.523399999999999 -1.9950999999999999 238
0.6265 -10.4844 -1.8447 88
0.7471 -12.5 -1.9033000000000002 61
0.9277 -15.523399999999999 -1.9950999999999999 148
0.5879 -10.4844 -1.8447 145
0.6997 -12.476600000000001 -1.8994 176
0.8711 -15.531199999999998 -1.9950999999999999 237
1.1738 -20.9219 -2.1992 224
0.5513 -10.4844 -1.8447 72
0.6587000000000001 -12.523399999999999 -1.9062000000000001 120
0.8159000000000001 -15.523399999999999 -1.9941 54
1.1006 -20.9375 -2.1992 121
0.5151 -10.4922 -1.8447 33
0.6152000000000001 -12.531199999999998 -1.9062000000000001 169
0.7626999999999999 -15.531199999999998 -1.9950999999999999 58
1.0166 -20.7188 -2.1758 17
0.4778 -10.4844 -1.8428 206
0.5718 -12.539100000000001 -1.9072 235
0.7075 -15.5156 -1.9931999999999999 129
0.9448000000000001 -20.7344 -2.1758 205
2.2812 -50.0625 -2.9141000000000004 97
0.4412 -10.4844 -1.8428 95
0.5249 -12.476600000000001 -1.8975 127
0.6523 -15.5 -1.9893 89
0.8726 -20.7344 -2.1758 19
0.4048 -10.4844 -1.8428 15
0.4832 -12.523399999999999 -1.9043 30
0.5977 -15.4844 -1.9872999999999998 239
0.8022 -20.7812 -2.1816 248
0.3679 -10.4844 -1.8418 233
0.4395 -12.523399999999999 -1.9043 161
0.5429999999999999 -15.476600000000001 -1.9863 80
0.7256 -20.6719 -2.1699 102
0.3318 -10.5 -1.8457 242
0.39549999999999996 -12.5156 -1.9033000000000002 4
0.488 -15.4453 -1.9824000000000002 113
0.6523 -20.6406 -2.166 147
0.29960000000000003 -10.531199999999998 -1.8506 125
0.35719999999999996 -12.5469 -1.9072 180
0.5874 -20.6406 -2.166 230
0.136 -5.4102 -0.6909000000000001 202
0.5186 -20.625 -2.1641 76
0.1152 -5.4140999999999995 -0.6909000000000001 192
0.09390000000000001 -5.2773 -0.7983 153
0.09539999999999998 -5.355499999999999 -0.6836 106
0.07490000000000001 -5.167999999999999 -0.7817000000000001 116
0.0767 -5.2890999999999995 -0.6748000000000001 89
0.0575 -5.144500000000001 -0.7783 52
0.0583 -5.2148 -0.6655 181
0.0069 -0.9355 -0.1576 102
0.037200000000000004 -5.0781 -0.7681 86
0.0378 -5.1523 -0.6572 103
0.0472 -6.4336 -0.3718 174
0.0036 -0.9277 -0.1561 48
0.0194 -5.0586 -0.7646 155
0.0197 -5.1328 -0.6548 169
0.0223 -5.8047 -0.4705 126
0.024399999999999998 -6.355499999999999 -0.36719999999999997 173
0.0003 -0.9043000000000001 -0.152 111
0.0018 -5.0469 -0.7631999999999999 73
0.0018 -5.1328 -0.6548 180
0.002 -5.734400000000001 -0.4646 167
-0.0027 -0.8726 -0.1465 20
-0.0159 -5.0586 -0.7651 209
-0.016 -5.0859 -0.6484000000000001 44
-0.0178 -5.6602 -0.4587 82
-0.0059 -0.8959999999999999 -0.1506 236
-0.0335 -5.0547 -0.7642 189
-0.0337 -5.0742 -0.6475 224
-0.037000000000000005 -5.5859000000000005 -0.4526 92
-0.0415 -6.2578 -0.3616 1
-0.0089 -0.8843000000000001 -0.14859999999999998 69
-0.0508 -5.0234 -0.7598 37
-0.052199999999999996 -5.1562 -0.6577 175
-0.0565 -5.582000000000001 -0.4521 84
-0.0629 -6.2148 -0.3589 96
-0.06570000000000001 -6.484400000000001 -0.22469999999999998 119
-0.0121 -0.8920999999999999 -0.1499 122
-0.0684 -5.0234 -0.7598 104
-0.076 -5.5859000000000005 -0.4526 129
-0.087 -6.394500000000001 -0.2214 62
-0.0152 -0.8881999999999999 -0.1492 241
-0.0861 -5.0312 -0.7612000000000001 48
-0.08800000000000001 -5.140599999999999 -0.6557999999999999 104
-0.095 -5.5586 -0.45020000000000004 147
-0.0184 -0.9077 -0.1527 234
-0.1017 -5.0234 -0.7598 238
-0.1025 -5.0625 -0.6455 211
-0.11199999999999999 -5.5312 -0.4482 89
-0.1283 -6.3359000000000005 -0.366 150
-0.1323 -6.5352 -0.0756 82
-0.0208 -0.8843000000000001 -0.14859999999999998 224
-0.11869999999999999 -5.0391 -0.7622 236
-0.1193 -5.0625 -0.6459999999999999 253
-0.1304 -5.5312 -0.4482 195
-0.1483 -6.292999999999999 -0.3635 93
-0.1552 -6.582000000000001 -0.0761 31
-0.0258 -0.9351 -0.1576 21
-0.1388 -5.0312 -0.7606999999999999 34
-0.1404 -5.0898 -0.6494 128
-0.15259999999999999 -5.5312 -0.4482 134
-0.1736 -6.292999999999999 -0.3635 3
-0.20149999999999998 -7.3086 -0.2534 58
-0.0292 -0.9351 -0.1576 55
-0.156 -4.9922 -0.7554000000000001 158
-0.158 -5.0547 -0.645 55
-0.17379999999999998 -5.5625 -0.4509 39
-0.0323 -0.9351 -0.1576 58
-0.17300000000000001 -5.0039 -0.7573000000000001 83
-0.19030000000000002 -5.5078 -0.44630000000000003 73
-0.2189 -6.332000000000001 -0.366 170
-0.0326 -0.856 -0.1437 59
-0.1913 -5.0234 -0.7603 22
-0.1953 -5.1289 -0.6548 46
-0.2104 -5.5312 -0.4482 86
-0.0351 -0.8481000000000001 -0.1423 225
-0.2778 -6.7148 0.07769999999999999 45
-0.20739999999999997 -5.0078 -0.7583 57
-0.2126 -5.136699999999999 -0.6557999999999999 216
-0.2257 -5.453099999999999 -0.4421 132
-0.30219999999999997 -7.3047 -0.2534 13
-0.0378 -0.8442000000000001 -0.1416 141
-0.29710000000000003 -6.6484000000000005 0.07690000000000001 41
-0.2236 -5.0 -0.7568 2
-0.2305 -5.1562 -0.6581999999999999 146
-0.2446 -5.4727 -0.44380000000000003 196
-0.3257 -7.2852 -0.2529 178
-0.0424 -0.8755 -0.1471 150
-0.325 -6.7148 0.07769999999999999 137
-0.2412 -4.9883 -0.7548999999999999 247
-0.2605 -5.3828 -0.4365 244
-0.3528 -7.292999999999999 -0.2532 166
-0.048499999999999995 -0.9340999999999999 -0.1576 182
-0.3467 -6.6797 0.07730000000000001 168
-0.2576 -4.9648 -0.752 106
-0.2788 -5.375 -0.436 32
-0.37770000000000004 -7.2812 -0.2527 145
-0.0496 -0.8989 -0.1514 114
-0.37060000000000004 -6.7109000000000005 0.07769999999999999 85
-0.2766 -5.0078 -0.7583 20
-0.2759 -5.0 -0.6386999999999999 80
-0.2966 -5.375 -0.436 108
-0.40409999999999996 -7.3203 -0.25420000000000004 94
-0.051500000000000004 -0.8789 -0.1478 130
-0.38939999999999997 -6.6523 0.077 176
-0.2922 -4.9922 -0.7559 180
-0.292 -4.9922 -0.6377 39
-0.314 -5.363300000000001 -0.4353 127
-0.4268 -7.2890999999999995 -0.2532 175
-0.0583 -0.9336 -0.1576 137
-0.41600000000000004 -6.667999999999999 0.07719999999999999 252
-0.31079999999999997 -4.9844 -0.7548999999999999 137
-0.314 -5.0312 -0.6431 251
-0.3335 -5.3438 -0.4336 248
-0.45530000000000004 -7.300800000000001 -0.25370000000000004 92
-0.0592 -0.8979 -0.1514 157
-0.4375 -6.640599999999999 0.07690000000000001 71
-0.325 -4.9297 -0.7471 92
-0.3301 -5.0078 -0.6401 158
-0.33299999999999996 -5.0547 -0.5278 110
-0.3508 -5.324199999999999 -0.4321 48
-0.478 -7.2539 -0.252 91
-0.0622 -0.8959999999999999 -0.151 92
-0.4617 -6.6523 0.0771 168
-0.3423 -4.9297 -0.7471 72
-0.3442 -4.9609 -0.6338 135
-0.3506 -5.0508 -0.5278 242
-0.3716 -5.3515999999999995 -0.4346 75
-0.5034000000000001 -7.2578 -0.2522 165
-0.0645 -0.8837999999999999 -0.1489 103
-0.4841 -6.640599999999999 0.077 137
-0.366 -5.0195 -0.7612000000000001 124
-0.3601 -4.9375 -0.6313 154
-0.36619999999999997 -5.0234 -0.5249 136
-0.3901 -5.3515999999999995 -0.4346 91
-0.5297999999999999 -7.265599999999999 -0.2527 197
-0.067 -0.8759999999999999 -0.1475 176
-0.5034000000000001 -6.5898 0.0764 60
-0.38530000000000003 -5.043 -0.7646 119
-0.3801 -4.9727 -0.6362 156
-0.3811 -4.9844 -0.521 131
-0.4082 -5.3438 -0.4341 175
-0.5576 -7.296900000000001 -0.25370000000000004 183
-0.0703 -0.8794 -0.1482 31
-0.5303 -6.6328 0.07690000000000001 64
-0.3997 -5.0 -0.7583 136
-0.4031 -5.043 -0.645 48
-0.3975 -4.9727 -0.5195000000000001 64
-0.4224 -5.2852 -0.4294 225
-0.0745 -0.8931 -0.1506 50
-0.5498 -6.5898 0.0764 89
-0.4175 -5.0039 -0.7587999999999999 165
-0.4163 -4.9883 -0.6382 112
-0.41479999999999995 -4.9727 -0.5195000000000001 62
-0.4436 -5.3164 -0.4321 218
-0.0781 -0.8989 -0.1516 183
-0.5742 -6.605499999999999 0.0766 186
-0.4353 -5.0039 -0.7598 142
-0.4302 -4.9453 -0.6333 184
-0.4343 -4.9922 -0.5225 35
-0.4631 -5.324199999999999 -0.43310000000000004 206
-0.0795 -0.8809 -0.14859999999999998 4
-0.5942000000000001 -6.578099999999999 0.0764 67
-0.45189999999999997 -5.0039 -0.7598 194
-7.1953 -79.6875 2.793 159
-0.44799999999999995 -4.9609 -0.6353 124
-0.4517 -5.0039 -0.5234000000000001 80
-0.4797 -5.3125 -0.4321 39
-0.0828 -0.8843000000000001 -0.1492 21
-0.6172 -6.5938 0.0765 117
-0.4683 -5.0 -0.7593000000000001 193
-0.46409999999999996 -4.957 -0.6347999999999999 68
-0.49729999999999996 -5.3125 -0.4321 230
-0.4707 -4.8359 -0.8495999999999999 250
-0.6401 -6.574199999999999 0.0764 39
-0.4866 -5.0 -0.7593000000000001 132
-0.48100000000000004 -4.9414 -0.6333 185
-0.519 -5.332000000000001 -0.4341 59
-0.48460000000000003 -4.8047 -0.8438 22
-0.6679999999999999 -6.6211 0.07690000000000001 152
-0.5 -4.957 -0.7534000000000001 93
-0.5029 -4.9844 -0.6392 41
-0.5054 -5.0117 -0.5249 252
-0.5352 -5.3086 -0.4321 220
-0.6157 -6.105499999999999 -0.3542 31
-0.6812 -6.75 -0.0784 9
-0.49950000000000006 -4.793 -0.8423 80
-0.6884999999999999 -6.605499999999999 0.0768 122
-0.5181 -4.9727 -0.7559 2
-0.519 -4.9805 -0.6386999999999999 159
-0.5259 -5.043 -0.5283 90
-0.5503 -5.2812 -0.4302 205
-0.687 -6.5898 -0.0766 60
-0.5151 -4.7891 -0.8423 113
-0.7153 -6.6523 0.07730000000000001 90
-0.5322 -4.9453 -0.752 104
-5.386699999999999 -50.0625 1.7568000000000001 83
-0.5347 -4.9727 -0.6377 63
-0.5415 -5.0352 -0.5278 67
-0.5684 -5.2852 -0.4304 141
-0.6528 -6.0703 -0.3525 211
-0.7119 -6.6211 -0.077 172
-0.5356000000000001 -4.8086 -0.8456999999999999 84
-0.7343999999999999 -6.5898 0.0766 203
-0.5557 -4.9844 -0.7583 135
-0.5590999999999999 -5.0156 -0.644 13
-0.5586 -5.0117 -0.5254 174
-0.5874 -5.269500000000001 -0.4294 167
-0.7339 -6.5859000000000005 -0.0766 151
-0.5513 -4.793 -0.8432999999999999 193
-0.7587999999999999 -6.5977 0.0768 155
-0.5728 -4.9805 -0.7583 141
-0.5796 -5.0391 -0.647 123
-0.5722999999999999 -4.9766 -0.522 102
-0.6108 -5.3125 -0.43310000000000004 100
-0.7568 -6.582000000000001 -0.0766 31
-0.5684 -4.7969 -0.8442000000000001 76
-0.7822 -6.5977 0.0768 112
-0.5884 -4.9648 -0.7559 99
-0.5967 -5.0312 -0.6465000000000001 43
-6.015599999999999 -50.75 2.9707 232
-0.5962 -5.0273 -0.5278 23
-0.6279 -5.296900000000001 -0.4321 227
-0.7793000000000001 -6.574199999999999 -0.0765 13
-0.5854 -4.7969 -0.8447 50
-0.8022 -6.574199999999999 0.0765 24
-0.6079 -4.9805 -0.7587999999999999 4
-0.6133 -5.0234 -0.6455 164
-5.582000000000001 -45.7188 2.6776999999999997 155
-0.6138 -5.0273 -0.5278 201
-0.6465000000000001 -5.296900000000001 -0.4321 33
-0.8042 -6.5898 -0.0767 244
-0.6025 -4.7969 -0.8452 108
-0.8286 -6.5977 0.0768 59
-0.6255 -4.9805 -0.7587999999999999 2
-6.171900000000001 -49.1562 1.7275 16
-0.6309 -5.0195 -0.6455 82
-5.738300000000001 -45.6875 2.6757999999999997 152
-0.6372 -5.0703 -0.5327000000000001 146
-0.6626000000000001 -5.2734000000000005 -0.4304 12
-0.8198000000000001 -6.5273 -0.076 18
-0.6318 -4.8945 -0.8628 198
-0.8491 -6.574199999999999 0.0766 45
-0.644 -4.9844 -0.7598 251
-6.2461 -48.3438 1.7012 115
-0.6494 -5.0273 -0.6465000000000001 37
-0.6518999999999999 -5.0469 -0.5303 241
-6.4765999999999995 -50.1562 4.1289 194
-0.6875 -5.3203 -0.4346 254
-0.8447 -6.5390999999999995 -0.0762 72
-0.6577 -4.957 -0.8745 73
-0.8721 -6.5703 0.0766 236
-0.6577 -4.9531 -0.7559 157
-0.6640999999999999 -5.0039 -0.6436 131
-6.0390999999999995 -45.5 2.668 115
-0.6659999999999999 -5.0195 -0.5278 198
-6.6289 -49.9375 4.1133 226
-0.7017 -5.2890999999999995 -0.4321 26
-0.8706 -6.5586 -0.0765 228
-0.6685 -4.9062 -0.8656999999999999 116
-0.8955 -6.574199999999999 0.0767 112
-0.6797 -4.9883 -0.7612000000000001 255
-6.5039 -47.75 1.6806999999999999 124
-0.6777 -4.9766 -0.6401 7
-6.2734000000000005 -46.0625 2.7012 100
-0.6836 -5.0195 -0.5278 19
-0.7182999999999999 -5.269500000000001 -0.4307 2
-0.9434 -6.921900000000001 -0.2422 147
-0.6714 -4.8086 -0.8486 31
-0.9209 -6.5938 0.077 93
-0.6938 -4.9688 -0.7587999999999999 62
-6.2227 -44.5625 1.5693000000000001 201
-0.6929000000000001 -4.9609 -0.6386999999999999 149
-6.4297 -46.0312 2.7031 241
-0.7001999999999999 -5.0156 -0.5278 148
-7.0352 -50.375 4.1523 182
-0.7378 -5.2812 -0.4321 56
-0.9575 -6.855499999999999 -0.23989999999999997 142
-0.6851 -4.7891 -0.8456999999999999 74
-0.9395 -6.5664 0.0767 194
-0.7114 -4.9766 -0.7598 231
-6.363300000000001 -44.5 1.5674000000000001 185
-0.71 -4.9648 -0.6396000000000001 94
-6.546900000000001 -45.75 2.6875 140
-0.7241 -5.0625 -0.5332 9
-0.7554000000000001 -5.2812 -0.4321 23
-0.9819 -6.863300000000001 -0.2404 110
-0.9893000000000001 -6.9140999999999995 -0.0808 167
-0.7021 -4.7852 -0.8452 114
-0.9648 -6.574199999999999 0.0768 63
-0.728 -4.957 -0.7578 203
-0.7265999999999999 -4.9492 -0.6382 102
-6.675800000000001 -45.4688 2.6719 171
-0.7354 -5.0117 -0.5278 137
-0.7798 -5.3125 -0.4351 201
-1.0059 -6.855499999999999 -0.2402 135
-0.7217 -4.8008 -0.8486 165
-0.9917 -6.5938 0.0771 239
-0.7465999999999999 -4.9648 -0.7593000000000001 54
-6.6289 -44.0938 1.5556999999999999 11
-0.7451000000000001 -4.9531 -0.6392 232
-6.7539 -44.9375 2.6406 191
-0.7529 -5.0078 -0.5278 163
-0.8012999999999999 -5.332000000000001 -0.4365 107
-1.0322 -6.8672 -0.2407 33
-0.7432 -4.8281 -0.8540000000000001 104
-1.0117 -6.5703 0.0768 172
-0.7656000000000001 -4.9766 -0.7612000000000001 126
-6.832000000000001 -44.375 1.5663999999999998 81
-0.7666 -4.9805 -0.6426000000000001 196
-6.9102 -44.9062 2.6406 148
-0.7705 -5.0039 -0.5278 207
-7.4648 -48.5 4.0039 17
-0.8173999999999999 -5.3125 -0.4353 144
-0.9945999999999999 -6.4609000000000005 -0.2266 119
-0.7548999999999999 -4.793 -0.8481000000000001 118
-1.0361 -6.582000000000001 0.077 249
-0.7793000000000001 -4.9492 -0.7573000000000001 157
-6.9336 -44.0312 1.5547 170
-0.7929999999999999 -5.0352 -0.6498999999999999 43
-0.7876000000000001 -5.0039 -0.5278 74
-7.5859000000000005 -48.1562 3.9805 84
-0.8334999999999999 -5.292999999999999 -0.4341 78
-1.0156 -6.4453 -0.2261 93
-0.7748999999999999 -4.8047 -0.8506 12
-1.0645 -6.6015999999999995 0.07730000000000001 233
-0.8086 -5.0156 -0.7681 33
-0.8086 -5.0156 -0.6479 78
-7.4336 -46.125 2.7148000000000003 243
-0.8062 -5.0 -0.5278 216
-0.8589 -5.324199999999999 -0.43700000000000006 254
-6.644500000000001 -41.1875 5.363300000000001 231
-1.041 -6.457000000000001 -0.2267 235
-0.79 -4.793 -0.8495999999999999 94
-1.084 -6.578099999999999 0.0771 94
-0.8262 -5.0117 -0.7681 150
-7.363300000000001 -44.6875 1.5791 37
-0.8276 -5.0195 -0.6489 60
-7.5977 -46.0938 2.7148000000000003 201
-0.8237000000000001 -4.9961 -0.5278 60
-7.519500000000001 -45.625 3.7733999999999996 228
-0.8721 -5.2890999999999995 -0.4343 48
-6.730499999999999 -40.8438 5.3203 118
-1.0654000000000001 -6.4609000000000005 -0.22690000000000002 28
-0.8062 -4.793 -0.8495999999999999 73
-1.1074 -6.582000000000001 0.0771 106
-0.8393999999999999 -4.9883 -0.7651 55
-0.8462000000000001 -5.0312 -0.6504000000000001 37
-7.730499999999999 -45.9688 2.7089999999999996 33
-7.6289 -45.3438 3.752 218
-0.895 -5.3203 -0.43700000000000006 93
-6.8164 -40.5 5.2773 206
-0.8428 -4.9102 -0.8711 163
-1.127 -6.5625 0.077 128
-0.8573999999999999 -4.9961 -0.7661 54
-0.8656999999999999 -5.043 -0.6528 248
-7.671900000000001 -44.6875 2.6367000000000003 128
-0.9120999999999999 -5.3125 -0.4365 229
-6.4140999999999995 -37.375 3.9805 145
-1.123 -6.542999999999999 -0.23 104
-1.29 -7.515599999999999 -0.0883 103
-0.8442000000000001 -4.8125 -0.8540000000000001 233
-1.1553 -6.5859000000000005 0.07730000000000001 203
-0.8740000000000001 -4.9844 -0.7651 152
-8.0859 -46.0938 1.6328 168
-0.8813 -5.0234 -0.6509 3
-8.2656 -47.125 2.7812 177
-6.074199999999999 -34.625 2.8672000000000004 212
-0.9272 -5.2852 -0.4346 137
-6.546900000000001 -37.3125 3.9766000000000004 149
-7.175800000000001 -40.9062 5.3359000000000005 234
-0.8599 -4.8008 -0.853 226
-1.1806999999999999 -6.5938 0.0775 70
-0.8959999999999999 -5.0039 -0.7686 172
-7.0547 -39.4062 1.3965 201
-0.9014 -5.0352 -0.6523 254
-6.9648 -38.9062 2.2969 27
-0.8926000000000001 -4.9844 -0.5278 219
-6.1953 -34.5938 2.8672000000000004 19
-0.9448000000000001 -5.2773 -0.4343 43
-6.6484000000000005 -37.125 3.9608999999999996 70
-1.4003999999999999 -7.8203 -0.2756 190
-1.3652000000000002 -7.6289 -0.0897 219
-0.9014 -4.9336 -0.877 94
-1.2041 -6.5938 0.0775 57
-0.9140999999999999 -5.0039 -0.769 165
-7.1836 -39.3125 1.3944999999999999 204
-0.9224 -5.0508 -0.6548 199
-7.113300000000001 -38.9375 2.3008 133
-0.9097 -4.9805 -0.5278 137
-6.292999999999999 -34.4688 2.8574 22
-0.9761 -5.3438 -0.44020000000000004 125
-6.7852 -37.1562 3.9648000000000003 51
-7.3164 -40.0625 5.234400000000001 204
-1.416 -7.7539 -0.2734 140
-1.3984 -7.6562 -0.0901 77
-0.9165000000000001 -4.9219 -0.875 81
-1.2246 -6.574199999999999 0.07730000000000001 111
-0.9307 -4.9961 -0.7686 79
-7.3398 -39.4062 1.3984 169
-0.9414 -5.0547 -0.6557999999999999 113
-7.2890999999999995 -39.1562 2.3145 52
-6.4140999999999995 -34.4375 2.8574 2
-0.9878 -5.3047 -0.43700000000000006 171
-6.9140999999999995 -37.125 3.9648000000000003 75
-1.1455 -6.1484000000000005 -0.3613 17
-1.4316 -7.6836 -0.2712 178
-1.3563999999999998 -7.2852 -0.0858 23
-0.9126000000000001 -4.8164 -0.8569 233
-1.248 -6.5898 0.0775 243
-0.9487000000000001 -5.0078 -0.7705 131
-0.9575 -5.0547 -0.6562 176
-8.3516 -44.0938 2.6094 90
-1.0078 -5.3203 -0.4385 132
-6.9414 -36.625 3.9141000000000004 214
-1.1611 -6.125 -0.3601 0
-0.9272 -4.8047 -0.8554999999999999 10
-1.2725 -6.5938 0.0776 128
-0.9736 -5.0469 -0.7773 106
-0.9712000000000001 -5.0352 -0.6543000000000001 253
-6.7422 -34.9375 2.9043 18
-1.0332 -5.355499999999999 -0.44189999999999996 197
-7.230499999999999 -37.4688 4.0078 226
-1.1816 -6.1211 -0.3601 120
-7.699199999999999 -39.9062 5.2227 4
-0.9462999999999999 -4.8086 -0.8569 211
-1.3008000000000002 -6.609400000000001 0.0779 97
-0.9883 -5.0234 -0.7739 120
-8.2578 -41.9688 1.4912 220
-0.9897 -5.0312 -0.6543000000000001 237
-7.0859000000000005 -36.0 2.1328 78
-1.0488 -5.332000000000001 -0.44020000000000004 130
-0.9653 -4.8203 -0.8589 4
-1.0059 -5.0195 -0.7739 219
-8.3984 -41.9062 1.4912 150
-1.0039 -5.0117 -0.6518999999999999 15
-7.4102 -37.0 2.1914 35
-8.1953 -40.9062 3.4023000000000003 251
-1.0703 -5.3438 -0.4414 223
-7.4062 -36.9688 3.957 85
-1.3330000000000002 -6.6523 -0.0784 19
-0.9829000000000001 -4.8164 -0.8589 195
-1.0283 -5.0391 -0.7778 98
-1.0283 -5.0391 -0.6557999999999999 99
-6.953099999999999 -34.0312 2.0195 22
-1.0332 -5.0586 -0.5381 140
-1.1074 -5.421900000000001 -0.4482 19
-7.6172 -37.2812 4.8906 27
-1.3574000000000002 -6.6484000000000005 -0.0784 201
-0.9984999999999999 -4.8047 -0.8579000000000001 117
-1.0488 -5.0469 -0.7793000000000001 238
-8.9531 -43.0625 1.5341999999999998 10
-1.0566 -5.0859 -0.6626000000000001 26
-7.050800000000001 -33.9375 2.0137 61
-1.1181999999999999 -5.3789 -0.4451 61
-7.0664 -34.0 3.6445 66
-7.761699999999999 -37.3438 4.9023 41
-1.0186 -4.8164 -0.8604 110
-9.9453 -47.0312 0.5615 212
-1.0742 -5.082 -0.7856000000000001 158
-8.4688 -40.0625 1.4277000000000002 21
-1.0732 -5.0781 -0.6620999999999999 157
-7.1875 -33.9688 2.0176 167
-7.824199999999999 -37.0 3.0858999999999996 42
-1.1328 -5.355499999999999 -0.4434 110
-7.1875 -34.0 3.6464999999999996 28
-7.9765999999999995 -37.7188 4.9531 108
-1.3866999999999998 -6.5547 -0.0775 198
-1.0391 -4.832 -0.8637999999999999 89
-1.0928 -5.082 -0.7861 7
-8.6172 -40.0625 1.4297 35
-1.085 -5.043 -0.6581999999999999 75
-7.269500000000001 -33.8125 2.0098 92
-7.292999999999999 -33.9062 2.8301 189
-1.1582 -5.386699999999999 -0.44630000000000003 8
-3.5332 -16.4219 -0.1956 116
-1.0527 -4.8164 -0.8618000000000001 167
-1.0986 -5.0273 -0.7783 119
-8.5469 -39.0938 1.3955000000000002 80
-1.0752 -4.9219 -0.6426000000000001 219
-7.363300000000001 -33.6875 2.0039 150
-7.4023 -33.8438 2.8281 28
-1.1816 -5.4062 -0.4482 46
-3.582 -16.3906 -0.19519999999999998 147
-1.0674 -4.8047 -0.8604 133
-1.0918 -4.918 -0.7617 68
-1.0918 -4.918 -0.6426000000000001 48
-7.480499999999999 -33.6875 2.0059 85
-7.390599999999999 -33.2812 2.7812 156
-1.2129 -5.4609000000000005 -0.4531 178
-7.8398 -35.3125 3.7969 242
-7.5312 -33.9062 4.4648 230
-1.4491999999999998 -6.5273 -0.23170000000000002 65
-3.6172000000000004 -16.2969 -0.1942 148
-1.0859 -4.8125 -0.8628 111
-8.8984 -39.4375 0.4719 138
-1.1055 -4.8984 -0.7593000000000001 159
-1.126 -4.9922 -0.6523 139
-7.5390999999999995 -33.4062 1.9902000000000002 119
-7.5078 -33.25 2.7812 26
-1.2187999999999999 -5.3984000000000005 -0.4482 180
-7.636699999999999 -33.8438 4.457 61
-1.4443000000000001 -6.3984000000000005 -0.22719999999999999 26
-3.6757999999999997 -16.2812 -0.1943 149
-1.1045 -4.8203 -0.8647 46
-1.1348 -4.9492 -0.7681 3
-9.3047 -40.5625 2.4199 206
-1.2363 -5.394500000000001 -0.4482 219
-9.0703 -39.5938 4.2617 143
-7.769500000000001 -33.9062 4.4688 131
-3.7245999999999997 -16.25 -0.19399999999999998 195
-1.1220999999999999 -4.8086 -0.8633 134
-1.1699 -5.0117 -0.7783 130
-1.1592 -4.9648 -0.6504000000000001 25
-8.0156 -34.3125 2.0488 206
-1.2871000000000001 -5.511699999999999 -0.4587 159
-7.890599999999999 -33.8125 3.6445 82
-1.4404 -6.167999999999999 -0.366 55
-7.9102 -33.875 4.4688 138
-3.7870999999999997 -16.2188 -0.19399999999999998 171
-1.1396 -4.8008 -0.8628 143
-1.1806999999999999 -4.9766 -0.7734000000000001 39
-1.1797 -4.9688 -0.6514 158
-8.6484 -36.4375 2.1758 219
-1.3232 -5.578099999999999 -0.4646 79
-1.4805000000000001 -6.238300000000001 -0.3704 108
-8.0234 -33.8125 4.4648 111
-3.8516000000000004 -16.2344 -0.1942 118
-1.1562000000000001 -4.8008 -0.8633 219
-9.5234 -39.5625 0.47490000000000004 140
-1.1992 -4.9766 -0.7744 9
-1.207 -5.0117 -0.6577 10
-8.4609 -35.1562 2.1016 49
-7.925800000000001 -32.9062 2.7617000000000003 23
-1.3418 -5.574199999999999 -0.4646 25
-9.0156 -37.4375 4.043 52
-8.2969 -34.4688 4.5547 145
-3.9141000000000004 -16.25 -0.1946 201
-1.2187999999999999 -4.9844 -0.7764 220
-8.9766 -36.7188 1.3184 72
-10.5703 -43.2188 2.5858999999999996 17
-8.0234 -32.8125 2.7558999999999996 78
-1.3613 -5.5703 -0.4646 57
-1.5488 -6.332000000000001 -0.37670000000000003 60
-8.6719 -35.4688 4.6914 204
-3.9707 -16.25 -0.1946 46
-14.281199999999998 -57.625 0.6934 153
-1.2373 -4.9922 -0.7778 91
-9.0156 -36.375 1.3066 255
-1.2676 -5.1133 -0.6724 124
-8.4844 -34.2188 2.0488 113
-8.125 -32.7812 2.7558999999999996 148
-1.3975 -5.636699999999999 -0.4707 229
-9.2891 -37.5 4.0547 239
-1.5663999999999998 -6.3203 -0.3762 131
-14.3594 -57.9375 7.671900000000001 1
-4.0234 -16.2344 -0.1948 91
-1.2607 -5.0156 -0.7817000000000001 8
