# .PCD v0.7 - Point Cloud Data file format
VERSION 0.7
FIELDS x y z intensity
SIZE 4 4 4 4
TYPE F F F F
COUNT 1 1 1 1
WIDTH 1292
HEIGHT 1
VIEWPOINT 0 0 0 1 0 0 0
POINTS 1292
DATA ascii
-13.718800000000002 -40.3125 -1.4853999999999998 65
-13.5625 -39.8438 6.4140999999999995 32
-13.718800000000002 -40.3438 -0.49729999999999996 41
-2.9551 -8.5859 -1.5947 232
-2.9648000000000003 -8.6172 -1.3828 63
-12.0625 -35.0625 2.1543 14
-13.6094 -39.5625 3.4141000000000004 156
-3.1445 -9.1406 -0.7856000000000001 87
-13.539100000000001 -39.3438 -2.418 35
-13.5547 -39.4062 5.355499999999999 232
-13.8828 -40.3438 -1.4883000000000002 89
-13.5547 -39.4062 6.3477 243
-13.8828 -40.3438 -0.498 41
-13.539100000000001 -39.3438 7.328099999999999 194
-2.9941000000000004 -8.6016 -1.5986000000000002 46
-12.718800000000002 -36.5312 0.4514 201
-13.5781 -39.0312 1.4404 183
-12.1328 -34.875 2.1445 185
-13.593800000000002 -39.0625 3.373 165
-3.1289 -8.9844 -0.7734000000000001 126
-13.5703 -39.0 4.3359 105
-13.5703 -39.0 -2.4004 0
-13.5625 -38.9688 5.300800000000001 75
-13.5703 -38.9688 -1.4394999999999998 228
-13.5547 -38.9688 6.2812 59
-13.5625 -38.9688 -0.4814 175
-13.5 -38.7812 7.234400000000001 54
-3.0176 -8.5859 -1.5966999999999998 15
-13.5469 -38.5312 1.4247999999999998 139
-12.25 -34.8438 2.1465 220
-13.5781 -38.625 3.3398000000000003 31
-3.5058999999999996 -9.9766 -0.8599 27
-13.5156 -38.4375 4.2773 119
-13.539100000000001 -38.5 -2.373 184
-13.585899999999999 -38.625 5.261699999999999 244
-13.539100000000001 -38.5 -1.4238 63
-13.5156 -38.4375 6.207000000000001 197
-13.5469 -38.5312 -0.4768 94
-13.460899999999999 -38.2812 7.1484000000000005 38
-3.0547000000000004 -8.6016 -1.6016 193
-12.906199999999998 -36.3125 0.4497 198
-13.523399999999999 -38.0625 1.4091999999999998 52
-13.656199999999998 -38.4375 2.3711 51
-13.5469 -38.125 3.3007999999999997 27
-3.543 -9.9766 -0.8608 4
-13.4922 -37.9688 4.2305 98
-13.523399999999999 -38.0625 -2.3477 218
-13.601600000000001 -38.2812 -1.4169999999999998 138
-13.4922 -37.9688 6.140599999999999 180
-13.585899999999999 -38.2188 -0.4736 165
-13.4531 -37.875 7.078099999999999 86
-3.0879000000000003 -8.5859 -1.6016 95
-13.023399999999999 -36.2188 0.44920000000000004 225
-13.539100000000001 -37.6562 1.3955000000000002 92
-13.75 -38.2188 2.3613 175
-13.539100000000001 -37.6562 3.2637 81
-3.5839999999999996 -9.9609 -0.8613 83
-13.5 -37.5312 4.1875 93
-13.5156 -37.5938 -2.3223 212
-13.4922 -37.5312 6.074199999999999 158
-13.4531 -37.4062 7.0 0
-3.2051 -8.8203 -1.6465 113
-13.148399999999999 -36.1562 0.44920000000000004 1
-2.9433999999999996 -8.0938 -1.3066 237
-13.531199999999998 -37.2188 1.3809 239
-13.5469 -37.25 2.3027 179
-13.539100000000001 -37.25 3.2344 93
-3.623 -9.9609 -0.8623000000000001 34
-13.4844 -37.0625 4.1406 154
-13.5 -37.125 -2.2969 173
-13.5 -37.125 5.0781 106
-13.4922 -37.0938 -0.46090000000000003 70
-13.4297 -36.9375 6.921900000000001 186
-3.2382999999999997 -8.8125 -1.6484 112
-13.273399999999999 -36.125 0.44920000000000004 224
-13.5078 -36.75 1.3662 225
-13.5547 -36.875 2.2832 201
-13.5156 -36.7812 3.1973000000000003 89
-3.6699 -9.9844 -0.8656999999999999 107
-13.476600000000001 -36.6562 4.1016 54
-13.4922 -36.7188 -2.2734 176
-13.5078 -36.75 -1.3652000000000002 121
-13.4922 -36.7188 -0.45649999999999996 170
-9.2422 -25.1406 4.7188 108
-3.2226999999999997 -8.6719 -1.624 141
-13.3906 -36.0312 0.4487 182
-13.4922 -36.3438 1.3516 67
-13.539100000000001 -36.4375 2.2598 123
-13.5 -36.3438 3.1620999999999997 229
-3.7031 -9.9688 -0.8647 47
-13.468800000000002 -36.25 4.0586 51
-13.4844 -36.3125 -2.25 23
-13.468800000000002 -36.25 4.9688 139
-13.4844 -36.3125 -1.3506 11
-13.4922 -36.3125 -0.4521 22
-13.4531 -36.2188 6.8047 210
-3.2285000000000004 -8.6016 -1.6122999999999998 19
-13.531199999999998 -36.0312 0.44920000000000004 90
-13.476600000000001 -35.9062 1.3369 10
-13.523399999999999 -36.0312 2.2363 129
-13.5156 -36.0 3.1367000000000003 29
-13.468800000000002 -35.875 4.0234 25
-13.4844 -35.9062 -2.2285 116
-9.4141 -25.0625 3.4375 231
-13.4922 -35.9375 -1.3388999999999998 3
-13.468800000000002 -35.875 5.8359000000000005 61
-13.476600000000001 -35.875 -0.4473 110
-13.468800000000002 -35.875 6.75 49
-3.2207 -8.4844 -1.5928 142
-13.531199999999998 -35.6562 0.44530000000000003 82
-13.5 -35.5938 1.3271000000000002 154
-13.523399999999999 -35.6562 2.2148 41
-13.539100000000001 -35.6562 3.1132999999999997 209
-13.5625 -35.75 4.0117 13
-13.4297 -35.4062 -2.1992 195
-9.5 -25.0312 3.4375 208
-13.4844 -35.5312 -1.3252000000000002 222
-13.5781 -35.7812 5.828099999999999 65
-13.468800000000002 -35.5 -0.44310000000000005 90
-13.4922 -35.5625 6.699199999999999 92
-3.2108999999999996 -8.3828 -1.5752000000000002 96
-9.5859 -25.0156 0.3123 108
-13.585899999999999 -35.4688 1.3241999999999998 54
-13.648399999999999 -35.5938 2.2168 179
-13.6719 -35.6562 3.1151999999999997 230
-9.5703 -24.9688 3.4355 103
-13.585899999999999 -35.4375 -1.3241999999999998 139
-13.7422 -35.8438 5.8477 10
-13.593800000000002 -35.4688 -0.44310000000000005 213
-13.476600000000001 -35.1562 6.6328 244
-3.0293 -7.828099999999999 -1.4727000000000001 38
-9.6406 -24.9062 0.9312 113
-9.6484 -24.9375 1.5527000000000002 145
-9.6641 -24.9688 2.1836 183
-9.6641 -24.9688 2.8086 229
-9.6562 -24.9531 3.4355 120
-9.6016 -24.8125 -0.9272 204
-13.875 -35.8438 5.855499999999999 6
-9.5938 -24.7969 -0.31010000000000004 209
-13.4531 -34.75 6.5664 24
-9.7188 -24.8281 0.9297 207
-9.7422 -24.8906 1.5527000000000002 245
-2.9531 -7.542999999999999 -0.8467 200
-9.7734 -24.9531 3.4414 80
-9.6953 -24.7656 -0.9272 130
-14.0156 -35.8125 5.855499999999999 212
-9.6953 -24.7656 -0.31010000000000004 126
-13.4531 -34.375 6.5 224
-13.5703 -34.3125 1.2861000000000002 135
-14.085899999999999 -35.5938 2.2246 12
-14.0781 -35.5938 3.123 6
-9.8828 -24.9844 3.4512 249
-14.023399999999999 -35.4688 5.8086 232
-14.0156 -35.4375 -0.4448 4
-13.4453 -34.0 6.4375 65
-2.9707 -7.4375 -1.4053 184
-13.531199999999998 -33.875 1.2725 148
-14.085899999999999 -35.2812 2.207 104
-14.0625 -35.2188 3.0938 67
-14.031199999999998 -35.125 -0.44170000000000004 8
-13.460899999999999 -33.7188 6.394500000000001 149
-14.0703 -34.875 0.439 31
-13.539100000000001 -33.5625 1.2617 164
-14.0625 -34.875 2.1855 174
-14.0547 -34.875 3.0664 219
-13.476600000000001 -33.4375 3.7832 77
-10.0859 -25.0156 3.4629000000000003 161
-14.023399999999999 -34.7812 -0.43770000000000003 158
-13.4219 -33.2812 6.3203 151
-14.093800000000002 -34.5938 0.436 90
-13.539100000000001 -33.25 1.252 13
-14.156199999999998 -34.75 2.1816 34
-14.039100000000001 -34.4688 3.0370999999999997 126
-3.0156 -7.4023 -0.6494 233
-13.406199999999998 -32.9062 3.7305 178
-13.3281 -32.7188 4.5391 8
-14.0625 -34.5312 -0.4351 102
-13.351600000000001 -32.7812 6.234400000000001 174
-13.4297 -32.6562 0.4121 246
-13.3906 -32.5625 1.2275 112
-13.406199999999998 -32.5938 2.0488 154
-13.398399999999999 -32.5938 2.873 165
-13.3828 -32.5625 3.6952999999999996 140
-13.3203 -32.4062 4.5 217
-13.351600000000001 -32.4688 5.3477 72
-13.3594 -32.5 -0.40990000000000004 120
-13.335899999999999 -32.4375 6.175800000000001 7
-13.414100000000001 -32.2812 0.408 143
-13.414100000000001 -32.2812 1.2187999999999999 57
-13.414100000000001 -32.2812 2.0312 9
-13.3828 -32.2188 2.8457 127
-13.375 -32.1875 3.6601999999999997 228
-13.3203 -32.0625 4.4609 254
-13.343800000000002 -32.125 5.296900000000001 2
-13.3594 -32.1562 -0.40619999999999995 107
-13.343800000000002 -32.125 6.125 217
-13.4375 -32.0312 0.4053 43
-13.3906 -31.9062 1.207 112
-13.406199999999998 -31.9531 2.0137 101
-13.3672 -31.8594 2.8183999999999996 230
-13.3594 -31.8438 3.625 92
-13.3203 -31.7344 4.4219 37
-13.335899999999999 -31.7812 5.25 176
-13.351600000000001 -31.8281 -0.40259999999999996 155
-13.3281 -31.7812 6.0703 130
-13.406199999999998 -31.625 0.4006 203
-13.398399999999999 -31.625 1.1973 146
-13.398399999999999 -31.625 1.9950999999999999 188
-13.3906 -31.5781 2.7988 194
-13.3672 -31.5312 3.5957 120
-13.3125 -31.4062 4.3828 110
-13.343800000000002 -31.4844 5.207000000000001 226
-13.343800000000002 -31.4844 -0.39890000000000003 174
-13.3047 -31.3906 6.0039 13
-13.3828 -31.2656 0.397 9
-13.3828 -31.2656 1.1855 74
-13.3906 -31.2969 1.9775 26
-13.375 -31.25 2.7733999999999996 139
-13.351600000000001 -31.2031 3.5625 68
-13.3047 -31.0781 4.3438 196
-13.3281 -31.1406 5.1602 65
-13.343800000000002 -31.1719 -0.3958 29
-13.3203 -31.125 5.9609000000000005 113
-13.3906 -31.0 0.39399999999999996 203
-13.375 -30.9688 1.1758 255
-13.3828 -30.9844 1.9619 228
-13.351600000000001 -30.9219 2.748 16
-13.335899999999999 -30.8906 3.5312 130
-13.3125 -30.8281 4.3125 46
-13.3203 -30.8438 5.1172 159
-13.335899999999999 -30.875 -0.3926 196
-13.3125 -30.8281 5.9140999999999995 3
-13.398399999999999 -30.7344 0.3911 0
-13.3594 -30.6406 1.165 40
-13.3672 -30.6719 1.9443000000000001 110
-13.335899999999999 -30.5938 2.7226999999999997 18
-13.3281 -30.5781 3.5 221
-13.3047 -30.5312 4.2773 123
-13.3047 -30.5312 5.0703 176
-13.3125 -30.5469 -0.3889 72
-13.289100000000001 -30.5 5.859400000000001 47
-13.375 -30.375 0.3872 101
-13.3594 -30.3438 1.1562000000000001 9
-13.3672 -30.3438 1.9268 215
-13.343800000000002 -30.2969 2.7012 13
-13.3203 -30.2344 3.4688 191
-3.2754000000000003 -7.4375 -0.4702 81
-13.335899999999999 -30.2812 4.25 113
-13.3047 -30.2031 5.0273 88
-13.3125 -30.2344 -0.38549999999999995 159
-13.2969 -30.1875 5.8086 103
-13.3906 -30.1094 0.3845 198
-13.3672 -30.0625 1.1465 155
-13.3281 -29.9844 1.9062000000000001 86
-13.335899999999999 -30.0 2.6776999999999997 233
-3.2988 -7.421900000000001 -0.6597 189
-13.3203 -29.9531 3.4414 35
-3.3516000000000004 -7.5390999999999995 -0.4775 222
-13.3047 -29.9219 4.207 206
-13.3125 -29.9375 4.9922 162
-13.3125 -29.9375 -0.3823 172
-13.289100000000001 -29.8906 5.761699999999999 215
-13.375 -29.8125 0.38130000000000003 198
-13.343800000000002 -29.7344 1.1367 100
-13.3047 -29.6562 1.8887 187
-13.3594 -29.7656 2.6620999999999997 2
-3.3457 -7.4609000000000005 -0.6640999999999999 177
-13.3203 -29.6875 3.4160000000000004 216
-3.3495999999999997 -7.4688 -0.47340000000000004 79
-13.2969 -29.6562 4.1758 30
-13.289100000000001 -29.625 4.9453 234
-13.2969 -29.6406 -0.3789 60
-13.281199999999998 -29.6094 5.7148 91
-13.351600000000001 -29.5156 0.3779 101
-13.3281 -29.4531 1.127 239
-13.2969 -29.375 1.874 1
-13.3047 -29.3906 2.6308999999999996 153
-3.3476999999999997 -7.3984000000000005 -0.6597 198
-13.3125 -29.4062 3.3887 152
-13.281199999999998 -29.3438 4.1367 83
-13.273399999999999 -29.3281 4.9023 29
-13.289100000000001 -29.3594 -0.376 171
-13.2656 -29.3125 5.6640999999999995 151
-13.343800000000002 -29.2031 0.37450000000000006 143
-13.335899999999999 -29.1875 1.1191 86
-13.3047 -29.1094 1.8594 9
-13.3203 -29.1406 2.6132999999999997 214
-13.2969 -29.0938 3.3574 55
-13.281199999999998 -29.0625 4.1055 243
-3.1816000000000004 -6.9609000000000005 -0.26539999999999997 130
-13.289100000000001 -29.0781 4.8672 223
-13.289100000000001 -29.0781 -0.373 126
-13.3047 -29.1094 5.636699999999999 140
-2.8574 -6.199199999999999 -1.1963 67
-13.3281 -28.9062 0.3713 36
-13.3281 -28.8906 1.1094 242
-13.3281 -28.8906 1.8486000000000002 56
-13.343800000000002 -28.9375 2.5995999999999997 151
-13.3594 -28.9688 3.3495999999999997 244
-13.3828 -29.0156 4.1055 47
-13.3906 -29.0312 4.8711 57
-13.2969 -28.8281 -0.3704 160
-13.414100000000001 -29.0938 5.640599999999999 22
-2.8808999999999996 -6.1914 -1.1963 14
-13.414100000000001 -28.8125 1.1084 225
-13.4297 -28.8594 1.8486000000000002 55
-13.460899999999999 -28.9219 2.6016000000000004 197
-13.4844 -28.9688 3.3535000000000004 113
-13.4922 -28.9844 4.1055 10
-13.5078 -29.0312 4.875 1
-13.375 -28.7344 -0.3699 7
-13.523399999999999 -29.0625 5.644500000000001 251
-2.9219 -6.2188 -1.2041 223
-13.5469 -28.8281 0.3716 62
-2.9023000000000003 -6.1797 -1.0342 38
-13.5625 -28.875 1.1123 107
-13.5469 -28.8438 1.8516 97
-13.585899999999999 -28.9219 2.6055 46
-3.0683999999999996 -6.5312 -0.5859000000000001 152
-13.601600000000001 -28.9688 3.3594 169
-13.6094 -28.9688 4.1133 140
-13.6406 -29.0469 4.8867 32
-13.656199999999998 -29.0625 5.6562 188
-2.9238 -6.167999999999999 -1.1963 167
-2.9238 -6.167999999999999 -1.0342 214
-13.6719 -28.8438 1.1123 251
-13.6719 -28.8438 1.8544999999999998 200
-2.9785000000000004 -6.2852 -0.7261 207
-13.7031 -28.9062 2.6094 94
-13.726600000000001 -28.9688 3.3651999999999997 229
-13.7344 -28.9688 4.1172 90
-13.7656 -29.0469 4.8945 164
-13.6328 -28.7656 -0.3713 47
-13.773399999999999 -29.0625 5.6640999999999995 145
-2.8574 -5.9765999999999995 -1.1602 113
-13.781199999999998 -28.8125 1.1133 24
-13.7969 -28.8594 1.8584 252
-13.8203 -28.8906 2.6132999999999997 187
-13.851600000000001 -28.9688 3.3711 106
-13.8594 -28.9688 4.125 209
-13.875 -29.0156 4.8984 59
-13.75 -28.7344 -0.3716 251
-13.906199999999998 -29.0781 5.675800000000001 194
-2.8535000000000004 -5.9140999999999995 -1.1504 135
-13.898399999999999 -28.7969 1.1152 39
-13.914100000000001 -28.8438 1.8603999999999998 122
-13.9531 -28.9062 2.6191000000000004 7
-3.8379000000000003 -7.953099999999999 -0.7178 26
-13.968800000000002 -28.9375 3.373 116
-13.9844 -28.9844 4.1328 220
-14.0 -29.0 4.9062 134
-13.8906 -28.7812 -0.3728 36
-14.023399999999999 -29.0625 5.6836 57
-2.8495999999999997 -5.8515999999999995 -1.1406 6
-14.0469 -28.8594 0.37450000000000006 146
-2.9882999999999997 -6.136699999999999 -1.0342 108
-13.085899999999999 -26.875 1.042 123
-14.039100000000001 -28.8281 1.8633000000000002 106
-14.0781 -28.9062 2.623 98
-3.873 -7.953099999999999 -0.7188 255
-14.085899999999999 -28.9375 3.377 152
-14.093800000000002 -28.9531 4.1367 73
-14.1328 -29.0312 4.918 134
-14.1406 -29.0469 5.6914 44
-2.8516000000000004 -5.8047 -1.1328 73
-13.148399999999999 -26.7656 0.3479 165
-3.0273000000000003 -6.1640999999999995 -1.041 43
-13.093800000000002 -26.6562 1.0352 55
-14.156199999999998 -28.8281 1.8662 209
-14.1953 -28.9062 2.627 119
-3.9082 -7.953099999999999 -0.7202 11
-14.218800000000002 -28.9531 3.3848000000000003 33
-14.218800000000002 -28.9375 4.1445 238
-14.2578 -29.0156 4.9219 191
-13.1406 -26.75 -0.3477 220
-14.2656 -29.0469 5.699199999999999 224
-2.8438 -5.738300000000001 -1.1220999999999999 6
-13.218800000000002 -26.6719 0.3472 71
-3.0312 -6.1172 -1.0342 34
-13.1797 -26.6094 1.0352 158
-14.289100000000001 -28.8281 1.8700999999999999 67
-14.3047 -28.875 2.6289 168
-3.9395 -7.949199999999999 -0.7206999999999999 160
-14.351600000000001 -28.9531 3.3926 134
-14.343800000000002 -28.9531 4.1523 218
-3.4101999999999997 -6.8828 -0.2664 247
-14.3828 -29.0312 4.9336 230
-13.1797 -26.5938 -0.34619999999999995 67
-14.398399999999999 -29.0469 5.7109000000000005 175
-2.8476999999999997 -5.6953 -1.1152 176
-13.2344 -26.4688 0.3452 73
-13.25 -26.5 1.0332 126
-14.414100000000001 -28.8281 1.8730000000000002 118
-14.4375 -28.875 2.6348000000000003 92
-3.9844 -7.9688 -0.7241 57
-14.460899999999999 -28.9219 3.3945 155
-14.476600000000001 -28.9531 4.1602 250
-3.4355 -6.8711 -0.2664 192
-14.4922 -28.9844 4.9336 144
-13.210899999999999 -26.4219 -0.3447 117
-14.523399999999999 -29.0469 5.7188 216
-2.8555 -5.6602 -1.1104 29
-13.343800000000002 -26.4531 0.3457 49
-13.226600000000001 -26.2344 1.0244 152
-14.539100000000001 -28.8281 1.876 12
-14.5703 -28.8906 2.6406 163
-4.0117 -7.957000000000001 -0.7241 71
-14.585899999999999 -28.9219 3.4004000000000003 9
-14.601600000000001 -28.9688 4.168 10
-14.625 -29.0 4.9453 193
-13.1953 -26.1719 -0.3418 124
-14.648399999999999 -29.0625 5.730499999999999 199
-2.8613 -5.6289 -1.1055 97
-13.3125 -26.1719 0.3425 193
-13.226600000000001 -26.0156 1.0176 39
-14.648399999999999 -28.8125 1.8779 233
-14.6953 -28.9062 2.6445 158
-4.0469 -7.9609000000000005 -0.7256 205
-14.710899999999999 -28.9375 3.4082 209
-14.726600000000001 -28.9688 4.1758 47
-3.4805 -6.8477 -0.2664 243
-14.7578 -29.0156 4.957 199
-13.1953 -25.9531 -0.3396 194
-14.7578 -29.0312 5.734400000000001 240
-2.875 -5.605499999999999 -1.1035 65
-13.218800000000002 -25.7969 0.3379 88
-13.218800000000002 -25.7812 1.0098 24
-14.773399999999999 -28.8281 1.8818000000000001 127
-14.8047 -28.875 2.6464999999999996 13
-4.0859 -7.9727 -0.728 240
-14.835899999999999 -28.9375 3.4120999999999997 250
-14.835899999999999 -28.9531 4.1797 173
-14.875 -29.0156 4.9648 185
-13.1797 -25.7188 -0.3372 219
-14.8828 -29.0469 5.7461 151
-2.9082 -5.6211 -1.1084 10
-13.2344 -25.5781 0.33590000000000003 184
-13.210899999999999 -25.5312 1.002 243
-14.914100000000001 -28.8281 1.8857 37
-14.9297 -28.8594 2.6504000000000003 180
-4.1172 -7.9609000000000005 -0.7284999999999999 54
-14.976600000000001 -28.9375 3.4199 2
-14.976600000000001 -28.9375 4.1875 158
-15.0 -29.0 4.9727 37
-13.2656 -25.6406 -0.3367 5
-15.023399999999999 -29.0312 5.7578 142
-13.218800000000002 -25.3281 0.3333 68
-13.2031 -25.2969 0.9945999999999999 73
-15.039100000000001 -28.8125 1.8887 232
-15.0703 -28.875 2.6562 128
-4.1484 -7.9453 -0.7284999999999999 95
-15.085899999999999 -28.9062 3.4219 200
-15.101600000000001 -28.9375 4.1914 66
-15.1328 -29.0 4.9805 68
-13.375 -25.625 -0.3372 29
-15.156199999999998 -29.0312 5.765599999999999 18
-13.210899999999999 -25.1094 0.3308 236
-13.2031 -25.0938 0.9883 40
-15.148399999999999 -28.7969 1.8906 70
-15.1875 -28.8594 2.6601999999999997 75
-4.1797 -7.9453 -0.7295 202
-15.210899999999999 -28.9219 3.4297000000000004 231
-15.226600000000001 -28.9531 4.2031 149
-15.2578 -29.0 4.9883 164
-14.023399999999999 -26.6562 -0.3513 94
-15.2656 -29.0156 5.7734000000000005 83
-13.2031 -24.8906 0.3286 19
-13.1953 -24.875 0.9814 177
-15.273399999999999 -28.7969 1.8936000000000002 39
-15.3203 -28.8906 2.668 86
-4.2148 -7.9453 -0.731 40
-15.3281 -28.9062 3.4336 151
-15.351600000000001 -28.9375 4.207 171
-3.5995999999999997 -6.7852 -0.2664 209
-15.375 -29.0 4.9961 72
-14.1406 -26.6719 -0.3521 58
-15.3828 -29.0 5.7812 18
-13.1953 -24.6562 0.3262 196
-13.1953 -24.6562 0.9745999999999999 167
-15.398399999999999 -28.7812 1.8965 13
-15.4375 -28.8438 2.6699 89
-4.2422 -7.9297 -0.731 12
-15.476600000000001 -28.9219 3.4433999999999996 250
-3.9766000000000004 -7.4297 -0.4875 252
-15.476600000000001 -28.9375 4.2148 194
-3.623 -6.7734000000000005 -0.2664 84
-15.5078 -28.9844 5.0078 32
-14.2578 -26.6562 -0.3525 253
-15.523399999999999 -29.0156 5.796900000000001 30
-13.1875 -24.4375 0.324 188
-2.8887 -5.3515999999999995 -0.9209 158
-13.1797 -24.4375 0.9678 115
-15.539100000000001 -28.7969 1.9013999999999998 71
-15.5703 -28.8594 2.6738 205
-15.601600000000001 -28.9219 3.4492000000000003 190
-4.0078 -7.4297 -0.4885 242
-15.601600000000001 -28.9219 4.2227 86
-15.648399999999999 -29.0 5.0195 133
-14.3828 -26.6562 -0.3533 81
-15.656199999999998 -29.0156 5.8047 142
-13.1875 -24.2344 0.3218 208
-13.1719 -24.2031 0.9604 30
-15.664100000000001 -28.7969 1.9043 235
-15.7031 -28.8594 2.6797000000000004 241
-3.9375 -7.238300000000001 -0.6694 237
-15.726600000000001 -28.9062 3.4551 113
-4.0547 -7.457000000000001 -0.49119999999999997 67
-15.7344 -28.9219 4.2305 218
-15.789100000000001 -29.0156 5.0312 240
-14.4922 -26.6406 -0.3538 244
-15.8594 -29.1406 5.8438 101
-13.164100000000001 -24.0 0.3191 223
-2.9276999999999997 -5.3359000000000005 -0.9218999999999999 44
-13.1719 -24.0 0.9541 218
-15.781199999999998 -28.7656 1.9062000000000001 37
-15.8828 -28.9375 2.6933999999999996 170
-3.9395 -7.1797 -0.665 22
-15.8594 -28.9062 3.4608999999999996 186
-15.8672 -28.9219 4.2383 181
-15.9453 -29.0625 5.0469 73
-14.6172 -26.6562 -0.35450000000000004 5
-16.0156 -29.2031 5.863300000000001 201
-13.1719 -23.8125 0.31739999999999996 51
-13.164100000000001 -23.7969 0.9481999999999999 143
-15.9219 -28.7812 1.9111000000000002 158
-16.0312 -28.9688 2.7012 202
-3.9668 -7.171900000000001 -0.6659999999999999 59
-15.976600000000001 -28.875 3.4648000000000003 125
-15.9844 -28.9062 4.2422 251
-16.0781 -29.0781 5.0625 57
-14.7344 -26.625 -0.355 159
-16.1562 -29.2031 5.875 90
-13.164100000000001 -23.5938 0.3152 133
-2.9726999999999997 -5.328099999999999 -0.9238 80
-13.156199999999998 -23.5938 0.9414 128
-16.0469 -28.7812 1.9141 100
-16.1562 -28.9844 2.707 99
-3.9844 -7.144500000000001 -0.6646 152
-16.125 -28.9062 3.4745999999999997 125
-16.125 -28.9062 4.25 56
-16.2344 -29.1094 5.0742 203
-14.8906 -26.7031 -0.3567 0
-16.2812 -29.2031 5.886699999999999 214
-2.9316000000000004 -5.2188 -1.0479 215
-13.148399999999999 -23.3906 0.313 98
-2.9922000000000004 -5.324199999999999 -0.9248000000000001 247
-13.156199999999998 -23.4062 0.9359999999999999 48
-16.1719 -28.7969 1.9188999999999998 165
-16.2656 -28.9531 2.7089999999999996 140
-4.0078 -7.136699999999999 -0.665 181
-16.2344 -28.8906 3.4785000000000004 223
-4.043 -7.199199999999999 -0.4778 181
-16.25 -28.9219 4.2617 193
-16.3438 -29.0781 5.0781 148
-15.0 -26.7031 -0.35719999999999996 89
-16.3906 -29.1875 5.894500000000001 171
-2.957 -5.2188 -1.0508 160
-13.1406 -23.2188 0.311 3
-2.998 -5.296900000000001 -0.9214 137
-13.1328 -23.1875 0.9287000000000001 214
-16.3125 -28.8125 1.9238 154
-16.375 -28.9219 2.7108999999999996 242
-4.0625 -7.175800000000001 -0.6698999999999999 42
-16.3594 -28.8906 3.4844 22
-16.375 -28.9219 4.2695 220
-16.5469 -29.2344 5.1172 254
-13.093800000000002 -23.125 -0.3098 103
-16.5469 -29.2188 5.9140999999999995 230
-2.9961 -5.2422 -1.0576 209
-13.148399999999999 -23.0156 0.3091 39
-3.0039 -5.2578 -0.9165000000000001 104
-13.148399999999999 -23.0156 0.9238 232
-16.4531 -28.7812 1.9268 247
-16.5 -28.8906 2.7148000000000003 130
-16.5 -28.875 3.4901999999999997 238
-16.5156 -28.9062 4.2773 184
-16.6719 -29.1875 5.1211 113
-13.1094 -22.9375 -0.3081 65
-16.6875 -29.2188 5.925800000000001 80
-3.0214999999999996 -5.2461 -1.0595999999999999 157
-13.1797 -22.875 0.3079 9
-3.0273000000000003 -5.2578 -0.9185 68
-13.1328 -22.7969 0.917 172
-16.5625 -28.7656 1.9287 87
-16.6875 -28.9688 2.7266000000000004 114
-16.6406 -28.8906 3.498 219
-16.6406 -28.9062 4.2852 79
-16.8281 -29.2188 5.1328 192
-13.101600000000001 -22.75 -0.3062 87
-16.8281 -29.2031 5.9336 115
-3.0332 -5.2227 -1.0576 11
-3.0625 -5.2734000000000005 -0.9233 230
-13.148399999999999 -22.6406 0.9120999999999999 239
-16.7031 -28.7656 1.9325999999999999 88
-16.8594 -29.0312 2.7382999999999997 159
-16.7656 -28.875 3.5039 155
-16.7812 -28.8906 4.293 59
-16.9219 -29.1406 5.1328 96
-13.0781 -22.5156 -0.3035 156
-16.9375 -29.1562 5.9375 194
-3.0605 -5.2265999999999995 -1.0605 67
-3.0742000000000003 -5.25 -0.9214 58
-13.1328 -22.4375 0.9062 56
-13.164100000000001 -22.4844 1.5127000000000002 89
-16.8906 -28.8594 3.5098000000000003 34
-16.9062 -28.8906 4.3008 27
-16.9531 -28.9688 5.1133 117
-13.0781 -22.3438 -0.3018 74
-16.9688 -28.9844 5.9140999999999995 52
-3.0839999999999996 -5.230499999999999 -1.0635 109
-3.1055 -5.265599999999999 -0.9253 78
-13.125 -22.25 0.9004000000000001 206
-13.1172 -22.25 1.5 87
-17.0 -28.8125 2.7285000000000004 120
-17.0312 -28.8594 3.5176 82
-17.0469 -28.9062 4.3125 167
-17.0625 -28.9375 5.1172 14
-13.148399999999999 -22.2969 -0.3018 115
-17.0938 -28.9844 5.925800000000001 69
-3.0918 -5.203099999999999 -1.0595999999999999 196
-3.1406 -5.2852 -0.9307 61
-13.1172 -22.0781 0.895 174
-13.101600000000001 -22.0469 1.4893 21
-17.1406 -28.8281 2.7363 122
-17.1562 -28.875 3.5254000000000003 81
-17.1562 -28.875 4.3164 82
-17.2031 -28.9375 5.125 33
-13.2422 -22.2812 -0.30219999999999997 79
-17.2188 -28.9688 5.9375 93
-3.1191000000000004 -5.203099999999999 -1.0625 102
-3.1699 -5.2890999999999995 -0.9336 190
-13.125 -21.8906 0.8896 188
-13.085899999999999 -21.8281 1.4785 43
-17.2656 -28.7969 2.7401999999999997 230
-17.2969 -28.8594 3.5312 234
-17.3125 -28.875 4.3242 34
-17.3438 -28.9375 5.140599999999999 252
-17.3594 -28.9688 5.9453 13
-3.1641000000000004 -5.238300000000001 -1.0713 234
-3.1836 -5.269500000000001 -0.9320999999999999 7
-13.1328 -21.7344 0.8848 177
-13.0781 -21.6562 1.4687999999999999 108
-17.3906 -28.7969 2.7441000000000004 249
-17.4375 -28.8438 3.5370999999999997 40
-17.4375 -28.875 4.332 119
-17.4844 -28.9375 5.1484000000000005 40
-13.476600000000001 -22.3125 -0.304 77
-17.4844 -28.9531 5.957000000000001 201
-3.1875 -5.234400000000001 -1.0732 63
-3.2245999999999997 -5.292999999999999 -0.9384999999999999 41
-13.1094 -21.5312 0.8784000000000001 72
-13.101600000000001 -21.5156 1.4628999999999999 52
-17.5312 -28.7812 2.748 249
-17.5625 -28.8438 3.5449 186
-17.5781 -28.8594 4.3398 60
-17.6094 -28.9219 5.1562 26
-13.0703 -21.4688 -0.293 182
-17.6406 -28.9688 5.9727 20
-3.1952999999999996 -5.207000000000001 -1.0693000000000001 203
-3.2266000000000004 -5.2539 -0.9336 141
-13.1094 -21.3594 0.8734999999999999 88
-13.101600000000001 -21.3438 1.4541 233
-17.6719 -28.7969 2.7558999999999996 67
-17.7031 -28.8594 3.5547000000000004 4
-17.7031 -28.8438 4.3477 87
-17.75 -28.9219 5.167999999999999 231
-13.0781 -21.3125 -0.2915 74
-17.7812 -28.9688 5.984400000000001 94
-3.2129000000000003 -5.199199999999999 -1.0703 46
-3.2363 -5.234400000000001 -0.9320999999999999 134
-13.093800000000002 -21.1875 0.8682 11
-13.085899999999999 -21.1719 1.4453 127
-17.7969 -28.7969 2.7617000000000003 48
-17.8438 -28.8594 3.5605 6
-17.8438 -28.875 4.3594 24
-17.875 -28.9062 5.175800000000001 57
-13.125 -21.2344 -0.29100000000000004 1
-17.9062 -28.9688 5.9961 83
-3.2207 -5.171900000000001 -1.0664 44
-3.2422000000000004 -5.207000000000001 -0.9292 246
-13.085899999999999 -21.0156 0.8628 10
-7.578099999999999 -12.1719 0.8315 153
-17.9531 -28.8281 2.7695 13
-17.9531 -28.8281 3.5664 70
-17.9688 -28.8594 4.3672 18
-18.0312 -28.9531 5.1953 231
-13.093800000000002 -21.0156 -0.2888 37
-18.0312 -28.9531 6.0078 207
-3.25 -5.175800000000001 -1.0703 53
-3.2382999999999997 -5.1562 -0.9218999999999999 222
-13.085899999999999 -20.8438 0.8579000000000001 240
-7.6328 -12.156199999999998 0.8325 208
-18.0938 -28.8125 2.7754000000000003 252
-18.1094 -28.8438 3.5742000000000003 195
-18.1094 -28.8438 4.375 186
-18.1719 -28.9531 5.207000000000001 12
-18.1719 -28.9531 6.019500000000001 239
-3.2422000000000004 -5.125 -1.0615 232
-13.0781 -20.6719 0.8521 78
-13.0703 -20.6719 1.4199000000000002 143
-7.613300000000001 -12.031199999999998 1.1592 33
-6.988300000000001 -11.0469 1.3691 232
-18.25 -28.8438 4.3867 190
-18.2969 -28.9062 5.2109000000000005 2
-18.3281 -28.9688 6.0352 202
-3.2949 -5.1640999999999995 -1.0732 143
-13.0781 -20.5 0.8472 41
-7.7890999999999995 -12.210899999999999 0.8398 133
-7.605499999999999 -11.914100000000001 1.1514 184
-7.0938 -11.1172 1.3818000000000001 38
-18.6562 -29.2344 4.4531 177
-13.0703 -20.4844 -0.8467 53
-18.6875 -29.2969 5.292999999999999 112
-18.7188 -29.3438 6.1328 245
-3.373 -5.2422 -0.9438 110
-13.0781 -20.3281 0.8423 250
-7.8477 -12.2031 0.8412999999999999 87
-7.5977 -11.8125 1.1436 186
-7.046900000000001 -10.960899999999999 1.3643 249
-18.8125 -29.25 4.4688 144
-18.8438 -29.2812 5.3047 59
-18.8594 -29.3281 6.140599999999999 97
-3.3711 -5.207000000000001 -1.0859 7
-3.4023000000000003 -5.2578 -0.9481999999999999 236
-13.0547 -20.1719 0.8369 72
-6.9648 -10.7578 0.7432 250
-7.613300000000001 -11.7578 1.1406 107
-7.042999999999999 -10.875 1.3574000000000002 51
-18.9062 -29.2031 4.4688 91
-13.0156 -20.1094 -0.835 23
-18.9219 -29.2344 5.3047 187
-12.9844 -20.0625 -0.2786 126
-18.9688 -29.2969 6.144500000000001 182
-3.4141000000000004 -5.234400000000001 -1.0947 50
-3.4219 -5.25 -0.9487000000000001 21
-13.0469 -20.0156 0.8325 233
-7.0312 -10.781199999999998 0.7461 157
-7.0312 -10.781199999999998 1.0479 75
-19.0781 -29.25 3.6660000000000004 90
-19.0156 -29.1562 4.4727 97
-13.031199999999998 -19.9844 -0.8315 17
-19.0781 -29.25 5.3203 151
-13.0 -19.9375 -0.2776 224
-19.0938 -29.2812 6.1562 76
-3.4531 -5.25 -0.9521 126
-13.0547 -19.8438 0.8281000000000001 229
-6.9727 -10.601600000000001 0.7358 91
-7.0234000000000005 -10.6797 1.04 84
-7.0586 -10.7344 1.3457 173
-7.113300000000001 -10.8203 1.6602000000000001 124
-19.2656 -29.3125 5.3438 107
-12.9922 -19.7656 -0.2756 148
-19.2656 -29.2969 6.175800000000001 120
-13.039100000000001 -19.6875 0.2751 197
-3.4785000000000004 -5.25 -0.9536 146
-13.0469 -19.6875 0.8231999999999999 82
-7.042999999999999 -10.6328 0.7393000000000001 184
-6.9765999999999995 -10.531199999999998 1.0283 161
-7.140599999999999 -10.773399999999999 1.3535 238
-13.023399999999999 -19.6562 -1.3691 2
-7.1602 -10.8047 1.6611000000000002 117
-19.2812 -29.1094 5.3164 51
-13.0156 -19.6406 -0.2747 122
-19.2812 -29.0938 6.144500000000001 45
-13.0625 -19.5781 0.27440000000000003 193
-3.5410000000000004 -5.3086 -0.9662999999999999 91
-7.0273 -10.531199999999998 0.44020000000000004 39
-7.0938 -10.625 0.7406999999999999 110
-7.0234000000000005 -10.523399999999999 1.0293 96
-7.2265999999999995 -10.8281 1.3633000000000002 145
-13.031199999999998 -19.5312 -1.3633000000000002 164
-7.1602 -10.726600000000001 1.6533000000000002 69
-19.2812 -28.9062 5.292999999999999 212
-13.0078 -19.4844 -0.2732 166
-19.3125 -28.9219 6.125 31
-13.0469 -19.4062 0.2725 189
-3.5449 -5.2734000000000005 -0.9623999999999999 86
-7.050800000000001 -10.4922 0.4397 167
-7.109400000000001 -10.5781 0.7387999999999999 17
-7.0547 -10.4922 1.0293 218
-7.4961 -11.156199999999998 1.4082 158
-13.0156 -19.3594 -1.3544999999999998 75
-6.9765999999999995 -10.375 1.6035 220
-13.0078 -19.3438 -0.8125 170
-6.8477 -10.1875 1.8652000000000002 179
-13.0 -19.3281 -0.27149999999999996 65
-19.4375 -28.9219 6.136699999999999 195
-13.039100000000001 -19.25 0.271 49
-3.5801 -5.2852 -0.9668000000000001 62
-13.039100000000001 -19.25 0.8101 39
-7.171900000000001 -10.593800000000002 0.7417 213
-7.140599999999999 -10.539100000000001 1.0361 32
-7.6875 -11.351600000000001 1.4365 237
-13.0078 -19.2031 -1.3466999999999998 183
-7.0078 -10.343800000000002 1.6016 41
-13.0156 -19.2188 -0.8090999999999999 176
-6.917999999999999 -10.2188 1.875 38
-13.0078 -19.2031 -0.2705 241
-7.0312 -10.3828 2.2031 32
-13.0781 -19.1719 0.2705 223
-3.625 -5.3125 -0.9741 226
-13.031199999999998 -19.0938 0.8057 215
-7.078099999999999 -10.375 0.728 50
-7.1484000000000005 -10.476600000000001 1.0322 185
-7.7148 -11.3047 1.4346 202
-13.0078 -19.0781 -1.3408000000000002 164
-7.394500000000001 -10.835899999999999 1.6825999999999999 62
-13.0625 -19.1406 -0.8076000000000001 33
-7.1289 -10.4453 1.9219 225
-13.039100000000001 -19.1094 -0.2698 8
-7.074199999999999 -10.3672 2.2051 233
-13.101600000000001 -19.0469 0.2695 221
-13.023399999999999 -18.9375 0.8012999999999999 88
-7.125 -10.3594 0.7290000000000001 141
-7.0703 -10.281199999999998 1.0156 233
-7.8828 -11.468800000000002 1.4580000000000002 196
-13.023399999999999 -18.9375 -1.335 174
-19.8125 -28.8125 4.4922 246
-13.0547 -18.9844 -0.8031999999999999 202
-7.0039 -10.1875 1.8788999999999998 67
-13.0469 -18.9688 -0.2683 222
-7.1172 -10.351600000000001 2.207 26
-13.093800000000002 -18.9062 0.2681 188
-13.0156 -18.7969 0.7964 249
-7.203099999999999 -10.398399999999999 0.7329000000000001 193
-7.0234000000000005 -10.1328 1.0039 194
-19.9219 -28.75 3.6719 36
-13.0078 -18.7812 -1.3262 139
-7.109400000000001 -10.2656 1.6006 27
-13.0625 -18.8594 -0.7993000000000001 252
-7.042999999999999 -10.1719 1.8799000000000001 128
-13.0547 -18.8438 -0.2671 139
-7.0859000000000005 -10.2266 2.1875 25
-13.148399999999999 -18.8438 0.26780000000000004 199
-13.023399999999999 -18.6719 0.7929999999999999 44
-13.0078 -18.6406 1.3203 196
-7.011699999999999 -10.0469 0.9971 184
-6.9102 -9.8984 1.2646 48
-12.9922 -18.6094 -1.3184 239
-7.1797 -10.289100000000001 1.6084 213
-13.0469 -18.7031 -0.7944 194
-7.0938 -10.1641 1.8838 144
-13.1172 -18.7969 -0.2671 205
-7.0586 -10.1172 2.168 225
-13.1719 -18.7344 0.2668 55
-13.039100000000001 -18.5469 0.79 112
-7.2461 -10.3047 0.7304999999999999 166
-7.113300000000001 -10.1172 1.0068000000000001 145
-6.9961 -9.9531 1.2734 116
-12.9922 -18.4844 -1.3115 220
-20.25 -28.8125 4.5234 194
-13.0469 -18.5469 -0.79 69
-7.0312 -10.0 1.8574000000000002 87
-13.125 -18.6719 -0.2659 29
-7.2578 -10.3203 2.2168 126
-13.1797 -18.6094 0.2659 5
-7.9688 -11.25 0.47950000000000004 236
-7.265599999999999 -10.2578 0.7284999999999999 19
-20.3438 -28.7344 2.8711 229
-7.019500000000001 -9.9141 1.2715 133
-13.0 -18.3438 -1.3056999999999999 64
-7.2265999999999995 -10.2031 1.6035 237
-13.039100000000001 -18.4062 -0.7861 113
-7.1015999999999995 -10.0234 1.8672 219
-13.085899999999999 -18.4688 -0.2639 153
-7.1602 -10.1094 2.1758 175
-7.925800000000001 -11.1094 0.4746 249
-6.7852 -9.5078 0.6772 207
-4.1367 -5.800800000000001 -0.7441 153
-7.1602 -10.0312 1.0029000000000001 73
-6.957000000000001 -9.75 1.2549 135
-12.9922 -18.2031 -1.2988 206
-7.171900000000001 -10.0547 1.5830000000000002 209
-13.031199999999998 -18.2656 -0.7817000000000001 49
-7.1172 -9.9766 1.8613 160
-13.085899999999999 -18.3438 -0.2627 69
-7.2148 -10.1094 2.1816 55
-13.023399999999999 -18.1094 0.7773 202
-6.832000000000001 -9.5 0.6781999999999999 99
-4.1914 -5.828099999999999 -0.75 11
-7.292999999999999 -10.1406 1.0166 20
-13.0 -18.0781 -1.8154 54
-6.9961 -9.7344 1.2549 118
-12.9922 -18.0625 -1.2919999999999998 235
-7.140599999999999 -9.9297 1.5674000000000001 217
-13.039100000000001 -18.1406 -0.7783 97
-7.1953 -10.0078 1.8730000000000002 171
-13.1172 -18.2344 -0.262 165
-7.3359000000000005 -10.2031 2.209 51
-7.8789 -10.875 0.4673 104
-6.875 -9.4922 0.6792 50
-7.2734000000000005 -10.0391 1.0088 79
-13.0 -17.9375 -1.8056999999999999 135
-7.082000000000001 -9.7812 1.2646 223
-12.976600000000001 -17.9062 -1.2841999999999998 175
-7.2148 -9.9609 1.5771000000000002 219
-13.039100000000001 -18.0 -0.7744 64
-7.7852 -10.7422 2.0176 190
-13.0469 -18.0156 -0.2593 10
-7.3438 -10.1406 2.1992 64
-7.9961 -10.960899999999999 0.4722 40
-6.9140999999999995 -9.4766 0.6797 220
-7.25 -9.9375 1.001 37
-12.9922 -17.8125 -1.7969 230
-7.0390999999999995 -9.6484 1.251 191
-12.976600000000001 -17.7969 -1.2793 202
-7.2227 -9.8984 1.5713 193
-13.031199999999998 -17.8594 -0.77 211
-7.8515999999999995 -10.7578 2.0254 214
-13.2969 -18.2188 -0.26289999999999997 107
-7.3438 -10.0703 2.1895 228
-13.343800000000002 -18.1719 0.2627 106
-7.2890999999999995 -9.9219 0.4282 27
-6.949199999999999 -9.4609 0.6801999999999999 70
-8.6562 -11.789100000000001 1.1914 35
-13.0 -17.6875 -1.79 128
-7.1289 -9.7031 1.2607 153
-12.976600000000001 -17.6562 -1.2725 220
-7.261699999999999 -9.8828 1.5722999999999998 226
-13.0078 -17.7188 -0.7656000000000001 44
-7.894500000000001 -10.75 2.0273 215
-13.2969 -18.0938 -0.26170000000000004 42
-7.453099999999999 -10.1484 2.2129 85
-13.3828 -18.0938 0.2622 216
-7.3125 -9.8828 0.4275 97
-6.9336 -9.3672 0.6753 219
-4.3555 -5.886699999999999 -0.7651 217
-7.2890999999999995 -9.8516 0.9976 7
-13.0078 -17.5781 -1.7832 235
-7.1875 -9.7109 1.2656 81
-12.976600000000001 -17.5312 -1.2666 178
-7.2578 -9.8047 1.5635 126
-13.023399999999999 -17.5938 -0.7626999999999999 32
-7.171900000000001 -9.6875 1.8319999999999999 127
-13.289100000000001 -17.9531 -0.26030000000000003 182
-7.542999999999999 -10.1953 2.2285 45
-13.351600000000001 -17.9219 0.2605 217
-8.5391 -11.460899999999999 0.49729999999999996 188
-6.9297 -9.2969 0.6724 33
-4.3633 -5.855499999999999 -0.7626999999999999 233
-7.3398 -9.8516 0.9995 155
-7.2109000000000005 -9.6797 1.2646 167
-12.960899999999999 -17.4062 -1.2598 238
-7.25 -9.7266 1.5556999999999999 167
-13.0156 -17.4688 -0.7587999999999999 46
-7.199199999999999 -9.6641 1.8311000000000002 246
-13.289100000000001 -17.8438 -0.2593 98
-7.7188 -10.3594 2.2695 137
-13.343800000000002 -17.7656 0.259 93
-7.0625 -9.3984 0.40869999999999995 0
-6.988300000000001 -9.3047 0.6743000000000001 116
-6.5 -8.6562 -1.1328 153
-7.3203 -9.75 0.9922 122
-6.6172 -8.8047 -0.8959999999999999 8
-7.300800000000001 -9.7188 1.2725 146
-12.976600000000001 -17.2656 -1.2539 178
-7.261699999999999 -9.6719 1.5497999999999998 231
-13.0156 -17.3281 -0.7554000000000001 77
-7.2578 -9.6641 1.8359 161
-13.289100000000001 -17.6875 -0.25780000000000003 155
-7.8515999999999995 -10.4531 2.2988 79
-13.343800000000002 -17.6406 0.25780000000000003 207
-7.0859000000000005 -9.3672 0.40840000000000004 167
-6.980499999999999 -9.2266 0.6704000000000001 69
-6.5 -8.5938 -1.1279000000000001 198
-7.078099999999999 -9.3516 0.9545999999999999 117
-6.582000000000001 -8.7031 -0.8876999999999999 80
-8.4922 -11.226600000000001 1.4756 193
-12.968800000000002 -17.1406 -1.248 86
-7.4414 -9.8359 1.5811000000000002 209
-13.0156 -17.2031 -0.7515000000000001 3
-7.3477 -9.7109 1.8506 238
-13.289100000000001 -17.5625 -0.2566 118
-7.8711 -10.406199999999998 2.293 242
-13.0469 -17.125 0.251 145
-7.105499999999999 -9.3281 0.4077 205
-7.015599999999999 -9.2109 0.6709 14
-6.5 -8.5312 -1.123 21
-7.140599999999999 -9.375 0.9584999999999999 170
-6.5625 -8.6172 -0.8809 114
-7.4023 -9.7188 1.2793 10
-6.675800000000001 -8.7656 -0.6382 165
-7.3711 -9.6719 1.5586000000000002 43
-13.0078 -17.0781 -0.7476 62
-7.375 -9.6797 1.8496000000000001 150
-12.9922 -17.0625 -0.24989999999999998 201
-7.917999999999999 -10.3906 2.2969 230
-13.031199999999998 -16.9844 0.2495 38
-13.0 -16.9375 0.7441 147
-7.0390999999999995 -9.1719 0.6698999999999999 155
-6.5 -8.4766 -1.1181999999999999 36
-7.207000000000001 -9.3906 0.9634 96
-6.550800000000001 -8.5391 -0.8755 211
-7.421900000000001 -9.6797 1.2773 127
-6.675800000000001 -8.7031 -0.6353 24
-6.7188 -8.7578 1.4141 180
-13.0078 -16.9531 -0.7445999999999999 23
-7.4140999999999995 -9.6641 1.8506 252
-12.9922 -16.9375 -0.2488 201
-6.8203 -8.8906 1.9678 14
-13.023399999999999 -16.8594 0.2482 185
-7.449199999999999 -9.6328 0.4236 230
-7.1602 -9.2656 0.6787000000000001 239
-6.5078 -8.4219 -1.1133 174
-7.203099999999999 -9.3203 0.9584999999999999 194
-6.5547 -8.4844 -0.8721 208
-6.9727 -9.0156 1.1934 88
-6.6602 -8.6172 -0.6309 230
-6.9922 -9.0469 1.4647999999999999 201
-13.0 -16.8125 -0.7402 189
-7.707000000000001 -9.9688 1.915 24
-12.9531 -16.7656 -0.2468 164
-6.8398 -8.8516 1.9647999999999999 203
-12.976600000000001 -16.6719 0.2462 140
-12.9531 -16.6406 0.7343999999999999 230
-7.238300000000001 -9.2969 0.6831 198
-6.511699999999999 -8.3594 -1.1094 190
-7.167999999999999 -9.2109 0.9497 241
-6.5625 -8.4297 -0.8691 248
-6.8789 -8.8359 1.1729 179
-6.6602 -8.5547 -0.6284000000000001 71
-6.8711 -8.8281 1.4336000000000002 36
-12.9531 -16.6406 -0.7343999999999999 203
-9.0 -11.5625 2.2285 142
-12.9375 -16.625 -0.24539999999999998 190
-6.796900000000001 -8.7266 1.9434 118
-12.968800000000002 -16.5469 0.245 178
-12.968800000000002 -16.5469 0.7323999999999999 135
-7.2422 -9.2344 0.6801999999999999 128
-6.5 -8.2891 -1.1025 138
-7.1640999999999995 -9.1406 0.9448000000000001 156
-6.5625 -8.3672 -0.8652 59
-7.5039 -9.5703 1.2734 42
-6.875 -8.7656 1.4277000000000002 216
-12.960899999999999 -16.5312 -0.7319 34
-7.640599999999999 -9.7422 1.8818000000000001 73
-12.9375 -16.5 -0.2444 178
-6.800800000000001 -8.6719 1.9365 33
-12.976600000000001 -16.4219 0.2439 167
-12.960899999999999 -16.4062 0.7284999999999999 138
-7.265599999999999 -9.2031 0.6792 231
-6.5039 -8.2344 -1.0986 190
-7.1914 -9.1016 0.9438 74
-6.542999999999999 -8.2891 -0.8589 107
-8.75 -11.085899999999999 1.4794999999999998 89
-6.9062 -8.7422 1.4277000000000002 15
-12.9453 -16.3906 -0.7275 134
-7.6836 -9.7266 1.8838 123
-12.9375 -16.375 -0.2432 0
-6.8398 -8.6562 1.9385 233
-0.6021 -0.7568 -0.1631 153
-12.976600000000001 -16.3125 0.2429 134
-12.9531 -16.2812 0.7251000000000001 13
-4.1445 -5.2109000000000005 -0.8511 167
-7.3164 -9.1953 0.6812 250
-6.5039 -8.1719 -1.0937999999999999 42
-7.230499999999999 -9.0859 0.9448000000000001 24
-6.546900000000001 -8.2344 -0.8554999999999999 221
-7.078099999999999 -8.8984 1.1904000000000001 193
-6.9140999999999995 -8.6953 1.4228999999999998 250
-12.9453 -16.2812 -0.7245999999999999 83
-7.011699999999999 -8.8125 1.7109 252
-12.9297 -16.2656 -0.2421 157
-6.8789 -8.6484 1.9413999999999998 226
-0.5752 -0.7178 -0.1548 12
-12.976600000000001 -16.2031 0.2418 195
-12.9531 -16.1719 0.7217 132
-7.386699999999999 -9.2188 0.6851 232
-6.5078 -8.125 -1.0889 20
-8.875 -11.0781 1.1553 66
-6.550800000000001 -8.1719 -0.8521 224
-8.7891 -10.976600000000001 1.4736000000000002 240
-6.9140999999999995 -8.6328 1.4169999999999998 1
-12.9531 -16.1562 -0.7217 239
-7.011699999999999 -8.75 1.7031 190
-12.9219 -16.125 -0.2408 157
-6.9062 -8.6172 1.9404 168
-0.563 -0.6973 -0.1506 73
-12.906199999999998 -16.0 0.2395 13
-4.2344 -5.2461 -1.0215 34
-12.914100000000001 -16.0 0.7162999999999999 220
-12.914100000000001 -16.0 1.1943000000000001 109
-6.5078 -8.0625 -1.084 138
-7.3515999999999995 -9.1094 0.9526 37
-6.5586 -8.125 -0.8495999999999999 17
-8.8672 -10.9844 1.4794999999999998 187
-6.9336 -8.5938 1.4141 79
-12.9219 -16.0156 -0.7168000000000001 107
-6.9375 -8.6016 1.6787 189
-12.8906 -15.976600000000001 -0.2391 2
-6.988300000000001 -8.6641 1.9550999999999998 3
-0.6147 -0.7568 -0.1646 201
-12.906199999999998 -15.8828 0.2384 248
-4.2656 -5.25 -1.0244 7
-9.7969 -12.0547 0.5405 53
-12.9297 -15.906199999999998 1.1895 41
-6.4922 -7.988300000000001 -1.0771 72
-7.3398 -9.0312 0.9468000000000001 101
-6.5586 -8.0703 -0.8462000000000001 144
-7.1289 -8.7734 1.1836 38
-6.957000000000001 -8.5625 1.4131 180
-12.898399999999999 -15.8672 -0.7123999999999999 30
-6.9336 -8.5312 1.6699000000000002 82
-12.875 -15.843800000000002 -0.2379 155
-6.8828 -8.4688 1.9169999999999998 41
-0.6123 -0.7484999999999999 -0.1631 167
-12.906199999999998 -15.773399999999999 0.23739999999999997 148
-4.2852 -5.234400000000001 -1.0244 0
-9.8516 -12.039100000000001 0.5415 205
-12.9219 -15.789100000000001 1.1845999999999999 24
-6.4922 -7.9297 -1.0723 244
-7.4102 -9.0547 0.9521 145
-6.546900000000001 -8.0 -0.8408 86
-7.140599999999999 -8.7266 1.1806999999999999 217
-12.8906 -15.7422 -0.7090000000000001 159
-6.886699999999999 -8.4141 1.6513999999999998 68
-12.8828 -15.7422 -0.2369 26
-6.9453 -8.4844 1.9258000000000002 145
-0.6201 -0.7524 -0.1646 128
-12.906199999999998 -15.656199999999998 0.2365 189
-4.3164 -5.234400000000001 -1.0283 197
-12.8828 -15.6328 0.7056 98
-12.9219 -15.6797 1.1797 179
-6.5 -7.886699999999999 -1.0693000000000001 175
-7.4453 -9.0312 0.9526 28
-6.542999999999999 -7.9336 -0.8364 231
-23.6406 -28.6719 3.9004000000000003 175
-23.6875 -28.7344 4.7852 105
-12.8828 -15.625 -0.7051000000000001 100
-6.9414 -8.4219 1.6582 117
-12.875 -15.6172 -0.2357 78
-6.9336 -8.4141 1.9141 73
-0.5972 -0.7202 -0.1576 156
-12.898399999999999 -15.5547 0.2354 40
-4.3789 -5.2773 -1.0391 61
-12.914100000000001 -15.5625 0.7045999999999999 70
-7.644500000000001 -9.2109 0.6938 7
-6.5 -7.8359000000000005 -1.0654000000000001 157
-7.449199999999999 -8.9766 0.9492 148
-6.550800000000001 -7.8984000000000005 -0.8345 101
-23.7812 -28.6719 3.9101999999999997 137
-7.0625 -8.5078 1.4169999999999998 56
-12.898399999999999 -15.5469 -0.7036 247
-6.917999999999999 -8.3438 1.6455000000000002 251
-12.8828 -15.523399999999999 -0.235 247
-6.9688 -8.3984 1.9169999999999998 89
-0.6074 -0.7271 -0.1597 155
-12.968800000000002 -15.531199999999998 0.2357 50
-4.3828 -5.2461 -1.0361 219
-13.0 -15.5625 0.7061 187
-6.511699999999999 -7.796900000000001 -1.3018 213
-9.0625 -10.851600000000001 0.8203 73
-6.4922 -7.7734000000000005 -1.0605 87
-7.488300000000001 -8.9688 0.9506999999999999 198
-6.5547 -7.8477 -0.8315 109
-9.6484 -11.5469 1.5771000000000002 241
-7.0390999999999995 -8.4297 1.4072 70
-12.960899999999999 -15.5156 -0.7041 49
-6.9297 -8.2969 1.6416 8
-12.968800000000002 -15.523399999999999 -0.23559999999999998 98
-7.0234000000000005 -8.4062 1.9238 140
-0.6079 -0.7217 -0.1589 171
-13.0547 -15.5 0.2361 164
-4.3984 -5.2227 -1.0342 103
-13.093800000000002 -15.5547 0.708 253
-6.511699999999999 -7.730499999999999 -1.2949000000000002 233
-9.5391 -11.3281 0.8589 245
-6.4922 -7.7109000000000005 -1.0547 149
-9.4609 -11.2344 1.1963 247
-6.550800000000001 -7.7812 -0.8271 79
-9.7031 -11.523399999999999 1.5781 163
-6.9453 -8.25 1.3818000000000001 207
-6.9140999999999995 -8.2109 -0.373 245
-6.9727 -8.2812 1.6444999999999999 1
-9.4844 -11.2578 2.5879000000000003 49
-0.6025 -0.7104 -0.15689999999999998 116
-13.1797 -15.539100000000001 0.2373 52
-4.3828 -5.167999999999999 -1.0273 173
-13.1797 -15.539100000000001 0.7095 93
-6.5078 -7.671900000000001 -1.2881 64
-10.0156 -11.8125 0.8984000000000001 181
-6.4961 -7.6562 -1.0508 162
-8.0625 -9.5 1.0146 198
-6.5547 -7.7265999999999995 -0.8242 165
-9.8125 -11.5703 1.5897999999999999 59
-7.074199999999999 -8.3438 1.4013999999999998 109
-6.894500000000001 -8.125 -0.3704 223
-6.9453 -8.1875 1.6299000000000001 6
-13.156199999999998 -15.5078 -0.2368 27
-7.421900000000001 -8.75 2.0156 241
-0.6074 -0.7114 -0.1576 185
-13.273399999999999 -15.539100000000001 0.23800000000000002 99
-6.519500000000001 -7.6328 -1.5234 48
-13.273399999999999 -15.539100000000001 0.7119 174
-6.5078 -7.6172 -1.2832 254
-10.0 -11.7031 0.8931 204
-6.5 -7.613300000000001 -1.0479 222
-8.0547 -9.4297 1.0098 179
-6.550800000000001 -7.671900000000001 -0.8203 131
-7.7852 -9.1172 1.2549 169
-8.7422 -10.2344 1.7266 222
-6.859400000000001 -8.0312 -0.36719999999999997 208
-6.917999999999999 -8.1016 1.6181999999999999 199
-13.2422 -15.5078 -0.2375 94
-9.6328 -11.281199999999998 2.6074 20
-0.6255 -0.7271 -0.1617 23
-13.3047 -15.468800000000002 0.2377 223
-6.5312 -7.5938 -1.5215 148
-13.3672 -15.539100000000001 0.7139 131
-6.4961 -7.5547 -1.2764 132
-9.375 -10.898399999999999 0.8340000000000001 242
-6.511699999999999 -7.5703 -1.0449 190
-8.1016 -9.4219 1.0117 180
-6.574199999999999 -7.644500000000001 -0.8198000000000001 0
-7.8398 -9.1172 1.2588 191
-7.292999999999999 -8.4766 1.4336000000000002 168
-6.824199999999999 -7.9375 -0.3638 84
-6.9453 -8.0781 1.6172 105
-13.335899999999999 -15.5078 -0.23829999999999998 141
-7.546900000000001 -8.7734 2.0332 225
-0.6328 -0.731 -0.1631 224
-6.5273 -7.5390999999999995 -1.5137 75
-13.460899999999999 -15.5469 0.7162999999999999 120
-6.488300000000001 -7.4961 -1.2705 213
-9.4531 -10.9219 0.8379000000000001 159
-6.5 -7.511699999999999 -1.0391 71
-8.1719 -9.4375 1.0166 95
-6.582000000000001 -7.605499999999999 -0.8179000000000001 242
-7.8125 -9.0234 1.25 212
-7.3203 -8.4531 1.4336000000000002 36
-6.832000000000001 -7.890599999999999 -0.3628 61
-7.0273 -8.1172 1.6309 85
-13.4297 -15.5156 -0.2391 156
-7.4140999999999995 -8.5703 1.9902000000000002 65
-0.6455 -0.7412000000000001 -0.1659 238
-6.5273 -7.4922 -1.5088 153
-13.5469 -15.5469 0.7182999999999999 250
-6.4922 -7.453099999999999 -1.2656 98
-9.4688 -10.8672 0.8359000000000001 102
-6.4922 -7.449199999999999 -1.0342 85
-8.1875 -9.3984 1.0146 251
-6.609400000000001 -7.582000000000001 -0.8179000000000001 104
-9.5703 -10.9844 1.5263999999999998 223
-8.3516 -9.5781 1.6288999999999998 73
-6.8086 -7.8125 -0.3601 167
-7.175800000000001 -8.2344 1.6582 98
-7.4414 -8.5391 1.9893 212
-0.6172 -0.7031000000000001 -0.1576 26
-13.6094 -15.5 0.2404 93
-6.519500000000001 -7.425800000000001 -1.5 177
-13.6406 -15.539100000000001 0.7202 161
-6.5 -7.4062 -1.2617 13
-6.484400000000001 -7.386699999999999 -1.0283 171
-8.1953 -9.3359 1.0117 227
-8.25 -9.3984 1.3105000000000002 125
-7.1172 -8.1094 1.3828 6
-6.796900000000001 -7.7422 -0.3579 107
-7.175800000000001 -8.1719 1.6522999999999999 42
-12.9531 -14.75 -0.2286 245
-7.2890999999999995 -8.2969 1.9404 28
-0.6196 -0.7006999999999999 -0.1576 129
-13.718800000000002 -15.5156 0.2413 40
-6.5234000000000005 -7.3789 -1.4950999999999999 240
-8.6484 -9.7812 0.45409999999999995 116
-6.4922 -7.3398 -1.2549 20
-9.3984 -10.6328 0.8231999999999999 4
-6.5 -7.355499999999999 -1.0273 149
-8.2266 -9.3047 1.0107 137
-8.1328 -9.1953 1.2852000000000001 169
-7.1523 -8.0938 1.3838 229
-6.800800000000001 -7.6914 -0.3567 34
-7.234400000000001 -8.1797 1.6582 253
-13.0 -14.7031 -0.2286 3
-7.3398 -8.2969 1.9463 191
-7.2188 -8.1094 -1.9072 20
-13.8281 -15.531199999999998 0.24230000000000002 155
-6.5273 -7.332000000000001 -1.4902000000000002 117
-13.843800000000002 -15.5469 0.7251000000000001 243
-6.4922 -7.292999999999999 -1.251 251
-9.4297 -10.593800000000002 0.8223 115
-6.5078 -7.3086 -1.0244 230
-8.2812 -9.3047 1.0137 30
-8.2969 -9.3203 1.3066 25
-8.4688 -9.5078 1.6328 48
-6.8086 -7.644500000000001 -0.3557 17
-7.2773 -8.1719 1.6621000000000001 47
-12.9297 -14.523399999999999 -0.2266 204
-7.2148 -8.0469 -1.8984 163
-13.9297 -15.531199999999998 0.243 148
-6.5273 -7.2812 -1.4844 250
-13.9297 -15.539100000000001 0.7271 119
-6.488300000000001 -7.234400000000001 -1.2441 118
