# .PCD v0.7 - Point Cloud Data file format
VERSION 0.7
FIELDS x y z intensity
SIZE 4 4 4 4
TYPE F F F F
COUNT 1 1 1 1
WIDTH 1419
HEIGHT 1
VIEWPOINT 0 0 0 1 0 0 0
POINTS 1419
DATA ascii
4.6172 12.9219 -1.1172 108
11.343800000000002 31.7656 3.5410000000000004 124
5.921900000000001 16.5781 -1.0215 82
9.1797 25.7031 -0.9512 33
2.5312 7.0078 -1.3056999999999999 22
2.8711 7.949199999999999 -1.2822 9
3.2676 9.0469 -1.2314 184
12.851600000000001 35.5938 2.1992 12
3.8594 10.6875 -1.1895 194
4.668 12.9219 -1.1191 52
5.988300000000001 16.5781 -1.0225 5
11.9531 33.0938 4.5195 30
9.2812 25.6875 -0.9521 255
2.5547 6.9961 -1.3056999999999999 36
2.8983999999999996 7.9375 -1.2822 150
3.2988 9.0312 -1.2314 142
3.8945 10.664100000000001 -1.1885 173
4.7188 12.9297 -1.1201 231
6.050800000000001 16.5625 -1.0234 67
12.023399999999999 32.9375 4.5039 108
9.375 25.6719 -0.9521 68
2.5839999999999996 7.0039 -1.3086000000000002 41
2.9101999999999997 7.890599999999999 -1.2754 100
12.835899999999999 34.8125 1.2938999999999998 202
3.332 9.0312 -1.2334 46
3.9355 10.664100000000001 -1.1904000000000001 204
4.7656 12.9219 -1.1211 185
6.105499999999999 16.5469 -1.0234 22
12.156199999999998 32.9688 4.5156 205
9.4609 25.6406 -0.9526 114
10.585899999999999 28.7031 4.6602 99
12.789100000000001 34.6562 -0.43119999999999997 181
2.6132999999999997 7.0078 -1.3115 26
12.835899999999999 34.4375 0.429 65
2.9551 7.9297 -1.2841999999999998 80
12.8125 34.375 1.2793 224
3.3632999999999997 9.0234 -1.2334 243
12.8672 34.5312 2.1406 121
3.9824 10.6797 -1.1934 27
4.8086 12.906199999999998 -1.1211 86
6.1836 16.5938 -1.0273 202
9.5625 25.6562 -0.9545999999999999 1
10.523399999999999 28.2344 4.5898 50
12.7578 34.2188 -0.4263 77
11.351600000000001 30.4531 5.7227 13
2.6387 7.0 -1.3115 24
2.9901999999999997 7.9297 -1.2861000000000002 158
12.914100000000001 34.25 1.2764 197
3.4004000000000003 9.0156 -1.2344 171
12.9453 34.3438 2.1328 124
4.0273 10.6719 -1.1943000000000001 35
4.8516 12.8672 -1.1201 235
6.25 16.5781 -1.0283 0
9.6875 25.6875 -0.9570000000000001 27
12.7578 33.8438 -0.4219 230
10.5781 28.0469 5.2773 219
2.6660000000000004 6.9922 -1.3125 196
3.0137 7.9102 -1.2841999999999998 103
3.4375 9.0234 -1.2363 20
12.835899999999999 33.6875 2.0938 118
4.0664 10.6719 -1.1953 173
4.9102 12.8828 -1.123 196
6.3125 16.5625 -1.0283 48
9.7891 25.6875 -0.958 108
10.9844 28.8281 4.6992 8
10.648399999999999 27.9375 5.265599999999999 53
2.6933999999999996 6.9961 -1.3144999999999998 68
3.0449 7.9102 -1.2861000000000002 8
3.4707 9.0156 -1.2373 201
4.1055 10.664100000000001 -1.1963 135
4.957 12.8828 -1.124 190
6.3672 16.5469 -1.0283 125
9.875 25.6562 -0.958 226
11.101600000000001 28.8594 4.707 84
12.7344 33.0938 -0.4138 181
10.460899999999999 27.1719 5.1289 30
2.7168 6.9922 -1.3154 54
3.0702999999999996 7.8984000000000005 -1.2861000000000002 22
3.502 9.0078 -1.2383 6
4.1445 10.656199999999998 -1.1973 123
4.9961 12.851600000000001 -1.1220999999999999 182
6.4336 16.5625 -1.0312000000000001 208
9.9766 25.6562 -0.9595 41
12.7344 32.7812 -0.4102 106
10.5 27.0156 5.1055 235
2.748 6.9961 -1.3184 201
3.1016000000000004 7.894500000000001 -1.2861000000000002 51
3.5332 8.9922 -1.2373 125
4.1836 10.648399999999999 -1.1982 117
5.0469 12.851600000000001 -1.124 215
6.5039 16.5625 -1.0322 192
10.0625 25.6094 -0.9595 8
10.593800000000002 26.9531 5.1016 10
2.7676 6.9727 -1.3154 20
3.1327999999999996 7.894500000000001 -1.2881 154
3.5605 8.9688 -1.2363 236
4.2266 10.648399999999999 -1.1992 196
5.0938 12.8281 -1.124 39
18.0469 45.4688 5.136699999999999 116
6.5586 16.5156 -1.0312000000000001 246
10.1562 25.5781 -0.9595 30
18.0156 45.375 8.6016 50
2.793 6.9648 -1.3154 146
3.168 7.8984000000000005 -1.291 245
3.6055 8.9922 -1.2402 61
12.75 31.7969 1.9902000000000002 156
4.2695 10.648399999999999 -1.2012 79
5.144500000000001 12.8281 -1.125 70
18.25 45.5 5.1484000000000005 99
6.6328 16.5469 -1.0342 88
10.2578 25.5781 -0.9604 231
12.710899999999999 31.7031 -0.39840000000000003 0
11.351600000000001 28.3125 5.3711 56
2.8164 6.953099999999999 -1.3154 127
12.8125 31.6406 0.3982 38
3.1914 7.8789 -1.29 238
12.781199999999998 31.5625 1.1875 110
3.6445 9.0 -1.2431999999999999 144
12.781199999999998 31.5625 1.9785 16
4.3125 10.648399999999999 -1.2021 50
5.1953 12.8281 -1.127 248
18.4062 45.4375 5.1484000000000005 181
6.6875 16.5156 -1.0342 18
10.335899999999999 25.5156 -0.9595 70
18.3594 45.3125 8.6094 62
2.8457 6.9609000000000005 -1.3193000000000001 28
3.2148000000000003 7.8672 -1.29 229
3.6719 8.9844 -1.2431999999999999 65
12.8281 31.375 1.9697 168
4.3477 10.6328 -1.2031 243
5.230499999999999 12.8047 -1.126 76
6.7461 16.5156 -1.0352 41
10.406199999999998 25.4531 -0.9584999999999999 87
12.6953 31.0625 -0.39159999999999995 111
11.4922 28.125 5.3515999999999995 44
2.8691000000000004 6.953099999999999 -1.3193000000000001 238
12.7578 30.9219 0.39039999999999997 224
3.2441000000000004 7.863300000000001 -1.291 148
12.726600000000001 30.8438 1.1631 66
3.7012 8.9688 -1.2431999999999999 194
12.7422 30.875 1.9413999999999998 28
4.3906 10.648399999999999 -1.2061 100
5.2812 12.8047 -1.1279000000000001 24
6.8125 16.5156 -1.0361 69
10.5 25.4531 -0.96 143
12.6875 30.75 -0.38789999999999997 42
11.5156 27.9219 5.3164 16
2.8926 6.9336 -1.3174000000000001 226
3.2793 7.863300000000001 -1.2930000000000001 242
12.8672 30.8438 1.165 23
3.7401999999999997 8.9688 -1.2441 237
4.4375 10.6406 -1.207 141
5.332000000000001 12.789100000000001 -1.1279000000000001 236
6.890599999999999 16.5156 -1.0381 159
10.593800000000002 25.4062 -0.9595 236
12.6875 30.4219 -0.3845 112
11.5547 27.7031 5.2852 107
2.9160000000000004 6.925800000000001 -1.3174000000000001 32
3.3125 7.863300000000001 -1.2938999999999998 59
12.6719 30.0781 1.1377 76
3.7714999999999996 8.9531 -1.2441 249
4.4688 10.6094 -1.2051 72
5.386699999999999 12.7969 -1.1299 89
6.9375 16.4688 -1.0371 94
10.6875 25.375 -0.96 24
12.664100000000001 30.0781 -0.38060000000000005 219
11.726600000000001 27.8438 5.3203 121
2.9452999999999996 6.9297 -1.3203 112
3.3379000000000003 7.8515999999999995 -1.2938999999999998 170
3.8047000000000004 8.9531 -1.2461 19
12.6953 29.8594 1.8857 153
4.5078 10.601600000000001 -1.2061 120
5.4336 12.781199999999998 -1.1309 15
7.019500000000001 16.5156 -1.042 158
10.773399999999999 25.3438 -0.96 34
12.656199999999998 29.7812 -0.3774 20
11.8203 27.8125 5.3203 58
2.9726999999999997 6.925800000000001 -1.3213 24
3.3574 7.824199999999999 -1.2919999999999998 255
12.6797 29.5625 1.1220999999999999 123
3.8418 8.9531 -1.248 127
12.664100000000001 29.5156 1.8662 71
4.5469 10.601600000000001 -1.208 240
5.4688 12.75 -1.1299 131
7.0859000000000005 16.5156 -1.043 222
10.8672 25.3281 -0.9609000000000001 233
12.664100000000001 29.5156 -0.37479999999999997 222
11.8828 27.7031 5.3086 186
3.0 6.921900000000001 -1.3232 178
3.3983999999999996 7.8438 -1.2969 245
12.7422 29.4062 1.1172 158
3.8711 8.9297 -1.2470999999999999 115
12.75 29.4219 1.8633000000000002 59
4.582 10.5703 -1.2061 169
12.4297 28.6719 2.5488 158
5.5234000000000005 12.7422 -1.1309 81
7.144500000000001 16.4844 -1.043 177
12.906199999999998 29.7812 4.168 29
10.968800000000002 25.3125 -0.9614 174
12.7578 29.4375 -0.3743 10
3.0214999999999996 6.9062 -1.3213 177
3.4219 7.824199999999999 -1.2959 114
12.835899999999999 29.3438 1.1162 238
3.9082 8.9297 -1.249 243
12.8203 29.3125 1.8584 39
4.6289 10.5781 -1.209 242
5.582000000000001 12.7578 -1.1338 118
7.207000000000001 16.4688 -1.043 74
12.9922 29.6875 4.1641 171
11.0703 25.2969 -0.9623999999999999 230
12.835899999999999 29.3438 -0.3738 38
3.0449 6.894500000000001 -1.3213 123
3.4688 7.855499999999999 -1.3027000000000002 151
12.9219 29.25 1.1152 65
3.9414 8.9219 -1.25 43
12.906199999999998 29.2188 1.8555000000000001 55
4.6562 10.5469 -1.207 186
5.625 12.7344 -1.1338 135
7.269500000000001 16.4531 -1.0439 201
13.0781 29.6094 4.1562 9
11.148399999999999 25.25 -0.9619 122
12.9297 29.2812 -0.3735 109
3.0742000000000003 6.894500000000001 -1.3232 65
13.0703 29.3125 0.37450000000000006 251
3.5039 7.855499999999999 -1.3056999999999999 3
13.0078 29.1719 1.1143 217
3.9844 8.9375 -1.2529000000000001 138
13.0 29.1562 1.8544999999999998 136
4.6914 10.523399999999999 -1.207 208
5.667999999999999 12.710899999999999 -1.1328 109
7.3359000000000005 16.4531 -1.0459 6
13.164100000000001 29.5156 4.1523 173
11.218800000000002 25.1562 -0.9604 67
13.0078 29.1719 -0.3726 121
3.1035000000000004 6.894500000000001 -1.3262 201
3.5312 7.8438 -1.3056999999999999 206
13.101600000000001 29.0938 1.1123 250
4.0156 8.9219 -1.2529000000000001 178
13.085899999999999 29.0625 1.8516 153
4.7305 10.5078 -1.207 128
5.7188 12.7031 -1.1348 14
7.3984000000000005 16.4375 -1.0459 97
13.25 29.4219 4.1445 246
11.3203 25.1406 -0.9609000000000001 94
13.101600000000001 29.0938 -0.37229999999999996 179
3.1308999999999996 6.890599999999999 -1.3271000000000002 78
3.5586 7.832000000000001 -1.3056999999999999 10
4.0469 8.9062 -1.2529000000000001 211
13.1797 29.0 1.8506 112
4.7734 10.5 -1.208 214
5.7812 12.718800000000002 -1.1377 153
20.6406 45.4062 5.238300000000001 112
7.457000000000001 16.4062 -1.0459 184
13.335899999999999 29.3438 4.1406 3
11.414100000000001 25.1094 -0.9614 181
13.226600000000001 29.0938 -0.3728 73
20.5781 45.2812 8.7578 98
3.1543 6.875 -1.3262 227
13.281199999999998 28.9531 0.3716 245
3.5918 7.828099999999999 -1.3066 0
13.2578 28.9062 1.1084 146
4.0781 8.8906 -1.2529000000000001 236
13.273399999999999 28.9375 1.8496000000000001 115
4.8203 10.5078 -1.21 129
5.8164 12.6797 -1.1357 248
13.531199999999998 29.5 3.4062 199
7.5312 16.4219 -1.0479 48
13.4219 29.2656 4.1367 88
11.531199999999998 25.1406 -0.9639 103
13.2656 28.9219 -0.3713 12
3.1797000000000004 6.8672 -1.3271000000000002 251
13.351600000000001 28.8438 0.37079999999999996 183
3.6191000000000004 7.8164 -1.3066 19
13.343800000000002 28.8281 1.1074 36
4.1172 8.8984 -1.2559 118
13.3594 28.8594 1.8477000000000001 76
4.8516 10.476600000000001 -1.209 147
5.8711 12.6797 -1.1377 205
13.6328 29.4531 3.4062 103
7.5898 16.3906 -1.0488 62
13.5 29.1562 4.1289 225
11.6172 25.0938 -0.9639 105
13.3672 28.875 -0.3711 67
3.2012 6.859400000000001 -1.3271000000000002 193
3.6406 7.800800000000001 -1.3056999999999999 162
13.4453 28.7969 1.1084 107
4.1523 8.8984 -1.2578 115
13.4375 28.7812 1.8457 206
4.8906 10.476600000000001 -1.2109 72
5.9062 12.648399999999999 -1.1367 116
7.6602 16.4062 -1.0508 246
13.5625 29.0625 4.1211 201
11.6719 25.0 -0.9614 83
3.2245999999999997 6.8477 -1.3271000000000002 164
3.6582 7.769500000000001 -1.3027000000000002 76
13.476600000000001 28.625 1.1035 9
4.1836 8.8828 -1.2578 106
13.5703 28.8281 1.8506 230
4.9258 10.460899999999999 -1.21 70
5.957000000000001 12.656199999999998 -1.1387 153
7.7148 16.3906 -1.0508 195
13.6406 28.9844 4.1133 36
11.7969 25.0625 -0.9653 4
13.468800000000002 28.6094 -0.3689 46
3.2617000000000003 6.855499999999999 -1.3311000000000002 171
13.6172 28.625 0.3699 43
3.7031 7.7812 -1.3075999999999999 168
13.5469 28.4844 1.0996 191
4.2227 8.875 -1.2588 93
13.6094 28.6094 1.8408000000000002 30
4.9727 10.4531 -1.2119 17
6.0 12.6094 -1.1367 226
7.8047 16.4062 -1.0547 63
13.7578 28.9219 4.1133 109
11.8906 25.0 -0.9648 103
13.531199999999998 28.4375 -0.3674 175
3.2870999999999997 6.8438 -1.3311000000000002 187
3.7401999999999997 7.7890999999999995 -1.3115 64
13.6797 28.4844 1.1016 106
4.2617 8.875 -1.2607 15
13.726600000000001 28.5781 1.8418 213
5.0234 10.460899999999999 -1.2148 121
13.0 27.0625 2.4492 89
6.0586 12.6172 -1.1396 209
7.863300000000001 16.375 -1.0547 158
13.843800000000002 28.8281 4.1094 172
12.0 24.9844 -0.9662999999999999 75
13.585899999999999 28.2812 -0.366 36
3.2988 6.8203 -1.3281 156
3.7598000000000003 7.7734000000000005 -1.3105000000000002 72
13.664100000000001 28.2344 1.0937999999999999 230
4.293 8.8672 -1.2617 14
13.789100000000001 28.5 1.8388999999999998 127
5.0508 10.4453 -1.2148 210
6.0938 12.593800000000002 -1.1387 88
7.9336 16.4062 -1.0576 77
13.906199999999998 28.7344 4.1016 155
12.0547 24.9062 -0.9643999999999999 55
13.6328 28.1719 -0.365 60
21.875 45.2188 8.8438 12
3.332 6.828099999999999 -1.3319999999999999 246
13.726600000000001 28.125 0.365 24
3.7891000000000004 7.765599999999999 -1.3115 133
13.6953 28.0625 1.0889 162
4.3281 8.8672 -1.2637 148
13.835899999999999 28.3594 1.8330000000000002 65
5.0898 10.4297 -1.2148 83
6.1602 12.625 -1.1436 76
7.980499999999999 16.3594 -1.0566 112
13.9844 28.6562 4.0977 3
12.125 24.8594 -0.9639 109
13.6875 28.0469 -0.364 211
22.0625 45.1875 8.8594 118
3.3632999999999997 6.828099999999999 -1.335 253
3.8164 7.75 -1.3105000000000002 109
13.789100000000001 28.0 1.0879 26
4.3516 8.8359 -1.2617 52
13.9453 28.3125 1.834 118
5.136699999999999 10.4297 -1.2178 131
6.1875 12.5625 -1.1406 148
8.0625 16.375 -1.0586 119
14.0547 28.5469 4.0859 51
12.218800000000002 24.8125 -0.9639 150
14.7344 29.9219 -0.3892 252
22.2656 45.2188 8.8828 48
3.3906 6.824199999999999 -1.3359 67
14.8125 29.8125 0.3884 73
3.8476999999999997 7.7422 -1.3115 142
18.7188 37.6875 1.4668 36
4.3867 8.8359 -1.2637 179
14.0156 28.2188 1.8300999999999998 162
5.1836 10.4375 -1.2197 199
6.2265999999999995 12.539100000000001 -1.1396 134
22.5781 45.4375 5.328099999999999 17
8.1328 16.375 -1.0615 170
14.156199999999998 28.4844 4.0859 52
12.351600000000001 24.8594 -0.9673 250
14.8047 29.7969 -0.3882 4
3.4082 6.8047 -1.335 142
14.914100000000001 29.7656 0.3884 29
3.8789 7.7422 -1.3135 96
4.4219 8.8281 -1.2646 190
14.093800000000002 28.125 1.8281 244
5.2188 10.414100000000001 -1.2197 188
6.292999999999999 12.5625 -1.1445 18
8.2031 16.375 -1.0625 74
14.226600000000001 28.3906 4.082 243
12.4297 24.8125 -0.9673 168
3.4297000000000004 6.792999999999999 -1.334 226
14.1797 28.0781 0.3669 9
3.9082 7.734400000000001 -1.3144999999999998 69
14.1328 27.9688 1.0928 166
4.457 8.8281 -1.2666 78
14.1406 28.0 1.8222999999999998 243
5.2578 10.414100000000001 -1.2217 178
6.3515999999999995 12.5781 -1.1475 156
8.2422 16.3125 -1.0605 26
14.2969 28.3125 4.0742 199
12.5 24.75 -0.9662999999999999 253
14.164100000000001 28.0312 -0.3665 40
3.4629000000000003 6.792999999999999 -1.3369 227
14.25 27.9531 0.366 174
3.9395 7.7265999999999995 -1.3163999999999998 30
14.226600000000001 27.9219 1.0928 63
4.4883 8.8047 -1.2666 173
14.2344 27.9375 1.8213 248
5.300800000000001 10.398399999999999 -1.2217 223
6.390599999999999 12.531199999999998 -1.1455 234
14.5 28.4375 3.3495999999999997 24
8.3281 16.3438 -1.0645 136
14.3828 28.2188 4.0664 245
12.648399999999999 24.8125 -0.9706999999999999 166
3.4941000000000004 6.796900000000001 -1.3397999999999999 133
3.9608999999999996 7.703099999999999 -1.3144999999999998 0
14.3281 27.875 1.0928 96
4.5391 8.8281 -1.2715 89
14.2969 27.8125 1.8163999999999998 9
5.328099999999999 10.3672 -1.2207 107
6.4453 12.539100000000001 -1.1475 18
8.4062 16.3594 -1.0674 168
14.468800000000002 28.1406 4.0664 17
12.75 24.7969 -0.9717 202
13.085899999999999 25.4531 4.3594 42
14.3047 27.8125 -0.365 31
3.5233999999999996 6.7890999999999995 -1.3418 116
3.9961 7.703099999999999 -1.3163999999999998 135
14.3672 27.7031 1.0879 96
4.5703 8.8047 -1.2705 28
14.3672 27.7031 1.8125 102
5.3789 10.3672 -1.2227 236
6.484400000000001 12.5 -1.1465 29
8.4609 16.3125 -1.0664 208
14.5625 28.0625 4.0625 155
12.8594 24.7812 -0.9731000000000001 225
13.2031 25.4531 4.3633 212
14.3828 27.7188 -0.3643 245
3.5449 6.7773 -1.3408000000000002 37
4.0312 7.703099999999999 -1.3193000000000001 30
14.4531 27.625 1.0869 218
4.5938 8.7812 -1.2695 174
14.4531 27.625 1.8115 162
5.425800000000001 10.3672 -1.2246 17
6.546900000000001 12.5156 -1.1494 254
8.5312 16.2969 -1.0684 233
14.6406 27.9688 4.0547 132
12.9844 24.8281 -0.9765999999999999 6
13.273399999999999 25.375 4.3594 32
14.468800000000002 27.6562 -0.364 172
3.5664 6.761699999999999 -1.3408000000000002 75
4.0586 7.6914 -1.3193000000000001 133
14.531199999999998 27.5625 1.0859 82
4.6289 8.7734 -1.2705 2
14.5156 27.5312 1.8075999999999999 203
5.4609000000000005 10.351600000000001 -1.2256 246
6.582000000000001 12.476600000000001 -1.1484 89
8.5938 16.2812 -1.0684 65
14.710899999999999 27.8906 4.0508 114
13.125 24.8906 -0.9804999999999999 152
13.398399999999999 25.3906 4.3711 23
14.539100000000001 27.5625 -0.3635 214
3.5938 6.7578 -1.3428 228
4.0781 7.667999999999999 -1.3184 214
14.6172 27.4844 1.0859 249
4.668 8.7734 -1.2734 229
14.593800000000002 27.4531 1.8056999999999999 15
5.4922 10.3281 -1.2246 215
6.640599999999999 12.4922 -1.1514 59
8.6562 16.2812 -1.0693000000000001 48
14.781199999999998 27.7969 4.043 44
13.210899999999999 24.8438 -0.981 186
13.5547 25.5 4.3945 108
14.6094 27.4688 -0.363 154
13.4375 25.2656 5.0391 227
3.6289 6.765599999999999 -1.3466999999999998 65
4.1094 7.6562 -1.3184 79
14.710899999999999 27.4219 1.085 143
4.7031 8.7656 -1.2744 0
14.6875 27.375 1.8047 140
5.5390999999999995 10.3281 -1.2275 23
6.6875 12.468800000000002 -1.1523 137
8.7422 16.2969 -1.0732 191
14.8594 27.7031 4.0391 4
13.3047 24.8125 -0.981 84
13.6875 25.5156 4.4102 11
14.6797 27.375 -0.36229999999999996 231
13.5469 25.25 5.0469 10
3.6523000000000003 6.75 -1.3457 95
4.1406 7.6562 -1.3213 162
14.773399999999999 27.3125 1.083 174
4.7383 8.7578 -1.2754 0
14.7578 27.2812 1.8018 142
5.574199999999999 10.3047 -1.2266 74
6.7227 12.4297 -1.1504 93
8.7891 16.25 -1.0723 244
13.875 25.6406 3.7461 12
12.8828 23.8125 -0.9438 145
12.8672 23.7969 4.1172 156
12.851600000000001 23.7656 -0.31489999999999996 237
13.648399999999999 25.2344 5.0508 154
3.6797000000000004 6.7461 -1.3477000000000001 150
4.1758 7.6562 -1.3232 162
12.9375 23.7188 0.9419 85
4.7656 8.7344 -1.2744 129
14.8594 27.25 1.8027000000000002 178
5.6289 10.3203 -1.2305 21
6.7773 12.4219 -1.1523 201
22.875 41.9375 5.0156 234
8.8672 16.2656 -1.0752 210
13.968800000000002 25.6094 3.748 31
13.523399999999999 24.7969 -0.9849 72
13.875 25.4375 4.4102 147
14.914100000000001 27.3438 -0.36329999999999996 6
13.726600000000001 25.1562 5.0469 165
3.7031 6.734400000000001 -1.3477000000000001 138
13.523399999999999 24.5938 0.3274 51
4.1992 7.636699999999999 -1.3222999999999998 137
14.9922 27.25 1.084 197
4.7969 8.7266 -1.2754 214
14.976600000000001 27.2344 1.8056999999999999 238
5.6562 10.289100000000001 -1.2295 167
6.828099999999999 12.4219 -1.1543 239
15.468800000000002 28.125 3.3691000000000004 49
8.8984 16.1719 -1.0713 30
14.031199999999998 25.5156 3.7401999999999997 217
13.601600000000001 24.7344 -0.9839 2
13.0547 23.75 4.125 231
13.523399999999999 24.5938 -0.3271 46
13.7578 25.0156 5.0273 242
3.7285000000000004 6.7265999999999995 -1.3486000000000002 115
13.5625 24.4688 0.3262 42
4.2305 7.6328 -1.3241999999999998 134
15.101600000000001 27.25 1.0859 61
4.8359 8.7188 -1.2773 44
15.1172 27.2812 1.8115 236
5.6875 10.2656 -1.2285 129
6.8711 12.398399999999999 -1.1543 79
8.9844 16.2188 -1.0762 65
14.148399999999999 25.5312 3.75 45
13.664100000000001 24.6406 -0.9819 24
13.148399999999999 23.7188 4.1289 48
13.6172 24.5625 -0.3276 68
13.7344 24.7812 4.9883 177
3.7558999999999996 6.7227 -1.3506 251
13.6094 24.3594 0.32539999999999997 174
4.2578 7.6211 -1.3241999999999998 53
4.8711 8.7188 -1.2793 119
18.0938 32.375 2.1562 97
5.730499999999999 10.2578 -1.2305 166
6.9140999999999995 12.375 -1.1543 22
9.0547 16.2031 -1.0771 216
14.2578 25.5156 3.7539 48
13.6875 24.5 -0.978 78
13.148399999999999 23.5312 4.1055 38
13.648399999999999 24.4375 -0.3264 237
13.218800000000002 23.6719 4.7734 177
3.7891000000000004 6.7227 -1.3535 64
13.718800000000002 24.3438 0.3259 44
4.2852 7.605499999999999 -1.3241999999999998 121
4.9023 8.7031 -1.2793 170
18.25 32.375 2.1602 14
5.7734000000000005 10.2422 -1.2314 11
6.9727 12.375 -1.1562000000000001 234
9.125 16.1875 -1.0791 100
13.539100000000001 24.0312 3.543 182
13.3281 23.6562 -0.9462999999999999 63
13.2656 23.5469 4.1133 76
13.281199999999998 23.5625 -0.3154 152
13.2969 23.5938 4.7695 235
3.8164 6.7188 -1.3555000000000001 183
4.3203 7.605499999999999 -1.3271000000000002 240
4.9375 8.6875 -1.2803 190
18.375 32.3438 2.1621 145
5.8125 10.2344 -1.2324 221
7.019500000000001 12.3594 -1.1572 39
9.1797 16.1562 -1.0791 50
13.656199999999998 24.0312 3.5507999999999997 35
13.6094 23.9531 -0.9604 184
13.343800000000002 23.4844 4.1133 70
13.593800000000002 23.9219 -0.321 69
13.4922 23.75 4.8086 125
3.8339999999999996 6.6953 -1.3525 67
4.3594 7.613300000000001 -1.3311000000000002 223
4.9688 8.6797 -1.2812000000000001 108
18.5156 32.3125 2.1641 242
5.855499999999999 10.2188 -1.2334 235
7.074199999999999 12.351600000000001 -1.1592 126
21.8125 38.0938 4.6094 167
9.2422 16.1406 -1.0791 14
13.6797 23.8906 3.5351999999999997 33
13.781199999999998 24.0625 -0.9662999999999999 176
13.6797 23.875 4.1914 98
13.718800000000002 23.9531 -0.3218 45
13.593800000000002 23.7344 4.8164 216
3.8672000000000004 6.6953 -1.3563999999999998 137
4.3789 7.5859000000000005 -1.3291 33
5.0117 8.6797 -1.2841999999999998 228
15.7656 27.2969 1.8319999999999999 40
5.886699999999999 10.1953 -1.2334 216
7.1328 12.3594 -1.1621 98
21.8281 37.8125 4.5859 140
9.3125 16.1406 -1.0811 216
14.164100000000001 24.5312 3.6387 131
13.8828 24.0469 -0.9682999999999999 235
13.773399999999999 23.8594 4.1953 168
13.835899999999999 23.9688 -0.32280000000000003 249
13.5781 23.5156 4.7812 230
3.9023000000000003 6.703099999999999 -1.3603999999999998 39
15.898399999999999 27.3281 0.3689 92
4.4062 7.5664 -1.3291 203
15.851600000000001 27.2344 1.0986 31
5.0508 8.6719 -1.2861000000000002 110
15.8594 27.25 1.8311000000000002 176
5.925800000000001 10.1797 -1.2334 242
7.167999999999999 12.3125 -1.1602 85
14.460899999999999 24.8438 3.0176 40
9.3906 16.125 -1.083 124
15.648399999999999 26.8906 3.9961 149
13.976600000000001 24.0156 -0.9682999999999999 14
13.835899999999999 23.7656 4.1875 47
13.9453 23.9688 -0.3232 191
13.6406 23.4375 4.7734 230
3.9316000000000004 6.699199999999999 -1.3622999999999998 197
4.4531 7.5859000000000005 -1.335 70
30.7969 52.5 2.123 220
5.0859 8.6641 -1.2871000000000001 43
15.9844 27.25 1.8359 95
5.9765999999999995 10.1875 -1.2363 224
7.230499999999999 12.3203 -1.1631 184
13.781199999999998 23.4844 2.8574 189
9.4531 16.125 -1.085 3
15.773399999999999 26.8906 4.0039 67
14.5625 24.8125 -1.0029000000000001 45
13.789100000000001 23.5156 4.1484 6
13.6094 23.2031 4.7344 158
3.9531 6.6836 -1.3613 127
4.4688 7.5586 -1.3319999999999999 242
31.0156 52.4375 2.125 49
5.1133 8.6406 -1.2861000000000002 44
16.1094 27.2344 1.8378999999999999 7
6.015599999999999 10.1719 -1.2373 147
7.2773 12.3047 -1.1641 24
13.898399999999999 23.5 2.8651999999999997 21
9.5391 16.125 -1.0879 21
14.210899999999999 24.0312 3.5858999999999996 114
14.2422 24.0781 -0.9751000000000001 81
13.9375 23.5625 4.168 32
16.125 27.2656 -0.3696 172
13.7344 23.2188 4.75 140
3.9707 6.6602 -1.3603999999999998 243
18.4531 30.9531 0.4207 162
4.5039 7.550800000000001 -1.334 4
5.1484000000000005 8.6406 -1.2881 40
16.2188 27.2188 1.8408000000000002 78
6.050800000000001 10.1484 -1.2373 55
7.3398 12.3125 -1.167 20
13.9297 23.3594 2.8535000000000004 67
9.5469 16.0156 -1.082 127
14.2969 23.9844 -0.9731000000000001 38
14.0 23.4844 4.1641 70
16.2812 27.2969 -0.37079999999999996 137
13.7578 23.0781 4.7305 202
4.0039 6.6640999999999995 -1.3633000000000002 68
18.5781 30.9219 0.42090000000000005 154
4.5234 7.5352 -1.334 228
5.1914 8.6484 -1.2919999999999998 10
16.3438 27.2188 1.8447 41
6.0859000000000005 10.1328 -1.2383 44
7.394500000000001 12.3125 -1.1699 24
14.0469 23.3906 2.8632999999999997 176
9.6484 16.0625 -1.0879 154
13.9922 23.2969 3.4901999999999997 147
14.1875 23.625 -0.9604 62
14.0547 23.4062 4.1562 98
14.125 23.5156 -0.31980000000000003 45
15.148399999999999 25.2344 5.1797 9
4.0312 6.6640999999999995 -1.3662 115
4.5469 7.515599999999999 -1.3330000000000002 53
5.2148 8.6172 -1.29 203
16.4844 27.2344 1.8496000000000001 203
6.1211 10.1172 -1.2383 24
7.4414 12.2969 -1.1699 141
14.125 23.3281 2.8613 154
9.7031 16.0312 -1.0879 191
14.3281 23.6719 3.5547000000000004 40
14.125 23.3438 4.1523 40
14.2422 23.5312 -0.3208 252
15.414100000000001 25.4688 5.2422 89
4.0547 6.644500000000001 -1.3652000000000002 97
14.2969 23.4375 0.3201 119
4.5859 7.515599999999999 -1.3359 130
16.6094 27.2188 1.1113 173
5.25 8.6094 -1.291 90
16.625 27.2344 1.8535 146
6.1797 10.125 -1.2422 189
7.484400000000001 12.2656 -1.1699 111
14.1953 23.2656 2.8594 201
9.75 15.9844 -1.0869 101
14.3828 23.5781 3.5469 103
14.4531 23.6875 -0.9673 150
14.218800000000002 23.2969 4.1562 247
14.335899999999999 23.5 -0.321 108
14.273399999999999 23.3906 4.8242 24
4.082 6.636699999999999 -1.3662 12
14.398399999999999 23.4062 0.3206 41
4.6133 7.5 -1.3359 89
16.7344 27.2031 1.1133 228
5.2890999999999995 8.6016 -1.2930000000000001 87
16.7969 27.2969 1.8622999999999998 26
6.2188 10.1094 -1.2431999999999999 254
7.5390999999999995 12.2578 -1.1719 167
9.8047 15.9453 -1.0869 141
14.093800000000002 22.9219 3.4551 152
14.5547 23.6719 -0.9688 116
14.2422 23.1719 4.1406 58
14.4531 23.5 -0.3218 46
14.3828 23.3906 4.832 101
4.1055 6.625 -1.3672 213
14.539100000000001 23.4531 0.3218 28
4.6484 7.5 -1.3388999999999998 1
5.3203 8.5859 -1.2930000000000001 242
6.261699999999999 10.1016 -1.2451 152
7.605499999999999 12.273399999999999 -1.1758 18
9.8516 15.898399999999999 -1.0859 36
14.1719 22.875 3.4551 53
15.5156 25.0312 -1.0264 111
14.031199999999998 22.6406 4.0547 101
16.9219 27.3125 -0.37479999999999997 2
14.523399999999999 23.4375 4.8516 222
4.1328 6.6172 -1.3681999999999999 83
4.6758 7.488300000000001 -1.3397999999999999 155
5.363300000000001 8.5859 -1.2959 28
6.2852 10.0625 -1.2422 162
7.6523 12.25 -1.1758 233
15.273399999999999 24.4531 3.0254000000000003 14
9.9062 15.8594 -1.0859 233
14.2969 22.8906 3.4668 90
14.1328 22.625 4.0625 239
17.0312 27.2812 -0.37520000000000003 144
13.914100000000001 22.2812 4.625 74
4.1641 6.613300000000001 -1.3700999999999999 42
4.6953 7.4609000000000005 -1.3378999999999999 153
5.3984000000000005 8.5781 -1.2978999999999998 148
6.332000000000001 10.0625 -1.2451 137
7.699199999999999 12.2344 -1.1768 2
15.2422 24.2188 3.0039 134
9.9766 15.851600000000001 -1.0869 12
14.335899999999999 22.7656 3.4551 248
14.5547 23.1094 4.1602 9
17.1719 27.2656 -0.376 127
13.9844 22.2188 4.6211 93
4.1875 6.5977 -1.3711000000000002 232
4.7344 7.4609000000000005 -1.3408000000000002 9
5.425800000000001 8.5547 -1.2978999999999998 127
17.2969 27.2656 1.876 164
6.3711 10.0469 -1.2451 241
7.7539 12.218800000000002 -1.1787 252
15.3125 24.1406 3.0 207
10.0469 15.835899999999999 -1.0879 92
14.4219 22.7344 3.457 96
16.0938 25.375 -1.0479 85
13.9531 22.0 3.9668 177
17.3125 27.2812 -0.377 199
13.875 21.875 4.5586 107
4.2109 6.5859000000000005 -1.3711000000000002 2
17.4375 27.2656 0.3774 29
4.7617 7.449199999999999 -1.3418 116
17.4062 27.2188 1.126 214
5.4609000000000005 8.5391 -1.2988 26
17.3906 27.2188 1.8769999999999998 170
6.421900000000001 10.0469 -1.248 123
7.8086 12.218800000000002 -1.1806999999999999 52
15.3047 23.9375 2.9824 119
10.0781 15.7656 -1.0859 66
14.523399999999999 22.7188 3.4629000000000003 158
16.2188 25.375 -1.0498 15
14.0469 21.9688 3.9707 56
17.4219 27.2344 -0.3772 65
13.9375 21.7969 4.5547 203
4.2344 6.574199999999999 -1.3711000000000002 191
4.793 7.4414 -1.3437999999999999 131
17.5156 27.1875 1.1279000000000001 209
5.4922 8.5234 -1.2988 78
6.4609000000000005 10.0312 -1.249 0
7.855499999999999 12.1953 -1.1816 11
15.4453 23.9688 2.9922000000000004 22
10.125 15.718800000000002 -1.0859 67
14.835899999999999 23.0312 3.5195 6
14.101600000000001 21.8906 3.9648000000000003 27
17.5625 27.25 -0.3782 118
14.039100000000001 21.7969 4.5625 52
4.2539 6.5586 -1.3711000000000002 95
4.8125 7.417999999999999 -1.3418 44
32.9688 50.8438 2.1133 159
5.5312 8.5312 -1.3018 186
33.5 51.6562 3.5801 255
6.484400000000001 9.9922 -1.248 218
7.9062 12.1875 -1.1836 41
15.148399999999999 23.3594 2.9219 130
10.1875 15.7031 -1.0859 192
16.9688 26.1562 4.0039 5
16.4531 25.375 -1.0547 222
14.1875 21.875 3.9688 113
17.6875 27.2656 -0.37920000000000004 184
14.281199999999998 22.0156 4.6211 23
4.2852 6.5586 -1.374 165
4.8438 7.4140999999999995 -1.3437999999999999 126
33.2188 50.8438 2.1191 85
5.5664 8.5156 -1.3037 190
33.625 51.4688 3.5762 119
6.5390999999999995 10.0078 -1.252 58
7.953099999999999 12.1719 -1.1845999999999999 244
15.156199999999998 23.2031 2.9082 151
10.273399999999999 15.718800000000002 -1.0898 205
17.0625 26.1094 4.0078 5
14.6719 22.4531 4.0859 134
17.8281 27.2812 -0.3801 142
14.148399999999999 21.6562 4.5547 245
4.3125 6.546900000000001 -1.374 131
4.8789 7.4062 -1.3457 7
33.4062 50.75 2.1191 137
5.5938 8.4922 -1.3027000000000002 50
6.578099999999999 9.9922 -1.2529000000000001 253
8.0 12.148399999999999 -1.1845999999999999 100
15.1875 23.0625 2.8983999999999996 157
10.3281 15.6797 -1.0898 168
15.625 23.7188 3.6483999999999996 160
14.7656 22.4062 4.0859 35
15.718800000000002 23.875 -0.3333 150
14.125 21.4531 4.5195 32
4.332 6.5273 -1.374 31
4.9062 7.390599999999999 -1.3457 29
33.6562 50.7188 2.123 13
5.625 8.4766 -1.3037 204
6.6211 9.9766 -1.2539 111
8.0547 12.1328 -1.1855 214
15.2422 22.9688 2.8926 225
10.398399999999999 15.6719 -1.0918 195
14.414100000000001 21.7188 3.9688 91
15.6953 23.6406 -0.3311 87
14.1875 21.375 4.5156 31
4.3555 6.5078 -1.3730000000000002 67
18.1875 27.2031 0.3818 217
4.9375 7.3828 -1.3477000000000001 168
18.1719 27.1719 1.1396 233
5.6640999999999995 8.4688 -1.3056999999999999 214
18.1719 27.1719 1.8994 5
6.671900000000001 9.9688 -1.2568000000000001 237
8.1328 12.164100000000001 -1.1914 93
15.289100000000001 22.8438 2.8848000000000003 234
10.4453 15.6172 -1.0908 137
14.539100000000001 21.7344 3.3574 62
15.835899999999999 23.6719 -0.9926999999999999 246
14.4453 21.5938 3.9551 154
15.7578 23.5625 -0.3306 44
14.4453 21.5938 4.5742 250
4.3828 6.5039 -1.375 70
18.3906 27.2812 0.38380000000000003 173
4.9688 7.375 -1.3496000000000001 225
18.2969 27.1406 1.1406 71
5.703099999999999 8.4609 -1.3066 225
18.2969 27.1406 1.9013999999999998 225
6.703099999999999 9.9453 -1.2559 246
8.1719 12.1328 -1.1914 206
15.406199999999998 22.8594 2.8926 103
10.5078 15.593800000000002 -1.0908 171
14.601600000000001 21.6562 3.3555 235
15.898399999999999 23.5938 -0.9917 67
14.5 21.5156 3.9492000000000003 239
15.843800000000002 23.5 -0.3306 186
14.7344 21.8594 4.6406 145
4.4062 6.4922 -1.376 208
4.9844 7.3398 -1.3466999999999998 153
18.4219 27.1406 1.1436 243
5.734400000000001 8.4453 -1.3075999999999999 99
18.4375 27.1562 1.9072 131
6.7461 9.9375 -1.2578 23
8.2109 12.101600000000001 -1.1904000000000001 242
15.531199999999998 22.875 2.9023000000000003 61
10.593800000000002 15.601600000000001 -1.0947 75
14.6406 21.5625 3.3476999999999997 185
15.0703 22.2031 4.0859 231
15.9219 23.4531 -0.3306 86
14.8203 21.8281 4.6445 109
4.4375 6.488300000000001 -1.3788999999999998 33
5.0117 7.332000000000001 -1.3477000000000001 147
18.5938 27.1875 1.1484 135
5.761699999999999 8.4297 -1.3075999999999999 24
18.5625 27.1562 1.9111000000000002 242
6.792999999999999 9.9375 -1.2607 207
8.2734 12.101600000000001 -1.1934 48
15.664100000000001 22.9062 2.9120999999999997 230
10.656199999999998 15.593800000000002 -1.0957 179
14.781199999999998 21.6094 3.3632999999999997 235
16.1719 23.6406 -0.9984999999999999 162
15.1406 22.1406 4.0859 113
14.851600000000001 21.7188 4.6328 232
4.4609 6.4688 -1.3779 30
5.0547 7.3359000000000005 -1.3516 150
18.7188 27.1562 1.1504 101
5.796900000000001 8.4062 -1.3086000000000002 28
18.7031 27.125 1.9141 59
6.8438 9.9297 -1.2627 33
8.3281 12.0781 -1.1943000000000001 3
15.8125 22.9375 2.9238 75
10.718800000000002 15.5469 -1.0957 54
14.9453 21.6875 3.3827999999999996 244
14.781199999999998 21.4531 3.9648000000000003 255
18.9375 27.4688 -0.3892 123
15.0781 21.875 4.6758 9
4.4766 6.4453 -1.376 246
5.0859 7.324199999999999 -1.3535 194
22.5312 32.4375 1.3769999999999998 254
5.832000000000001 8.3984 -1.3096 244
18.875 27.1875 1.9228999999999998 154
6.875 9.8984 -1.2627 23
8.3672 12.0469 -1.1943000000000001 191
15.875 22.8594 2.9199 215
10.8047 15.5625 -1.0996 150
17.4688 25.1406 3.9336 53
16.8438 24.25 -1.0293 66
14.8594 21.3906 3.9648000000000003 173
19.0469 27.4219 -0.38939999999999997 38
15.148399999999999 21.8125 4.6758 70
4.5078 6.4453 -1.3788999999999998 87
5.1094 7.3086 -1.3535 20
22.5312 32.2188 1.3711000000000002 55
5.8711 8.3984 -1.3125 172
19.0 27.1719 1.9258000000000002 95
6.9140999999999995 9.8906 -1.2637 44
8.4453 12.0703 -1.1992 176
16.0 22.875 2.9297000000000004 2
10.8672 15.539100000000001 -1.1006 91
17.5625 25.1094 3.9355 160
16.8125 24.0469 -1.0225 210
14.898399999999999 21.3125 3.9589999999999996 110
19.1875 27.4375 -0.3906 188
15.1406 21.6406 4.6523 93
4.5273 6.4297 -1.3788999999999998 11
5.136699999999999 7.292999999999999 -1.3535 217
22.5312 31.9844 1.3643 55
5.9062 8.3828 -1.3144999999999998 167
19.0625 27.0625 1.9228999999999998 37
6.957000000000001 9.875 -1.2656 66
16.6094 23.5781 2.3516 118
8.4922 12.0547 -1.2002 187
10.9453 15.539100000000001 -1.1035 36
18.0 25.5625 4.0156 192
16.8281 23.8906 -1.0186 17
14.960899999999999 21.25 3.9551 237
19.3125 27.4219 -0.3914 47
15.8203 22.4531 4.8359 181
4.5586 6.425800000000001 -1.3818000000000001 23
5.167999999999999 7.2852 -1.3555000000000001 196
17.2656 24.3281 1.04 9
5.9375 8.3672 -1.3144999999999998 44
19.1406 26.9688 1.9209 159
7.011699999999999 9.8828 -1.2686 16
16.6875 23.5156 2.3516 32
8.5234 12.0156 -1.1992 118
18.2188 25.6875 3.3047000000000004 229
11.0469 15.5625 -1.1074 78
18.1406 25.5625 4.0273 170
16.8594 23.7656 -1.0156 245
15.414100000000001 21.7188 4.0547 90
19.4688 27.4375 -0.3926 216
15.468800000000002 21.7969 4.707 20
4.582 6.4140999999999995 -1.3828 194
5.207000000000001 7.2852 -1.3584 96
16.9531 23.7188 1.0166 91
5.9609000000000005 8.3438 -1.3135 57
16.875 23.625 1.6865 126
7.0547 9.8672 -1.2705 205
16.7812 23.4844 2.3535 122
8.5781 12.0 -1.2012 155
17.8438 24.9844 3.2226999999999997 0
11.0703 15.4844 -1.1045 33
18.1875 25.4531 4.0195 2
16.9375 23.6875 -1.0156 95
15.3125 21.4375 4.0117 213
19.6094 27.4375 -0.3933 172
15.4297 21.5938 4.6719 11
4.6016 6.390599999999999 -1.3818000000000001 61
17.2656 23.9688 0.34450000000000003 152
5.238300000000001 7.2734000000000005 -1.3603999999999998 54
17.0469 23.6562 1.0166 166
6.0078 8.3438 -1.3174000000000001 79
16.9375 23.5312 1.6846 28
7.0898 9.8438 -1.2705 100
17.7344 24.625 2.4746 83
8.6406 12.0 -1.2041 198
17.8906 24.8438 3.2129000000000003 32
11.148399999999999 15.4844 -1.1074 96
15.8672 22.0312 3.4863 91
17.0156 23.625 -1.0146 136
15.1797 21.0781 3.9531 91
17.2969 24.0156 -0.3452 55
15.5 21.5312 4.6719 94
4.6211 6.3711 -1.3809 187
17.3125 23.8594 0.34380000000000005 167
5.265599999999999 7.2578 -1.3613 151
17.1562 23.6562 1.0186 99
6.050800000000001 8.3438 -1.3203 18
17.0781 23.5312 1.6885 52
7.1289 9.8281 -1.2715 240
19.5156 26.8906 2.7108999999999996 234
8.6953 11.9844 -1.2051 68
17.9375 24.7188 3.2051 99
11.1953 15.4375 -1.1064 114
15.898399999999999 21.9219 3.4785000000000004 122
17.0781 23.5469 -1.0137 22
15.2344 21.0 3.9492000000000003 237
17.375 23.9375 -0.345 251
15.6953 21.625 4.7031 94
4.6602 6.3711 -1.3847999999999998 18
17.4375 23.8438 0.34450000000000003 127
5.292999999999999 7.238300000000001 -1.3613 119
19.8438 27.1406 1.1719 127
6.082000000000001 8.3203 -1.3203 29
19.7969 27.0781 1.9491999999999998 144
7.171900000000001 9.8125 -1.2725 12
19.6406 26.875 2.7148000000000003 161
8.75 11.968800000000002 -1.208 177
18.125 24.7812 3.2226999999999997 56
11.2656 15.414100000000001 -1.1084 231
15.976600000000001 21.8594 3.4766000000000004 40
17.1875 23.5 -1.0146 169
15.3125 20.9531 3.9512 204
17.4844 23.9062 -0.3455 164
15.726600000000001 21.5156 4.6914 104
4.6875 6.363300000000001 -1.3866999999999998 209
5.328099999999999 7.234400000000001 -1.3633000000000002 16
19.9688 27.1094 1.1738 157
6.109400000000001 8.2969 -1.3203 173
19.9531 27.0938 1.9550999999999998 55
7.230499999999999 9.8125 -1.2764 18
8.7969 11.9453 -1.208 108
11.343800000000002 15.398399999999999 -1.1104 115
16.1094 21.875 3.4901999999999997 166
17.2812 23.4688 -1.0156 28
15.398399999999999 20.9062 3.9531 21
20.0312 27.1875 -0.39399999999999996 4
15.6875 21.2969 4.6562 162
4.7109 6.3515999999999995 -1.3866999999999998 16
5.355499999999999 7.2227 -1.3643 23
20.0938 27.1094 1.1768 156
6.144500000000001 8.2891 -1.3213 171
20.0938 27.0938 1.96 105
7.265599999999999 9.7969 -1.2773 135
19.9219 26.8594 2.7285000000000004 112
8.8359 11.914100000000001 -1.208 59
16.7344 22.5625 2.9492000000000003 225
11.375 15.343800000000002 -1.1084 38
16.2344 21.8906 3.5 142
17.4062 23.4688 -1.0186 49
16.0781 21.6719 4.1094 143
20.1562 27.1719 -0.3948 142
15.6094 21.0469 4.6133 54
4.7344 6.3398 -1.3877000000000002 137
5.4023 7.238300000000001 -1.3711000000000002 253
20.2656 27.1406 1.1816 236
6.175800000000001 8.2734 -1.3222999999999998 81
20.2188 27.0781 1.9628999999999999 107
7.3125 9.7891 -1.2793 149
20.0625 26.875 2.7363 96
8.8984 11.9219 -1.2119 214
16.8125 22.5156 2.9492000000000003 145
11.4453 15.3281 -1.1104 114
16.2656 21.7812 3.4901999999999997 255
17.5 23.4375 -1.0195 81
15.8672 21.25 4.0391 179
20.2812 27.1562 -0.39549999999999996 183
15.656199999999998 20.9688 4.6094 193
4.7656 6.3359000000000005 -1.3906 3
20.5156 27.2656 0.3982 123
5.417999999999999 7.199199999999999 -1.3672 185
20.5156 27.2656 1.1904000000000001 54
6.2188 8.2656 -1.3241999999999998 116
20.4062 27.125 1.9727000000000001 107
7.3438 9.7578 -1.2793 104
8.9453 11.8906 -1.2119 208
16.8438 22.3906 2.9414 136
11.523399999999999 15.3125 -1.1123 160
15.875 21.1094 3.3906 93
17.6562 23.4688 -1.0244 170
15.875 21.0938 4.0195 211
20.4375 27.1719 -0.3967 72
15.726600000000001 20.9062 4.6055 156
4.8008 6.332000000000001 -1.3936000000000002 160
20.625 27.2188 0.39840000000000003 220
5.449199999999999 7.1875 -1.3691 132
20.6406 27.2344 1.1914 227
6.261699999999999 8.2656 -1.3281 29
20.5625 27.125 1.9775 242
7.394500000000001 9.7578 -1.2822 0
20.3438 26.8438 2.748 143
9.0078 11.8828 -1.2139 33
16.5781 21.8594 2.8789 69
11.5625 15.2578 -1.1113 92
15.9297 21.0156 3.3867000000000003 108
15.906199999999998 20.9844 4.0078 173
20.5938 27.1875 -0.3979 221
15.8125 20.8594 4.6094 172
4.8242 6.3203 -1.3944999999999999 107
5.484400000000001 7.1875 -1.3721 194
20.7969 27.25 1.1953 136
6.2773 8.2266 -1.3252000000000002 51
20.7031 27.125 1.9834 39
7.4414 9.75 -1.2852000000000001 236
20.5 26.8594 2.7558999999999996 30
9.0547 11.8672 -1.2158 27
16.5156 21.6406 2.8574 88
11.6328 15.2422 -1.1133 110
15.960899999999999 20.9062 3.3789 17
15.9844 20.9375 4.0117 4
20.7344 27.1562 -0.3987 12
16.0156 20.9844 4.6484 64
4.8438 6.3047 -1.3944999999999999 113
5.515599999999999 7.1797 -1.374 2
20.9219 27.2344 1.1973 237
6.3086 8.2109 -1.3262 13
20.8281 27.1094 1.9863 32
7.484400000000001 9.7422 -1.2861000000000002 122
20.6094 26.8281 2.7598000000000003 46
9.0938 11.835899999999999 -1.2158 92
16.5938 21.5938 2.8574 13
11.6953 15.218800000000002 -1.1143 155
16.0312 20.8594 3.3789 107
16.0312 20.8594 4.0078 119
20.875 27.1562 -0.3997 199
16.1719 21.0469 4.6719 119
4.8711 6.292999999999999 -1.3955000000000002 170
21.1094 27.2656 0.4023 94
5.546900000000001 7.1640999999999995 -1.375 50
21.0781 27.2344 1.2012 231
6.3515999999999995 8.2031 -1.3291 71
20.9844 27.0938 1.9912 155
7.5273 9.7188 -1.2871000000000001 174
9.1641 11.835899999999999 -1.2187999999999999 237
16.7031 21.5625 2.8613 251
11.75 15.1719 -1.1143 183
16.1406 20.8438 3.3848000000000003 48
19.9844 25.8125 -1.1377 230
16.1719 20.8906 4.0234 94
21.0312 27.1719 -0.40090000000000003 136
16.2188 20.9375 4.6641 172
4.9023 6.2852 -1.3975 86
21.25 27.2344 0.4031 164
5.5703 7.140599999999999 -1.374 231
21.2344 27.2188 1.2031 4
6.394500000000001 8.1953 -1.3319999999999999 178
21.1406 27.1094 1.9980000000000002 93
7.5625 9.6953 -1.2881 13
20.9219 26.8281 2.7754000000000003 176
9.2188 11.8203 -1.2207 252
16.8281 21.5781 2.873 79
11.8125 15.148399999999999 -1.1152 21
16.75 21.4844 3.5 29
18.4375 23.625 -1.0449 153
16.4531 21.0938 4.0703 229
16.2656 20.8594 4.6602 234
4.9336 6.2773 -1.4003999999999999 181
21.4375 27.2812 0.4048 26
5.5977 7.1289 -1.376 173
21.375 27.2188 1.207 254
6.4336 8.1875 -1.334 209
21.2812 27.0938 2.002 145
7.6015999999999995 9.6797 -1.2891 161
19.4219 24.7344 2.5664 216
9.2656 11.7969 -1.2217 103
17.3281 22.0469 2.9433999999999996 105
11.8828 15.125 -1.1162 45
16.7812 21.3594 3.4882999999999997 154
16.4844 20.9844 4.0625 59
18.4531 23.5 -0.3486 35
16.3281 20.7812 4.6523 97
4.957 6.265599999999999 -1.4013999999999998 114
21.5312 27.2031 0.4048 67
5.6289 7.1172 -1.3769999999999998 190
21.5312 27.2188 1.21 6
6.4609000000000005 8.1641 -1.334 25
21.4219 27.0781 2.0059 196
7.6523 9.6719 -1.2919999999999998 164
19.5156 24.6562 2.5645 102
9.3203 11.781199999999998 -1.2227 246
17.3906 21.9844 2.9414 17
11.9453 15.101600000000001 -1.1172 1
16.875 21.3281 3.4922000000000004 230
16.5938 20.9688 4.0703 117
16.3906 20.7031 4.6484 205
4.9766 6.2461 -1.4013999999999998 182
21.75 27.2812 0.4072 65
5.671900000000001 7.1172 -1.3809 10
21.6875 27.2188 1.2129 23
6.4922 8.1484 -1.335 108
21.5781 27.0781 2.0117 103
7.703099999999999 9.6641 -1.2949000000000002 173
19.5469 24.5312 2.5586 254
9.3438 11.726600000000001 -1.2217 31
17.5 21.9688 2.9473000000000003 160
12.031199999999998 15.093800000000002 -1.1201 107
16.9375 21.25 3.4901999999999997 46
16.7031 20.9688 4.082 166
21.6094 27.125 -0.4048 184
16.4375 20.6406 4.6445 129
5.0039 6.238300000000001 -1.4022999999999999 177
21.8594 27.2344 0.4075 71
5.707000000000001 7.113300000000001 -1.3838 185
21.8438 27.2188 1.2168 251
6.5390999999999995 8.1484 -1.3378999999999999 22
21.7031 27.0312 2.0137 20
7.738300000000001 9.6406 -1.2949000000000002 190
9.4141 11.726600000000001 -1.2246 101
17.5781 21.9062 2.9473000000000003 77
12.125 15.101600000000001 -1.124 137
17.0938 21.2969 3.5058999999999996 55
20.75 25.8438 -1.1553 49
17.2969 21.5469 4.207 59
21.7656 27.125 -0.4058 59
16.5312 20.5938 4.6484 118
5.0312 6.2265999999999995 -1.4043 114
22.0625 27.2969 0.4094 109
5.730499999999999 7.0898 -1.3838 232
22.0156 27.2188 1.2207 102
6.578099999999999 8.1406 -1.3408000000000002 200
21.8594 27.0312 2.0195 146
7.7852 9.6328 -1.2969 174
9.4766 11.726600000000001 -1.2275 50
17.6562 21.8438 2.9492000000000003 63
12.1953 15.085899999999999 -1.126 130
17.1094 21.1719 3.4961 216
20.8906 25.8438 -1.1592 6
17.4219 21.5625 4.2188 240
21.9219 27.125 -0.40700000000000003 143
18.2344 22.5469 5.1055 42
5.0586 6.2148 -1.4053 232
22.2031 27.2656 0.4104 17
5.7539 7.0664 -1.3828 84
22.1562 27.2188 1.2236 110
6.6172 8.1328 -1.3428 102
22.0156 27.0312 2.0254 22
7.828099999999999 9.6172 -1.2988 27
9.5156 11.6953 -1.2275 187
17.7344 21.7812 2.9473000000000003 178
12.2578 15.0547 -1.127 234
17.2188 21.1406 3.502 114
17.5781 21.5781 4.2383 109
22.0938 27.1406 -0.40840000000000004 135
18.6562 22.9219 5.207000000000001 214
5.0898 6.2148 -1.4091999999999998 101
22.2344 27.1406 0.4094 69
5.7734000000000005 7.046900000000001 -1.3828 28
22.1719 27.0625 1.2197 72
6.640599999999999 8.1094 -1.3428 249
22.1562 27.0312 2.0312 215
7.8672 9.6016 -1.2997999999999998 14
9.5625 11.6719 -1.2295 8
17.7656 21.6719 2.9414 84
12.273399999999999 14.976600000000001 -1.124 98
17.4062 21.2344 3.5273000000000003 200
17.5 21.3594 4.207 93
22.2031 27.1094 -0.4089 22
18.7812 22.9375 5.2188 138
5.1094 6.1953 -1.4082 252
5.8164 7.050800000000001 -1.3866999999999998 96
22.2969 27.0312 1.2217 51
6.6797 8.1016 -1.3447 134
22.2969 27.0312 2.0352 128
7.917999999999999 9.6016 -1.3037 54
9.6172 11.656199999999998 -1.2305 245
17.8906 21.6875 2.9512 166
12.2969 14.906199999999998 -1.1220999999999999 113
17.5312 21.2656 3.5391000000000004 188
17.5781 21.3125 4.207 101
22.3594 27.1094 -0.4102 162
18.8438 22.8438 5.2109000000000005 104
5.136699999999999 6.1797 -1.4091999999999998 216
5.855499999999999 7.042999999999999 -1.3896000000000002 155
22.4688 27.0312 1.2256 26
6.7265999999999995 8.0938 -1.3486000000000002 52
22.4375 27.0 2.0391 196
7.9648 9.5859 -1.3047 233
9.6641 11.6328 -1.2314 78
17.9375 21.5781 2.9452999999999996 20
12.343800000000002 14.851600000000001 -1.1211 62
17.6094 21.1875 3.5391000000000004 140
17.6719 21.25 4.207 125
22.5156 27.0938 -0.4111 195
20.4688 24.625 5.640599999999999 33
5.1602 6.1640999999999995 -1.4102000000000001 128
5.8828 7.0273 -1.3916 80
22.6562 27.0625 1.2305 34
6.761699999999999 8.0781 -1.3496000000000001 63
22.5938 27.0 2.0449 242
8.0078 9.5703 -1.3075999999999999 8
20.4062 24.375 2.5938 58
9.7344 11.6328 -1.2354 64
18.7969 22.4531 3.0723000000000003 199
12.406199999999998 14.8203 -1.1220999999999999 177
18.0781 21.6094 3.6191000000000004 165
18.2969 21.8594 4.3398 186
22.7188 27.1562 -0.4131 218
5.1953 6.1640999999999995 -1.4141 8
5.8984000000000005 6.9961 -1.3887 182
6.8047 8.0703 -1.3525 45
22.7656 27.0 2.0527 193
8.0625 9.5547 -1.3096 144
20.4375 24.2344 2.5858999999999996 178
9.7812 11.601600000000001 -1.2363 153
18.7656 22.25 3.0547000000000004 36
12.4453 14.7578 -1.1201 146
18.2188 21.6094 3.6308999999999996 49
18.2812 21.6875 4.3203 23
5.2265999999999995 6.1523 -1.416 250
5.949199999999999 7.0039 -1.3944999999999999 126
22.9844 27.0625 1.2383 64
6.8438 8.0625 -1.3544999999999998 255
22.9375 27.0 2.0586 214
8.1016 9.5469 -1.3115 24
18.9375 22.2969 2.3867 90
9.8281 11.5781 -1.2363 37
18.5312 21.8125 3.0039 127
12.4922 14.710899999999999 -1.1201 27
18.5312 21.8125 3.6757999999999997 100
18.4375 21.7031 4.3359 208
5.238300000000001 6.125 -1.4141 203
5.984400000000001 6.9961 -1.3975 71
23.0312 26.9375 1.2363 217
6.8828 8.0469 -1.3563999999999998 48
23.0781 26.9844 2.0645 2
8.1484 9.5234 -1.3125 32
19.0781 22.2969 2.3926 52
9.8594 11.531199999999998 -1.2354 87
19.7969 23.1406 3.1952999999999996 194
12.5703 14.6953 -1.1220999999999999 160
19.5938 22.9062 3.8711 217
22.125 25.875 -1.1865 5
18.5469 21.6875 4.3438 15
5.265599999999999 6.109400000000001 -1.415 248
6.0039 6.9727 -1.3965 28
23.0625 26.7812 1.2324 82
6.925800000000001 8.0391 -1.3594 103
23.2188 26.9688 2.0684 213
8.1953 9.5078 -1.3144999999999998 118
19.1406 22.2344 2.3926 86
9.9375 11.531199999999998 -1.2393 87
19.9375 23.1406 3.207 59
12.6953 14.7344 -1.1289 121
20.125 23.3594 3.9589999999999996 213
22.2656 25.8438 -1.1895 90
18.7656 21.7812 4.3789 131
20.6406 23.9531 5.5664 111
5.296900000000001 6.109400000000001 -1.4188999999999998 233
6.0352 6.9609000000000005 -1.3984 19
23.2188 26.7812 1.2354 70
6.9648 8.0312 -1.3622999999999998 12
23.3906 26.9844 2.0762 39
8.2109 9.4766 -1.3135 244
19.2031 22.1562 2.3926 53
9.9688 11.5 -1.2393 212
19.2812 22.2344 3.0898000000000003 36
12.773399999999999 14.7344 -1.1318000000000001 43
20.5 23.6562 4.0195 85
22.4219 25.875 -1.1943000000000001 186
18.75 21.6406 4.3594 195
20.6875 23.8594 5.5625 2
5.332000000000001 6.109400000000001 -1.4228999999999998 60
6.0625 6.949199999999999 -1.3994 159
23.3594 26.7656 1.2393 210
7.0039 8.0234 -1.3643 87
23.5625 27.0 2.082 211
8.2734 9.4844 -1.3184 213
19.2344 22.0469 2.3867 102
10.0 11.460899999999999 -1.2383 61
20.0469 22.9844 3.2012 228
12.8047 14.6797 -1.1309 49
18.6094 21.3125 3.6348000000000003 118
18.8594 21.6094 4.3672 87
23.6719 27.125 -0.4202 190
5.355499999999999 6.0898 -1.4228999999999998 44
23.8281 27.1094 0.4211 31
6.105499999999999 6.9453 -1.4033000000000002 138
23.7188 26.9688 1.252 58
7.0352 8.0 -1.3652000000000002 89
23.7188 26.9844 2.0879 199
8.3125 9.4609 -1.3193000000000001 216
19.6719 22.375 2.4297 252
10.0781 11.460899999999999 -1.2431999999999999 19
20.25 23.0312 3.2188 119
12.8906 14.664100000000001 -1.1328 135
18.7344 21.3125 3.6464999999999996 34
19.7344 22.4375 -1.042 29
23.7969 27.0625 -0.4207 138
5.3789 6.078099999999999 -1.4238 9
23.9844 27.0938 0.4224 31
6.1328 6.925800000000001 -1.4043 195
23.9062 27.0 1.2578 129
7.074199999999999 7.988300000000001 -1.3672 224
23.9062 27.0 2.0957 213
8.375 9.4531 -1.3222999999999998 183
19.5312 22.0625 2.4023 89
10.1328 11.4453 -1.2451 231
19.4219 21.9375 3.0762 111
12.9375 14.6172 -1.1328 36
19.125 21.6094 3.7051 137
19.7344 22.2969 -1.0381 43
23.9844 27.0938 -0.4224 15
5.4102 6.0664 -1.4258000000000002 95
24.1562 27.0781 0.4233 56
6.167999999999999 6.917999999999999 -1.4072 98
24.0469 26.9688 1.2598 116
7.109400000000001 7.9688 -1.3681999999999999 23
24.0469 26.9688 2.0996 194
8.4062 9.4297 -1.3232 35
19.6094 22.0 2.4043 255
10.2188 11.4531 -1.25 59
19.4531 21.8125 3.0683999999999996 183
12.9922 14.5703 -1.1328 5
19.75 22.1406 -1.0342 7
24.1562 27.0781 -0.4236 62
