# .PCD v0.7 - Point Cloud Data file format
VERSION 0.7
FIELDS x y z intensity
SIZE 4 4 4 4
TYPE F F F F
COUNT 1 1 1 1
WIDTH 1303
HEIGHT 1
VIEWPOINT 0 0 0 1 0 0 0
POINTS 1303
DATA ascii
12.664100000000001 2.4902 1.0508 8
12.6797 2.4922 -1.0518 215
12.601600000000001 2.4766 1.3457 171
12.656199999999998 2.4883 -0.7476 76
12.5547 2.4688 1.6406 14
12.664100000000001 2.4902 -0.449 95
12.656199999999998 2.4863 1.96 108
12.664100000000001 2.4883 -0.15 188
12.648399999999999 2.4863 2.2656 98
9.0 1.7363 -1.6094 79
12.664100000000001 2.4434 0.1499 20
10.1016 1.9491999999999998 -1.5625 110
12.6797 2.4453 0.44920000000000004 31
11.6406 2.2461 -1.5194999999999999 201
12.6797 2.4473 0.7484999999999999 124
12.6719 2.4453 -1.3516 218
12.664100000000001 2.4434 1.0498 105
12.664100000000001 2.4434 -1.0498 70
12.601600000000001 2.4316 1.3437999999999999 214
12.6719 2.4434 -0.748 183
12.5625 2.4238 1.6406 191
12.664100000000001 2.4434 -0.4485 106
12.656199999999998 2.4414 1.959 237
12.664100000000001 2.4434 -0.1499 10
12.648399999999999 2.4414 2.2637 247
9.0 1.7031 -1.6074000000000002 54
12.6797 2.4004 0.15 59
10.125 1.916 -1.5644999999999998 35
12.648399999999999 2.3945 0.44780000000000003 119
11.656199999999998 2.207 -1.5205000000000002 117
12.6719 2.3984 0.7476 231
12.6797 2.4004 -1.3516 93
12.664100000000001 2.3984 1.0488 203
12.664100000000001 2.3965 -1.0488 90
12.585899999999999 2.3828 1.3418 98
12.6719 2.3984 -0.7476 227
12.5703 2.3809 1.6406 10
12.664100000000001 2.3984 -0.4482 135
12.6328 2.3926 1.9541 108
12.648399999999999 2.3945 -0.1497 155
12.656199999999998 2.3945 2.2637 87
8.9922 1.6699000000000002 -1.6055000000000001 26
12.6797 2.3555 0.1499 100
10.1406 1.8838 -1.5663999999999998 157
12.664100000000001 2.3516 0.44799999999999995 187
11.664100000000001 2.166 -1.5205000000000002 116
12.6719 2.3535 0.7471 193
12.6875 2.3555 -1.3516 89
12.6719 2.3535 1.0488 112
12.664100000000001 2.3516 -1.0488 146
12.585899999999999 2.3379 1.3408000000000002 237
12.648399999999999 2.3496 -0.7461 120
12.5781 2.3359 1.6396000000000002 122
12.664100000000001 2.3516 -0.44799999999999995 122
12.648399999999999 2.3496 1.9561000000000002 195
12.648399999999999 2.3477 -0.1495 76
12.6406 2.3477 2.2598 163
9.0 1.6396000000000002 -1.6063999999999998 88
12.6719 2.3066 0.1497 11
10.1562 1.8486000000000002 -1.5674000000000001 249
12.664100000000001 2.3066 0.44780000000000003 215
11.6797 2.127 -1.5215 59
12.656199999999998 2.3047 0.7461 76
12.664100000000001 2.3047 -1.3477000000000001 103
12.6719 2.3066 1.0488 165
12.6797 2.3086 -1.0488 191
12.5781 2.291 1.3397999999999999 181
12.648399999999999 2.3047 -0.7456 254
12.5625 2.2871 1.6366999999999998 15
12.6719 2.3066 -0.44799999999999995 92
12.648399999999999 2.3027 1.9541 169
12.648399999999999 2.3027 -0.1494 163
12.6406 2.3008 2.2578 160
9.0078 1.6074000000000002 -1.6063999999999998 184
12.656199999999998 2.2578 0.1494 252
10.1562 1.8135 -1.5674000000000001 213
12.6719 2.2617 0.44780000000000003 206
11.6953 2.0879 -1.5234 49
12.6719 2.2617 0.7461 75
12.664100000000001 2.2598 -1.3477000000000001 81
12.656199999999998 2.2598 1.0469 86
12.6797 2.2617 -1.0479 133
12.585899999999999 2.2461 1.3397999999999999 86
12.656199999999998 2.2598 -0.7451000000000001 209
12.5547 2.2402 1.6347999999999998 118
12.6719 2.2617 -0.44780000000000003 116
12.656199999999998 2.2598 1.9541 192
12.656199999999998 2.2578 -0.1494 247
12.6406 2.2559 2.2559 253
9.0312 1.5819999999999999 -1.6103999999999998 41
12.664100000000001 2.2168 0.1494 203
10.1719 1.7812000000000001 -1.5684 46
12.648399999999999 2.2148 0.4465 60
11.718800000000002 2.0508 -1.5244 68
12.6719 2.2188 0.7461 208
12.656199999999998 2.2168 -1.3457 100
12.6406 2.2129 1.0449 39
12.6719 2.2188 -1.0469 148
12.593800000000002 2.2051 1.3388999999999998 3
12.664100000000001 2.2168 -0.7451000000000001 88
12.5547 2.1973 1.6338 125
12.656199999999998 2.2168 -0.447 175
12.6328 2.2129 1.9491999999999998 191
12.656199999999998 2.2148 -0.1493 182
12.6406 2.2129 2.2559 35
9.0469 1.5527000000000002 -1.6103999999999998 51
12.6797 2.1758 0.1495 174
10.1875 1.7480000000000002 -1.5693000000000001 168
12.656199999999998 2.1719 0.4465 4
11.710899999999999 2.0098 -1.5234 106
12.6719 2.1738 0.7451000000000001 188
12.6719 2.1758 -1.3466999999999998 108
12.648399999999999 2.1719 1.0449 152
12.656199999999998 2.1719 -1.0449 41
12.585899999999999 2.1602 1.3378999999999999 250
12.664100000000001 2.1738 -0.7451000000000001 151
12.5625 2.1562 1.6338 133
12.664100000000001 2.1738 -0.4468 223
12.6406 2.1699 1.9491999999999998 91
12.648399999999999 2.1699 -0.1492 50
12.648399999999999 2.1699 2.2559 121
9.0391 1.5146000000000002 -1.6094 23
12.664100000000001 2.1211 0.1493 151
10.2031 1.709 -1.5713 132
12.648399999999999 2.1191 0.446 146
11.726600000000001 1.9638999999999998 -1.5234 10
12.664100000000001 2.1211 0.7441 13
12.664100000000001 2.1211 -1.3457 68
12.656199999999998 2.1191 1.0449 141
12.6719 2.123 -1.0459 171
12.5781 2.1074 1.3359 130
12.664100000000001 2.1211 -0.7445999999999999 152
12.5703 2.1055 1.6338 186
12.6797 2.125 -0.4473 100
12.6406 2.1172 1.9472999999999998 163
12.6328 2.1172 -0.1489 126
12.6406 2.1172 2.252 163
9.0391 1.4805000000000001 -1.6074000000000002 235
12.656199999999998 2.0723 0.149 92
10.2188 1.6738 -1.5722999999999998 120
12.656199999999998 2.0723 0.446 163
11.75 1.9247999999999998 -1.5263999999999998 68
12.664100000000001 2.0742 0.7437 187
12.656199999999998 2.0723 -1.3437999999999999 168
12.6719 2.0742 1.0449 51
12.6719 2.0742 -1.0449 21
12.585899999999999 2.0605 1.3359 204
12.648399999999999 2.0723 -0.7432 95
12.5625 2.0566 1.6318000000000001 236
12.6719 2.0762 -0.4468 15
12.656199999999998 2.0723 1.9491999999999998 216
12.6406 2.0703 -0.1489 178
12.6328 2.0684 2.25 44
9.0469 1.4531 -1.6094 233
12.656199999999998 2.0312 0.1489 95
10.2266 1.6416 -1.5722999999999998 211
12.656199999999998 2.0312 0.4458 127
11.7656 1.8896000000000002 -1.5272999999999999 8
12.656199999999998 2.0312 0.7432 25
12.664100000000001 2.0332 -1.3437999999999999 149
12.648399999999999 2.0312 1.043 169
12.6719 2.0332 -1.0449 173
12.585899999999999 2.0215 1.3359 197
12.648399999999999 2.0312 -0.7426999999999999 168
12.5469 2.0137 1.6288999999999998 254
12.6719 2.0332 -0.44630000000000003 20
12.656199999999998 2.0312 1.9472999999999998 204
12.648399999999999 2.0293 -0.1489 0
12.625 2.0273 2.248 129
9.0625 1.4238 -1.6103999999999998 84
12.656199999999998 1.9893 0.1489 238
10.2422 1.6084 -1.5741999999999998 185
12.648399999999999 1.9872999999999998 0.44530000000000003 46
11.7969 1.8535 -1.5303 89
12.664100000000001 1.9902000000000002 0.7432 119
12.656199999999998 1.9893 -1.3418 102
12.648399999999999 1.9872999999999998 1.042 155
12.664100000000001 1.9893 -1.043 115
12.585899999999999 1.9775 1.335 227
12.656199999999998 1.9883000000000002 -0.7426999999999999 36
12.5547 1.9727000000000001 1.6288999999999998 171
12.664100000000001 1.9902000000000002 -0.4458 143
12.6328 1.9853999999999998 1.9434 80
12.648399999999999 1.9883000000000002 -0.1489 91
12.648399999999999 1.9872999999999998 2.25 127
9.0703 1.3936000000000002 -1.6113 146
12.664100000000001 1.9453 0.1489 131
10.2656 1.5771000000000002 -1.5771000000000002 235
12.6406 1.9413999999999998 0.4448 48
11.7969 1.8115 -1.5303 114
12.6719 1.9453 0.7432 137
12.6719 1.9453 -1.3428 53
12.656199999999998 1.9434 1.042 246
12.656199999999998 1.9434 -1.042 209
12.5781 1.9316 1.3330000000000002 120
12.648399999999999 1.9424000000000001 -0.7417 59
12.5625 1.9297 1.6299000000000001 67
12.648399999999999 1.9424000000000001 -0.44530000000000003 129
12.6328 1.9404 1.9434 82
12.6406 1.9413999999999998 -0.1487 8
12.6406 1.9413999999999998 2.248 87
9.0625 1.3613 -1.6094 138
12.6719 1.9033000000000002 0.1489 108
10.273399999999999 1.5430000000000001 -1.5771000000000002 162
12.6328 1.8975 0.4443 97
11.8125 1.7744 -1.5312000000000001 60
12.656199999999998 1.9003999999999999 0.7422 83
12.664100000000001 1.9013999999999998 -1.3408000000000002 180
12.664100000000001 1.9013999999999998 1.042 81
12.6406 1.8984 -1.041 29
12.5703 1.8877000000000002 1.3311000000000002 190
12.648399999999999 1.8984 -0.7412000000000001 75
12.5625 1.8866999999999998 1.6288999999999998 225
12.6719 1.9033000000000002 -0.4458 240
12.6406 1.8975 1.9424000000000001 239
12.6328 1.8975 -0.1484 172
12.6406 1.8975 2.2461 79
9.0625 1.3271000000000002 -1.6084 234
12.656199999999998 1.8535 0.1487 137
10.289100000000001 1.5068000000000001 -1.5791 178
12.648399999999999 1.8516 0.4446 218
11.835899999999999 1.7324000000000002 -1.5332 175
12.6406 1.8516 0.7406999999999999 173
12.664100000000001 1.8535 -1.3397999999999999 149
12.664100000000001 1.8544999999999998 1.042 79
12.656199999999998 1.8535 -1.041 201
12.5703 1.8408000000000002 1.3311000000000002 103
12.6406 1.8506 -0.7406999999999999 12
12.5547 1.8378999999999999 1.6269999999999998 10
12.664100000000001 1.8544999999999998 -0.44530000000000003 207
12.648399999999999 1.8516 1.9424000000000001 132
12.6328 1.8506 -0.1484 133
12.6172 1.8477000000000001 2.2422 186
9.0781 1.2969 -1.6094 130
12.6406 1.8056999999999999 0.1484 50
10.2656 1.4658000000000002 -1.5741999999999998 50
12.648399999999999 1.8066 0.4443 68
11.8594 1.6943000000000001 -1.5352000000000001 46
12.648399999999999 1.8066 0.7406999999999999 124
12.648399999999999 1.8066 -1.3388999999999998 29
12.648399999999999 1.8075999999999999 1.04 11
12.656199999999998 1.8075999999999999 -1.04 247
12.585899999999999 1.7978999999999998 1.3311000000000002 59
12.648399999999999 1.8066 -0.7406999999999999 172
12.5469 1.7930000000000001 1.625 64
12.664100000000001 1.8096 -0.4451 154
12.6406 1.8066 1.9413999999999998 55
12.6406 1.8056999999999999 -0.1484 63
12.625 1.8037 2.2422 138
9.0938 1.2676 -1.6113 27
12.6719 1.7666 0.1487 211
10.289100000000001 1.4355000000000002 -1.5781 24
12.6406 1.7627000000000002 0.44380000000000003 96
11.875 1.6562000000000001 -1.5371000000000001 15
12.656199999999998 1.7656 0.7406999999999999 158
12.656199999999998 1.7656 -1.3388999999999998 240
12.6406 1.7627000000000002 1.0391 14
12.6406 1.7637 -1.0391 12
12.5781 1.7538999999999998 1.3300999999999998 252
12.6406 1.7627000000000002 -0.7397 21
12.5547 1.751 1.625 167
12.648399999999999 1.7637 -0.44409999999999994 17
12.6328 1.7616999999999998 1.9385 57
12.648399999999999 1.7637 -0.1484 56
12.625 1.7607 2.2402 248
9.1016 1.2393 -1.6122999999999998 33
12.656199999999998 1.7227000000000001 0.1484 174
10.3125 1.4033000000000002 -1.5800999999999998 26
12.6406 1.7207 0.44380000000000003 227
11.898399999999999 1.6191 -1.5391 58
12.664100000000001 1.7236000000000002 0.7406999999999999 49
12.664100000000001 1.7236000000000002 -1.3388999999999998 238
12.6406 1.7207 1.0391 0
12.6328 1.7187999999999999 -1.0371 191
12.5703 1.7109 1.3281 180
12.648399999999999 1.7216999999999998 -0.7402 119
12.5625 1.71 1.626 94
12.648399999999999 1.7216999999999998 -0.44409999999999994 122
12.625 1.7187999999999999 1.9365 211
12.648399999999999 1.7207 -0.1483 166
12.6406 1.7197 2.2422 224
9.1016 1.2051 -1.6113 27
12.664100000000001 1.6758000000000002 0.1484 50
10.3203 1.3662 -1.5811000000000002 249
12.6406 1.6728999999999998 0.4436 145
11.8906 1.5741999999999998 -1.5381 247
12.648399999999999 1.6747999999999998 0.7397 192
12.6719 1.6768 -1.3388999999999998 183
12.648399999999999 1.6738 1.0391 126
12.648399999999999 1.6738 -1.0381 149
12.5625 1.6631 1.3271000000000002 46
12.6172 1.6699000000000002 -0.7378 124
12.5625 1.6621000000000001 1.624 184
12.656199999999998 1.6747999999999998 -0.44380000000000003 219
12.6172 1.6699000000000002 1.9346 222
12.6328 1.6719 -0.1481 211
12.6406 1.6728999999999998 2.2402 233
9.1016 1.1719 -1.6103999999999998 25
12.648399999999999 1.6299000000000001 0.1483 31
10.3203 1.3300999999999998 -1.5800999999999998 83
12.648399999999999 1.6288999999999998 0.4436 9
11.9219 1.5361000000000002 -1.541 180
12.6406 1.6279 0.7387999999999999 63
12.656199999999998 1.6299000000000001 -1.3369 161
12.648399999999999 1.6299000000000001 1.0381 214
12.648399999999999 1.6288999999999998 -1.0381 171
12.5625 1.6181999999999999 1.3271000000000002 205
12.625 1.626 -0.7378 229
12.5547 1.6172 1.6230000000000002 124
12.6719 1.6318000000000001 -0.4443 188
12.6328 1.6269999999999998 1.9355000000000002 219
12.648399999999999 1.6288999999999998 -0.1482 158
12.6172 1.625 2.2363 36
9.125 1.1436 -1.6152000000000002 152
12.656199999999998 1.585 0.1483 125
10.335899999999999 1.2949000000000002 -1.5819999999999999 48
12.664100000000001 1.5859 0.44380000000000003 113
11.9453 1.4961000000000002 -1.5430000000000001 106
12.648399999999999 1.584 0.7387999999999999 185
12.648399999999999 1.585 -1.3359 251
12.648399999999999 1.584 1.0371 127
12.6406 1.584 -1.0371 139
12.5781 1.5752000000000002 1.3271000000000002 115
12.6328 1.5819999999999999 -0.7378 69
12.5547 1.5722999999999998 1.6221 5
12.664100000000001 1.5859 -0.44380000000000003 73
12.6328 1.5819999999999999 1.9346 164
12.6406 1.584 -0.1481 155
12.6172 1.5800999999999998 2.2344 217
9.125 1.1113 -1.6143 131
12.656199999999998 1.541 0.1482 188
10.343800000000002 1.2588 -1.5819999999999999 55
12.6406 1.5391 0.4429 242
11.9531 1.4550999999999998 -1.5438999999999998 186
12.648399999999999 1.54 0.7387999999999999 68
12.656199999999998 1.541 -1.3359 233
12.6328 1.5371000000000001 1.0361 115
12.6328 1.5381 -1.0361 202
12.5703 1.5303 1.3271000000000002 235
12.6406 1.5381 -0.7378 76
12.5469 1.5263999999999998 1.6200999999999999 216
12.648399999999999 1.5391 -0.44310000000000005 86
12.6172 1.5361000000000002 1.9316 54
12.648399999999999 1.54 -0.1481 141
12.6328 1.5371000000000001 2.2363 165
9.1406 1.0801 -1.6152000000000002 77
12.656199999999998 1.4950999999999999 0.1481 45
10.351600000000001 1.2236 -1.584 79
12.6328 1.4931999999999999 0.4424 25
11.960899999999999 1.4131 -1.5430000000000001 192
12.648399999999999 1.4950999999999999 0.7383 109
12.656199999999998 1.4950999999999999 -1.335 147
12.6328 1.4931999999999999 1.0361 52
12.6328 1.4931999999999999 -1.0352 91
12.5625 1.4844 1.3252000000000002 164
12.6406 1.4941 -0.7378 103
12.5547 1.4844 1.6211000000000002 17
12.648399999999999 1.4941 -0.4429 40
12.625 1.4912 1.9316 219
12.6328 1.4931999999999999 -0.1478 216
12.6406 1.4941 2.2363 205
9.1328 1.0469 -1.6143 177
12.664100000000001 1.4521000000000002 0.1482 239
10.375 1.1895 -1.585 73
12.6406 1.4491999999999998 0.4424 147
11.976600000000001 1.3730000000000002 -1.5459 113
12.6406 1.4491999999999998 0.7378 207
12.664100000000001 1.4521000000000002 -1.335 134
12.648399999999999 1.4502000000000002 1.0361 222
12.6328 1.4482 -1.0352 219
12.5469 1.4385 1.3222999999999998 82
12.6328 1.4482 -0.7373000000000001 48
12.5625 1.4394999999999998 1.6211000000000002 75
12.656199999999998 1.4512 -0.44310000000000005 108
12.6172 1.4463 1.9297 224
12.6328 1.4482 -0.1478 42
12.625 1.4472999999999998 2.2324 83
9.1406 1.0156 -1.6143 82
12.6406 1.4043 0.1478 55
10.3672 1.1523 -1.584 64
12.6406 1.4053 0.4424 46
11.9844 1.3319999999999999 -1.5459 150
12.6328 1.4033000000000002 0.7368000000000001 219
12.656199999999998 1.4062000000000001 -1.334 181
12.648399999999999 1.4053 1.0361 43
12.6406 1.4043 -1.0352 233
12.5469 1.3944999999999999 1.3222999999999998 218
12.6172 1.4022999999999999 -0.7363 186
12.5469 1.3936000000000002 1.6181999999999999 195
12.656199999999998 1.4062000000000001 -0.4429 224
12.625 1.4033000000000002 1.9306999999999999 205
12.6328 1.4033000000000002 -0.1477 177
8.3203 0.9248000000000001 1.4697 226
9.1562 0.9849 -1.6162 216
12.6328 1.3594 0.1477 77
10.3828 1.1162 -1.585 161
12.648399999999999 1.3603999999999998 0.4424 148
12.0078 1.2919999999999998 -1.5478999999999998 67
12.6328 1.3584 0.7363 143
12.656199999999998 1.3613 -1.3330000000000002 11
12.648399999999999 1.3603999999999998 1.0352 252
12.6406 1.3594 -1.0352 114
12.5469 1.3496000000000001 1.3222999999999998 111
12.6328 1.3594 -0.7368000000000001 100
12.539100000000001 1.3486000000000002 1.6162 177
12.648399999999999 1.3603999999999998 -0.4424 188
12.6328 1.3594 1.9306999999999999 209
12.6406 1.3594 -0.1477 185
8.3438 0.8975 1.4716999999999998 97
9.1406 0.9497 -1.6133000000000002 29
12.648399999999999 1.3135 0.1478 240
10.3828 1.0781 -1.585 185
12.6406 1.3135 0.4421 82
12.023399999999999 1.249 -1.5488 5
12.6406 1.3135 0.7368000000000001 48
12.648399999999999 1.3135 -1.3319999999999999 172
12.625 1.3115 1.0332 5
12.6328 1.3125 -1.0342 72
12.5703 1.3056999999999999 1.3232 240
12.6406 1.3125 -0.7368000000000001 250
12.5469 1.3037 1.6172 132
12.6328 1.3115 -0.44170000000000004 156
12.648399999999999 1.3135 1.9316 199
12.6406 1.3135 -0.1477 139
8.3359 0.8662000000000001 1.4707 19
9.1719 0.9198999999999999 -1.6172 40
12.648399999999999 1.2686 0.1477 140
10.3906 1.043 -1.5859 67
12.6328 1.2676 0.44170000000000004 27
12.031199999999998 1.207 -1.5497999999999998 148
12.6406 1.2686 0.7363 254
12.664100000000001 1.2705 -1.3330000000000002 164
12.6328 1.2676 1.0342 52
12.6328 1.2676 -1.0332 123
12.5547 1.2598 1.3213 46
12.6328 1.2676 -0.7363 161
12.5469 1.2588 1.6162 250
12.648399999999999 1.2695 -0.4421 222
12.625 1.2676 1.9287 4
12.625 1.2666 -0.1475 92
8.1875 0.8212999999999999 1.4434 57
9.1719 0.8896 -1.6172 219
12.656199999999998 1.2275 0.1478 251
10.414100000000001 1.0098 -1.5888999999999998 161
12.6172 1.2246 0.4409 29
12.0469 1.168 -1.5518 121
12.6328 1.2256 0.7358 1
12.664100000000001 1.2285 -1.3330000000000002 23
12.6328 1.2256 1.0332 61
12.6328 1.2256 -1.0332 25
12.539100000000001 1.2168 1.3193000000000001 181
12.6328 1.2256 -0.7358 151
12.5547 1.2178 1.6172 213
12.656199999999998 1.2275 -0.4421 158
12.6406 1.2266 1.9306999999999999 213
12.6172 1.2236 -0.14730000000000001 44
8.1797 0.7935 1.4413999999999998 56
9.1719 0.8589 -1.6172 69
12.6328 1.1826 0.1475 254
10.4219 0.9761 -1.5897999999999999 21
12.6406 1.1836 0.44170000000000004 173
12.0625 1.1299 -1.5537 226
12.625 1.1826 0.7354 112
12.648399999999999 1.1845999999999999 -1.3300999999999998 243
12.6406 1.1836 1.0332 174
12.6406 1.1836 -1.0332 253
12.5469 1.1748 1.3203 201
12.625 1.1826 -0.7354 197
12.5547 1.1758 1.6162 52
12.648399999999999 1.1845999999999999 -0.44189999999999996 97
9.0625 0.8486 1.3818000000000001 168
12.6172 1.1816 -0.1472 150
8.0234 0.7515000000000001 1.4131 171
9.1797 0.8262 -1.6181999999999999 225
12.6328 1.1367 0.1475 123
10.414100000000001 0.937 -1.5878999999999999 247
12.6406 1.1377 0.4414 44
12.093800000000002 1.0879 -1.5566 13
12.625 1.1357 0.7349 109
12.6328 1.1367 -1.3281 234
12.6328 1.1357 1.0322 47
12.6406 1.1377 -1.0332 128
12.5547 1.1299 1.3203 19
12.625 1.1357 -0.7349 37
12.539100000000001 1.1279000000000001 1.6143 111
12.6328 1.1357 -0.4412 235
9.0547 0.8145 1.3799000000000001 236
12.6328 1.1367 -0.1475 208
7.9727 0.7173 1.4043 56
9.1875 0.7939 -1.6181999999999999 60
12.6406 1.0928 0.1475 110
10.4219 0.9009 -1.5878999999999999 46
12.6406 1.0928 0.4412 115
12.1094 1.0469 -1.5586000000000002 114
12.6328 1.0918 0.7354 244
12.6406 1.0918 -1.3281 61
12.6172 1.0908 1.0303 190
12.6406 1.0928 -1.0322 89
12.5625 1.0859 1.3213 199
12.625 1.0918 -0.7349 55
12.5625 1.0859 1.6172 78
12.625 1.0908 -0.4407 107
8.0625 0.6968000000000001 1.2275 23
12.625 1.0918 -0.14730000000000001 72
7.9453 0.6865000000000001 1.3984 94
9.1953 0.7642 -1.6200999999999999 3
12.648399999999999 1.0508 0.1476 6
10.4219 0.8656999999999999 -1.5878999999999999 240
12.625 1.0488 0.4407 76
12.1094 1.0068000000000001 -1.5575999999999999 4
12.648399999999999 1.0508 0.7358 100
12.648399999999999 1.0508 -1.3291 210
12.625 1.0488 1.0312000000000001 245
12.6328 1.0498 -1.0322 153
12.5547 1.043 1.3193000000000001 95
12.6328 1.0498 -0.7349 68
12.5703 1.0449 1.6172 109
12.6328 1.0498 -0.4407 252
8.0312 0.6675 1.2227 18
12.6328 1.0498 -0.14730000000000001 236
7.9688 0.6620999999999999 1.4022999999999999 189
9.1953 0.7334 -1.6191 164
12.6406 1.0088 0.1475 207
10.4531 0.8334999999999999 -1.5928 149
12.6328 1.0078 0.4407 39
12.125 0.9668000000000001 -1.5586000000000002 67
12.6406 1.0078 0.7349 224
12.6406 1.0078 -1.3281 90
12.6328 1.0078 1.0322 134
12.6328 1.0078 -1.0312000000000001 208
12.539100000000001 1.0 1.3184 140
12.625 1.0068000000000001 -0.7343999999999999 6
9.0391 0.7212000000000001 1.1611 62
12.6328 1.0078 -0.4407 168
8.0547 0.6420999999999999 1.2256 56
12.6172 1.0068000000000001 -0.1471 53
8.0312 0.6406000000000001 1.4131 65
9.1797 0.6981999999999999 -1.6162 153
12.6328 0.9609000000000001 0.1472 221
10.4453 0.7948999999999999 -1.5918 17
12.6328 0.9609000000000001 0.4407 232
12.1406 0.9233 -1.5605000000000002 165
12.625 0.9604 0.7339 25
12.648399999999999 0.9623999999999999 -1.3291 240
12.625 0.9604 1.0312000000000001 92
12.6406 0.9614 -1.0312000000000001 240
9.0 0.6846 0.9443 253
12.625 0.96 -0.7339 194
9.0078 0.6855 1.1572 29
12.6406 0.9614 -0.4409 35
12.726600000000001 0.9682999999999999 1.9394999999999998 199
12.6094 0.9595 -0.147 60
8.1016 0.6167 1.4258000000000002 117
8.4453 0.6133 -1.4863 80
12.625 0.9159999999999999 0.1471 2
10.460899999999999 0.7593000000000001 -1.5928 149
12.6406 0.917 0.4407 53
12.156199999999998 0.8823000000000001 -1.5625 144
12.625 0.9159999999999999 0.7339 10
12.6328 0.9165000000000001 -1.3262 112
12.6328 0.9165000000000001 1.0312000000000001 50
12.6406 0.917 -1.0312000000000001 162
9.0156 0.6537999999999999 0.9453 126
12.6172 0.9155 -0.7334 76
8.9922 0.6528 1.1543 76
12.6328 0.9165000000000001 -0.4404 232
12.726600000000001 0.9233 1.9394999999999998 11
12.6172 0.9155 -0.1471 85
7.9336 0.5757 1.3944999999999999 143
8.4766 0.585 -1.4902000000000002 76
12.6328 0.8721 0.1472 39
10.460899999999999 0.7222 -1.5918 210
12.6328 0.8721 0.44020000000000004 187
12.1797 0.8408 -1.5654 99
12.6328 0.8721 0.7339 148
12.6328 0.8726 -1.3271000000000002 71
12.6172 0.8711 1.0293 71
12.625 0.8721 -1.0303 108
9.0 0.6215999999999999 0.9438 98
12.625 0.8715999999999999 -0.7334 243
9.0 0.6215999999999999 1.1553 36
12.625 0.8721 -0.44020000000000004 193
9.125 0.6304 1.3887 154
12.625 0.8715999999999999 -0.1471 14
7.9140999999999995 0.5464 1.3916 84
8.4766 0.5557 -1.4902000000000002 192
12.625 0.8276 0.1471 226
10.476600000000001 0.687 -1.5947 79
12.625 0.8271 0.4399 152
12.1875 0.7988 -1.5654 105
12.6328 0.8281000000000001 0.7339 212
12.6406 0.8281000000000001 -1.3262 72
12.625 0.8276 -1.0303 46
9.0 0.5898 0.9429000000000001 133
12.6406 0.8281000000000001 -0.7343999999999999 106
12.6875 0.8315 1.6299000000000001 60
12.6406 0.8286 -0.4404 19
12.7422 0.835 1.9404 168
12.6094 0.8262 -0.1469 226
7.8984000000000005 0.5176 1.3887 162
8.4844 0.5264 -1.4912 102
12.6406 0.7842 0.1472 141
10.5 0.6514 -1.5977000000000001 57
12.6172 0.7827 0.4397 96
12.1875 0.7559 -1.5644999999999998 22
12.6328 0.7837000000000001 0.7334 44
12.6406 0.7842 -1.3271000000000002 204
8.9453 0.5552 0.7284999999999999 133
12.6328 0.7837000000000001 -1.0303 156
9.0156 0.5590999999999999 0.9443 101
12.625 0.7831999999999999 -0.7329000000000001 190
12.6953 0.7876000000000001 1.6309 20
12.6406 0.7842 -0.4404 178
12.710899999999999 0.7886 1.9355000000000002 131
12.601600000000001 0.7822 -0.1467 1
7.9023 0.4902 1.3887 247
8.4688 0.49560000000000004 -1.4883000000000002 2
12.625 0.7387999999999999 0.147 98
9.625 0.5635 -1.4638999999999998 137
12.625 0.7393000000000001 0.4399 52
12.2031 0.7143999999999999 -1.5674000000000001 1
12.6172 0.7387999999999999 0.7329000000000001 25
12.6328 0.7393000000000001 -1.3252000000000002 120
8.9375 0.5229 0.7275 97
12.6328 0.7397 -1.0303 125
12.5469 0.7343999999999999 1.3163999999999998 18
12.6094 0.7383 -0.7323999999999999 42
12.6875 0.7426999999999999 1.6299000000000001 107
12.6406 0.7397 -0.4404 147
12.718800000000002 0.7445999999999999 1.9365 64
12.601600000000001 0.7378 -0.1467 66
8.4531 0.4949 1.4863 188
8.5938 0.4729 -1.5107 244
12.625 0.6948000000000001 0.147 58
9.6328 0.5303 -1.4647999999999999 241
12.6328 0.6948000000000001 0.4399 199
12.218800000000002 0.6724 -1.5693000000000001 8
12.6172 0.6943 0.7329000000000001 254
12.6094 0.6938 -1.3232 50
8.9062 0.49 0.7245999999999999 208
12.6406 0.6958 -1.0303 92
12.5547 0.6909000000000001 1.3163999999999998 156
12.625 0.6948000000000001 -0.7329000000000001 102
12.6875 0.6981999999999999 1.6288999999999998 241
12.6328 0.6953 -0.44020000000000004 16
12.710899999999999 0.6997 1.9355000000000002 145
12.6172 0.6943 -0.1469 96
8.5391 0.47 1.501 78
9.0312 0.4653 -1.5869 205
12.6328 0.6509 0.147 236
9.6406 0.4966 -1.4647999999999999 219
12.6172 0.6504000000000001 0.4395 65
12.2422 0.6309 -1.5713 70
12.6328 0.6509 0.7329000000000001 78
12.625 0.6504000000000001 -1.3241999999999998 101
8.8984 0.4583 0.7236 132
12.625 0.6504000000000001 -1.0283 137
12.5469 0.647 1.3163999999999998 133
12.6172 0.6504000000000001 -0.7323999999999999 154
12.6875 0.6537999999999999 1.6288999999999998 124
12.625 0.6504000000000001 -0.4397 57
12.710899999999999 0.6548 1.9336000000000002 123
12.625 0.6509 -0.147 92
8.6016 0.4434 1.5116999999999998 83
9.1719 0.4407 -1.6122999999999998 128
12.6172 0.6064 0.1469 252
9.6797 0.46509999999999996 -1.4716999999999998 13
12.6094 0.6054999999999999 0.439 6
12.2344 0.5879 -1.5703 111
12.6328 0.6069 0.7329000000000001 125
12.6328 0.6064 -1.3241999999999998 168
12.625 0.6064 1.0293 91
12.6094 0.606 -1.0273 137
12.5469 0.603 1.3163999999999998 150
12.625 0.6064 -0.7329000000000001 107
12.7031 0.6103999999999999 1.6309 157
12.6328 0.6069 -0.4397 120
8.8203 0.4236 1.3397999999999999 159
12.6094 0.6054999999999999 -0.1467 141
8.6172 0.41409999999999997 1.5137 197
9.1953 0.4094 -1.6152000000000002 74
12.625 0.562 0.1469 79
12.6172 0.562 0.43920000000000003 157
12.25 0.5454 -1.5713 43
12.6172 0.562 0.7323999999999999 250
12.6328 0.5625 -1.3241999999999998 232
12.625 0.562 1.0283 130
12.625 0.5625 -1.0283 76
12.531199999999998 0.5581 1.3144999999999998 22
12.6172 0.562 -0.7319 173
12.7031 0.5659000000000001 1.6309 251
12.6406 0.563 -0.44020000000000004 77
8.7891 0.3914 1.335 142
12.593800000000002 0.561 -0.1466 244
8.6484 0.38530000000000003 1.5194999999999999 127
9.2109 0.3779 -1.6172 220
12.625 0.5181 0.1469 60
10.523399999999999 0.43189999999999995 -1.5996000000000001 196
12.6172 0.5176 0.43920000000000003 130
12.25 0.5029 -1.5713 2
8.8984 0.3652 0.5156000000000001 76
12.6172 0.5181 -1.3232 182
12.6172 0.5181 1.0283 6
12.6172 0.5181 -1.0283 128
12.5469 0.5146000000000001 1.3154 29
12.6094 0.5171 -0.7314 202
12.6953 0.521 1.6288999999999998 224
12.6328 0.5186 -0.4397 188
8.8125 0.3616 1.3388999999999998 151
12.601600000000001 0.5171 -0.1466 134
8.6719 0.3557 1.5225 234
9.2734 0.3481 -1.6299000000000001 189
12.6094 0.47340000000000004 0.1467 2
10.5 0.3943 -1.5966999999999998 72
12.625 0.4739 0.43920000000000003 171
12.273399999999999 0.4607 -1.5741999999999998 120
8.8984 0.33399999999999996 0.5151 196
12.6172 0.4736 -1.3222999999999998 213
12.6172 0.4739 1.0283 100
12.6328 0.4744 -1.0293 66
12.539100000000001 0.47090000000000004 1.3144999999999998 158
12.6094 0.47340000000000004 -0.7314 38
12.6875 0.4763 1.6279 217
12.6328 0.4744 -0.4397 134
8.8203 0.3311 1.3388999999999998 179
12.601600000000001 0.4731 -0.1466 149
8.8359 0.3318 1.5518 253
9.3438 0.32130000000000003 -1.6416 128
12.6172 0.4338 0.1467 81
10.5156 0.3618 -1.5977000000000001 61
12.6094 0.4336 0.4387 76
12.289100000000001 0.4226 -1.5762 31
8.8984 0.3062 0.5151 228
12.6172 0.4338 -1.3222999999999998 184
12.6094 0.4338 1.0273 130
12.6094 0.4338 -1.0273 45
12.5547 0.4316 1.3154 241
12.625 0.4341 -0.7319 27
12.6797 0.436 1.626 199
12.6172 0.4338 -0.439 49
8.8516 0.3044 1.3447 156
12.6094 0.4338 -0.1467 207
8.8359 0.304 1.5508000000000002 0
9.3516 0.2905 -1.6425999999999998 36
12.625 0.3923 0.1469 176
10.5156 0.32689999999999997 -1.5986000000000002 23
12.6094 0.3918 0.4387 11
12.273399999999999 0.38159999999999994 -1.5741999999999998 65
8.8906 0.2764 0.5151 250
12.625 0.3923 -1.3222999999999998 34
12.6172 0.3921 1.0273 114
12.6094 0.3918 -1.0273 16
12.5469 0.3899 1.3154 52
12.6172 0.3921 -0.7319 209
8.9688 0.2786 1.1484 14
12.6172 0.3921 -0.43920000000000003 32
8.8906 0.2764 1.3506 154
12.593800000000002 0.3914 -0.1465 106
8.8516 0.2751 1.5547 106
9.3906 0.2556 -1.6484 235
12.625 0.34380000000000005 0.1467 214
10.539100000000001 0.2871 -1.6006 20
12.6094 0.3433 0.4387 19
12.289100000000001 0.3347 -1.5762 78
8.8906 0.2421 0.5146000000000001 40
12.625 0.34380000000000005 -1.3232 18
12.625 0.34380000000000005 1.0283 45
12.6172 0.3435 -1.0273 233
12.523399999999999 0.3411 1.3125 81
12.6172 0.3435 -0.7314 60
8.9531 0.2439 1.1475 191
12.6328 0.344 -0.4395 0
8.9766 0.2445 1.3633000000000002 64
12.593800000000002 0.34299999999999997 -0.1465 107
8.8359 0.24059999999999998 1.5508000000000002 66
9.3828 0.2228 -1.6475 197
12.6172 0.29960000000000003 0.1466 110
10.5469 0.2502 -1.6016 28
12.6172 0.29960000000000003 0.439 229
12.2969 0.292 -1.5771000000000002 132
8.8828 0.2109 0.5142 56
12.6172 0.29960000000000003 -1.3222999999999998 221
12.625 0.29960000000000003 1.0273 4
12.625 0.29960000000000003 -1.0273 28
12.539100000000001 0.29760000000000003 1.3135 35
12.593800000000002 0.2991 -0.7304999999999999 98
8.9297 0.212 1.1436 52
12.6172 0.29960000000000003 -0.439 29
9.1875 0.2181 1.3944999999999999 207
12.593800000000002 0.2991 -0.1465 71
9.6641 0.22949999999999998 1.6972999999999998 73
9.4297 0.1909 -1.6553 232
12.601600000000001 0.2551 0.1465 191
10.5547 0.2137 -1.6035 191
12.6172 0.2554 0.439 40
12.3203 0.2495 -1.5800999999999998 104
8.8984 0.1801 0.5151 20
12.6094 0.2554 -1.3213 119
12.6172 0.2554 1.0273 176
12.625 0.2556 -1.0283 245
12.5469 0.25420000000000004 1.3144999999999998 98
12.601600000000001 0.2551 -0.7304999999999999 61
8.9141 0.1805 1.1416 230
12.6172 0.2554 -0.4387 2
9.4766 0.19190000000000002 1.4394999999999998 6
12.601600000000001 0.2551 -0.1465 170
9.2578 0.1875 1.625 41
9.4219 0.1578 -1.6533000000000002 156
12.6172 0.2113 0.1466 202
10.5625 0.177 -1.6044999999999998 223
12.601600000000001 0.2112 0.4385 173
12.3281 0.2065 -1.5811000000000002 236
8.9062 0.1492 0.5156000000000001 24
12.6094 0.2113 -1.3203 188
12.6094 0.2112 1.0264 4
12.6094 0.2113 -1.0264 61
8.9766 0.1505 0.9395 33
12.6094 0.2113 -0.731 204
8.9297 0.1497 1.1436 106
12.6094 0.2113 -0.4387 169
9.5 0.1592 1.4413999999999998 38
12.601600000000001 0.2112 -0.1465 55
9.1797 0.15380000000000002 1.6113 55
9.4062 0.1265 -1.6522999999999999 154
12.625 0.1697 0.1467 20
10.5625 0.142 -1.6044999999999998 154
12.593800000000002 0.16920000000000002 0.43799999999999994 24
12.3203 0.1656 -1.5800999999999998 82
8.9062 0.1198 0.5156000000000001 45
12.6094 0.1696 -1.3213 208
12.6094 0.1696 1.0264 244
12.601600000000001 0.1693 -1.0254 2
8.9375 0.1201 0.9346 239
12.6094 0.16940000000000002 -0.731 150
8.9453 0.1202 1.1455 43
12.6094 0.16940000000000002 -0.4385 152
9.4141 0.1265 1.4287 118
12.601600000000001 0.1693 -0.1465 218
9.2969 0.1249 1.6318000000000001 255
8.8359 0.0895 -1.5508000000000002 4
12.625 0.1278 0.1467 106
10.5703 0.10710000000000001 -1.6055000000000001 42
8.9375 0.09050000000000001 0.3103 80
12.3281 0.12480000000000001 -1.5811000000000002 199
8.9062 0.0901 0.5156000000000001 35
12.6172 0.1277 -1.3213 146
8.9453 0.0906 0.7271 203
12.601600000000001 0.1276 -1.0264 56
8.9062 0.0902 0.9316 165
12.601600000000001 0.1276 -0.7304999999999999 67
8.9375 0.09050000000000001 1.1436 165
12.6172 0.1277 -0.4387 179
9.4609 0.0958 1.4365 128
12.5781 0.1273 -0.1462 68
9.1953 0.0931 1.6143 155
8.7266 0.0548 -1.5322 196
8.9453 0.0562 0.1038 133
8.8984 0.0559 -1.3496000000000001 108
8.9062 0.0559 0.3091 7
12.3594 0.0776 -1.584 2
8.8906 0.0558 0.5146000000000001 48
8.9297 0.056100000000000004 0.7256 209
12.6094 0.07919999999999999 -1.0264 54
8.9062 0.055999999999999994 0.9316 213
8.9375 0.0562 -0.5171 129
8.9375 0.0562 1.1445 140
8.9531 0.0562 -0.31079999999999997 176
9.0391 0.056799999999999996 1.3721 69
8.9219 0.056100000000000004 -0.1035 219
8.8828 0.0558 1.5586000000000002 70
8.7188 0.024300000000000002 -1.5293 188
8.9219 0.024900000000000002 0.1035 54
8.8516 0.024700000000000003 -1.3428 124
8.8906 0.0248 0.3086 224
8.875 0.0248 -1.1357 146
8.8984 0.024900000000000002 0.5151 82
8.875 0.0248 -0.9281999999999999 81
8.9141 0.024900000000000002 0.7245999999999999 68
8.9297 0.024900000000000002 -0.7256 16
8.9219 0.024900000000000002 0.9336 123
8.8984 0.0248 -0.5151 144
8.9141 0.024900000000000002 1.1406 129
8.9141 0.024900000000000002 -0.3093 180
9.0 0.025099999999999997 1.3652000000000002 59
8.9062 0.024900000000000002 -0.1033 170
8.75 0.024399999999999998 1.5352000000000001 11
8.7188 -0.0060999999999999995 -1.5293 64
8.9141 -0.0062 0.10339999999999999 95
8.8047 -0.0060999999999999995 -1.3359 212
8.875 -0.0062 0.3081 177
8.8516 -0.0062 -1.1328 17
8.9141 -0.0062 0.5161 60
8.8516 -0.0062 -0.9253 229
8.9141 -0.0062 0.7241 95
8.8828 -0.0062 -0.7217 183
8.9297 -0.0062 0.9340999999999999 148
8.8906 -0.0062 -0.5146000000000001 141
8.9219 -0.0062 1.1416 28
8.8906 -0.0062 -0.3086 244
8.9453 -0.0062 1.3574000000000002 64
8.8906 -0.0062 -0.10310000000000001 82
8.7578 -0.0060999999999999995 1.5371000000000001 32
8.7188 -0.0365 -1.5293 119
8.9219 -0.0374 0.10339999999999999 114
8.7891 -0.0368 -1.334 239
8.8828 -0.037200000000000004 0.30829999999999996 136
8.8125 -0.0369 -1.1279000000000001 247
8.9219 -0.0374 0.5161 226
8.8516 -0.0371 -0.9258 238
8.9297 -0.0374 0.7256 101
8.8594 -0.0371 -0.7202 15
8.9375 -0.0374 0.9351 244
8.8828 -0.037200000000000004 -0.5142 52
8.9219 -0.0374 1.1426 33
8.8828 -0.037200000000000004 -0.3086 244
8.9375 -0.0374 1.3555000000000001 91
8.8906 -0.037200000000000004 -0.10300000000000001 84
8.9141 -0.0373 1.5644999999999998 7
8.6641 -0.0635 -1.5194999999999999 104
8.9219 -0.0654 0.1035 49
8.7891 -0.0644 -1.334 20
8.8984 -0.0652 0.3091 38
8.8047 -0.0645 -1.127 37
8.9453 -0.06559999999999999 0.5181 16
8.8438 -0.06480000000000001 -0.9253 95
8.9531 -0.06559999999999999 0.7275 11
8.875 -0.06509999999999999 -0.7212000000000001 123
8.9688 -0.06570000000000001 0.938 128
8.875 -0.06509999999999999 -0.5142 71
8.9297 -0.0655 1.1436 176
8.8984 -0.0652 -0.30879999999999996 211
8.9453 -0.06559999999999999 1.3574000000000002 126
8.8828 -0.06509999999999999 -0.10300000000000001 191
8.9922 -0.0659 1.5781 43
8.6641 -0.0922 -1.5194999999999999 52
8.9141 -0.0949 0.1033 204
8.7812 -0.0935 -1.3330000000000002 110
8.9219 -0.095 0.3098 164
8.7969 -0.09369999999999999 -1.126 244
8.9609 -0.09539999999999998 0.5186 89
8.8359 -0.0941 -0.9238 108
12.6172 -0.1344 1.0273 209
8.8672 -0.0944 -0.7206999999999999 212
12.523399999999999 -0.1334 1.3125 157
8.8672 -0.0944 -0.5132 207
8.9375 -0.09519999999999999 1.1436 28
8.8906 -0.0947 -0.30879999999999996 206
8.9609 -0.09539999999999998 1.3603999999999998 115
8.8906 -0.0947 -0.10310000000000001 216
8.9297 -0.0951 1.5674000000000001 81
8.6875 -0.1243 -1.5244 160
8.9297 -0.1278 0.1035 195
8.7891 -0.1257 -1.334 181
12.789100000000001 -0.183 0.4448 236
8.8125 -0.1261 -1.1279000000000001 169
12.593800000000002 -0.18030000000000002 0.7304999999999999 99
8.8281 -0.1263 -0.9238 2
12.601600000000001 -0.1804 1.0264 106
8.875 -0.127 -0.7212000000000001 148
12.5469 -0.1796 1.3144999999999998 45
8.875 -0.127 -0.5136999999999999 99
12.664100000000001 -0.1812 1.6230000000000002 105
8.9062 -0.1274 -0.3093 111
9.0859 -0.13 1.3788999999999998 198
8.9062 -0.1274 -0.1032 251
8.9609 -0.1283 1.5732 58
8.7031 -0.155 -1.5283000000000002 70
8.9844 -0.15990000000000001 0.1042 153
8.7891 -0.1565 -1.335 243
12.726600000000001 -0.2266 0.4426 239
8.8203 -0.15710000000000002 -1.1299 208
12.6172 -0.22460000000000002 0.7314 55
8.8438 -0.1575 -0.9253 36
12.601600000000001 -0.22440000000000002 1.0254 33
8.8828 -0.15810000000000002 -0.7217 91
12.531199999999998 -0.2231 1.3135 148
8.8984 -0.15839999999999999 -0.5151 181
12.6875 -0.226 1.6269999999999998 117
8.9297 -0.1589 -0.31010000000000004 225
12.7031 -0.2262 1.9306999999999999 103
12.914100000000001 -0.23 -0.1501 135
9.0 -0.1602 1.5791 83
8.7188 -0.1858 -1.5312000000000001 139
12.914100000000001 -0.2749 0.1501 173
8.8281 -0.188 -1.3397999999999999 27
12.8125 -0.2729 0.4458 58
8.8438 -0.1882 -1.1318000000000001 195
12.6094 -0.2686 0.731 139
12.6094 -0.2686 -1.3213 20
12.6094 -0.2686 1.0264 29
8.9062 -0.18969999999999998 -0.7241 2
12.531199999999998 -0.2668 1.3135 111
12.6875 -0.2703 1.6269999999999998 188
12.6797 -0.27 -0.4412 101
12.6953 -0.2703 1.9297 198
12.8203 -0.2729 -0.149 146
9.0156 -0.19190000000000002 1.5819999999999999 17
8.7266 -0.2163 -1.5312000000000001 8
12.710899999999999 -0.31489999999999996 0.1478 93
10.6406 -0.2639 -1.6172 12
12.656199999999998 -0.31370000000000003 0.44020000000000004 245
12.4453 -0.30829999999999996 -1.5957 166
12.6094 -0.3125 0.731 114
12.6172 -0.3127 -1.3222999999999998 35
12.6172 -0.3127 1.0273 38
12.7969 -0.3171 -1.042 80
12.523399999999999 -0.3103 1.3115 62
12.7969 -0.3171 -0.7422 237
12.6875 -0.3145 1.6269999999999998 217
12.835899999999999 -0.3184 -0.4468 155
12.6875 -0.3145 1.9287 149
12.906199999999998 -0.3201 -0.1501 126
9.0625 -0.22460000000000002 1.5908000000000002 116
8.7656 -0.251 -1.5391 4
12.8281 -0.36719999999999997 0.1492 126
10.648399999999999 -0.30469999999999997 -1.6172 66
12.843800000000002 -0.3677 0.4468 42
12.4453 -0.35619999999999996 -1.5957 248
12.593800000000002 -0.36060000000000003 0.7304999999999999 42
12.601600000000001 -0.3608 -1.3203 161
12.6172 -0.3611 1.0273 218
12.6953 -0.3635 -1.0342 150
12.523399999999999 -0.3586 1.3125 132
12.6719 -0.3628 -0.7349 109
12.6797 -0.363 1.6269999999999998 223
12.7422 -0.36469999999999997 -0.4434 64
12.6953 -0.36329999999999996 1.9297 254
12.8828 -0.3689 -0.1499 148
8.9141 -0.2551 1.5654 1
9.2734 -0.29960000000000003 -1.6288999999999998 172
12.7969 -0.4133 0.14880000000000002 24
10.656199999999998 -0.3442 -1.6200999999999999 115
12.843800000000002 -0.415 0.447 158
12.468800000000002 -0.40259999999999996 -1.5986000000000002 220
12.601600000000001 -0.40700000000000003 0.7304999999999999 95
12.601600000000001 -0.40700000000000003 -1.3203 110
12.593800000000002 -0.4067 1.0254 111
12.8047 -0.41359999999999997 -1.043 217
12.523399999999999 -0.4045 1.3125 34
12.7969 -0.4133 -0.7422 216
12.6797 -0.4094 1.626 74
12.835899999999999 -0.41479999999999995 -0.4468 194
12.710899999999999 -0.4106 1.9325999999999999 21
12.8594 -0.4153 -0.1495 134
8.9062 -0.2876 1.5635 126
9.4141 -0.332 -1.6543 125
12.7422 -0.4495 0.1482 108
10.625 -0.37479999999999997 -1.6143 199
12.664100000000001 -0.4465 0.4407 169
12.468800000000002 -0.4397 -1.5996000000000001 118
12.601600000000001 -0.4443 0.731 217
12.593800000000002 -0.4443 -1.3203 41
12.593800000000002 -0.44409999999999994 1.0254 165
12.789100000000001 -0.4509 -1.041 183
12.531199999999998 -0.44189999999999996 1.3135 243
12.781199999999998 -0.4509 -0.7417 102
12.6797 -0.4473 1.6269999999999998 178
12.8125 -0.45189999999999997 -0.446 52
12.6797 -0.4473 1.9287 170
12.8828 -0.4543 -0.1499 210
8.9766 -0.31670000000000004 1.5762 85
9.4141 -0.36329999999999996 -1.6533000000000002 227
12.906199999999998 -0.498 0.1501 1
10.6406 -0.4106 -1.6172 144
12.8203 -0.4946 0.446 99
12.476600000000001 -0.4814 -1.6006 16
12.6094 -0.4866 0.7314 140
12.593800000000002 -0.4861 -1.3203 205
12.601600000000001 -0.4863 1.0264 70
12.781199999999998 -0.49340000000000006 -1.041 122
12.5156 -0.4829 1.3115 20
12.726600000000001 -0.49119999999999997 -0.7383 86
12.664100000000001 -0.4888 1.625 82
12.6797 -0.4893 -0.4414 181
12.6797 -0.48950000000000005 1.9287 231
12.6406 -0.4878 -0.1471 25
9.0078 -0.34740000000000004 1.5811000000000002 231
9.4141 -0.3979 -1.6543 233
12.7344 -0.5381 0.1482 14
10.664100000000001 -0.4507 -1.6211000000000002 107
12.6875 -0.5361 0.44170000000000004 218
12.468800000000002 -0.5268999999999999 -1.5996000000000001 35
12.593800000000002 -0.5322 0.731 107
12.593800000000002 -0.5322 -1.3203 139
12.6094 -0.5327000000000001 1.0273 183
12.7969 -0.541 -1.043 1
12.5156 -0.5288 1.3125 145
12.8125 -0.5415 -0.7432 227
12.6719 -0.5356000000000001 1.626 2
12.8594 -0.5435 -0.44780000000000003 139
12.6875 -0.5361 1.9297 123
12.8047 -0.541 -0.1489 163
12.914100000000001 -0.5459 2.2715 51
9.3906 -0.42969999999999997 -1.6494 35
12.9531 -0.5928 0.1508 140
10.664100000000001 -0.4878 -1.6211000000000002 144
12.773399999999999 -0.5845 0.4448 40
12.476600000000001 -0.5713 -1.6016 1
12.593800000000002 -0.5761999999999999 0.7304999999999999 171
12.601600000000001 -0.5767 -1.3213 254
12.6094 -0.5771000000000001 1.0273 31
12.6953 -0.5806 -1.0342 184
12.5156 -0.5728 1.3125 160
12.664100000000001 -0.5796 -0.7349 222
12.664100000000001 -0.5796 1.625 253
12.781199999999998 -0.585 -0.4451 130
12.6875 -0.5806 1.9297 92
12.8203 -0.5864 -0.1492 163
9.6797 -0.4429 1.7012 92
9.3984 -0.4646 -1.6513999999999998 156
12.898399999999999 -0.6377 0.1501 126
10.6797 -0.5283 -1.625 154
12.8203 -0.6338 0.4465 79
12.4922 -0.6177 -1.6035 210
12.593800000000002 -0.6225999999999999 0.731 255
12.585899999999999 -0.6225999999999999 -1.3203 91
12.593800000000002 -0.6225999999999999 1.0264 168
12.8281 -0.6343 -1.0459 255
12.523399999999999 -0.6191 1.3135 143
12.8047 -0.6328 -0.7432 37
12.648399999999999 -0.6255 1.624 128
12.710899999999999 -0.6284000000000001 -0.4426 249
12.6875 -0.6274000000000001 1.9306999999999999 92
12.664100000000001 -0.626 -0.14730000000000001 19
9.7109 -0.4802 1.7080000000000002 14
9.4062 -0.498 -1.6533000000000002 249
12.648399999999999 -0.6694 0.1472 29
10.6719 -0.5649000000000001 -1.6230000000000002 2
12.648399999999999 -0.6694 0.4407 254
12.5 -0.6616 -1.6044999999999998 204
12.601600000000001 -0.667 0.7314 26
12.601600000000001 -0.667 -1.3213 180
12.585899999999999 -0.6659999999999999 1.0264 20
12.773399999999999 -0.6762999999999999 -1.041 160
12.531199999999998 -0.6631 1.3144999999999998 238
12.8125 -0.6781999999999999 -0.7441 226
12.664100000000001 -0.6704000000000001 1.626 185
12.8047 -0.6777 -0.446 18
12.6797 -0.6714 1.9306999999999999 115
12.8125 -0.6781999999999999 -0.149 231
9.7266 -0.5146000000000001 1.71 161
9.4297 -0.5293 -1.6582 231
12.8906 -0.7231000000000001 0.1501 237
10.6797 -0.5991 -1.625 47
12.8047 -0.7182999999999999 0.446 59
12.5 -0.7012 -1.6055000000000001 216
12.601600000000001 -0.7065 0.7314 138
12.601600000000001 -0.7065 -1.3213 216
12.601600000000001 -0.7065 1.0273 65
12.718800000000002 -0.7134 -1.0371 83
12.5156 -0.7021 1.3135 230
12.6953 -0.7119 -0.7373000000000001 97
12.664100000000001 -0.7104 1.626 230
12.6719 -0.7109000000000001 -0.4414 16
12.6719 -0.7109000000000001 1.9297 233
12.718800000000002 -0.7129000000000001 -0.1481 139
13.085899999999999 -0.7339 2.3047 254
9.4062 -0.5586 -1.6533000000000002 167
12.7578 -0.7578 0.14859999999999998 23
10.6953 -0.6357 -1.6279 186
12.773399999999999 -0.7587999999999999 0.4451 244
12.5156 -0.7432 -1.6063999999999998 112
12.593800000000002 -0.748 0.7314 173
12.601600000000001 -0.7484999999999999 -1.3222999999999998 104
12.585899999999999 -0.748 1.0264 210
12.8047 -0.7606999999999999 -1.0439 223
12.5156 -0.7437 1.3135 107
12.7969 -0.7603 -0.7432 246
12.664100000000001 -0.7524 1.6269999999999998 48
12.8125 -0.7612000000000001 -0.44630000000000003 255
12.6719 -0.7529 1.9297 26
12.710899999999999 -0.7548999999999999 -0.1479 105
13.0078 -0.7729 2.291 212
9.4062 -0.5932999999999999 -1.6543 79
12.835899999999999 -0.8096 0.1495 122
10.718800000000002 -0.6762999999999999 -1.6318000000000001 219
12.664100000000001 -0.7988 0.4412 121
12.523399999999999 -0.79 -1.6084 54
12.585899999999999 -0.7939 0.731 45
12.601600000000001 -0.7948999999999999 -1.3222999999999998 235
12.593800000000002 -0.7944 1.0273 146
12.7578 -0.8047 -1.04 27
12.523399999999999 -0.79 1.3135 214
12.781199999999998 -0.8062 -0.7426999999999999 225
12.656199999999998 -0.7988 1.626 13
12.835899999999999 -0.8096 -0.4473 103
12.6797 -0.8003 1.9316 174
12.789100000000001 -0.8070999999999999 -0.1489 210
12.9297 -0.8154 2.2773 238
9.3984 -0.626 -1.6543 124
12.843800000000002 -0.8554999999999999 0.1497 230
10.6953 -0.7123999999999999 -1.6279 210
12.8125 -0.8534999999999999 0.4468 16
12.539100000000001 -0.835 -1.6103999999999998 46
12.593800000000002 -0.8384 0.7314 111
12.593800000000002 -0.8384 -1.3213 176
12.593800000000002 -0.8384 1.0273 124
12.789100000000001 -0.8521 -1.0439 175
12.5156 -0.8334999999999999 1.3135 174
12.7578 -0.8495999999999999 -0.7412000000000001 101
12.656199999999998 -0.8428 1.626 253
12.7031 -0.8462000000000001 -0.4429 136
12.6797 -0.8442000000000001 1.9306999999999999 49
12.6406 -0.8418000000000001 -0.1472 86
12.9219 -0.8608 2.2773 129
9.3906 -0.6597 -1.6522999999999999 67
12.7344 -0.895 0.1484 70
10.710899999999999 -0.7524 -1.6309 51
12.6875 -0.8916 0.4424 221
12.539100000000001 -0.8813 -1.6113 99
12.593800000000002 -0.8853 0.7319 150
12.593800000000002 -0.8853 -1.3222999999999998 112
12.585899999999999 -0.8843000000000001 1.0273 206
12.8047 -0.8998999999999999 -1.0449 226
12.5156 -0.8794 1.3135 173
12.789100000000001 -0.8989 -0.7437 132
12.664100000000001 -0.8896 1.6269999999999998 219
12.8125 -0.9004000000000001 -0.4468 206
12.6797 -0.8911 1.9316 189
12.781199999999998 -0.8984000000000001 -0.1489 37
12.914100000000001 -0.9072 2.2754 56
9.3906 -0.6929000000000001 -1.6533000000000002 12
12.875 -0.9501999999999999 0.1501 23
10.718800000000002 -0.7909999999999999 -1.6328 185
12.781199999999998 -0.9429000000000001 0.4458 210
12.5469 -0.9258 -1.6122999999999998 68
12.593800000000002 -0.9292 0.7319 130
12.601600000000001 -0.9297 -1.3232 111
12.585899999999999 -0.9287000000000001 1.0273 152
12.6875 -0.9365000000000001 -1.0361 146
12.5156 -0.9233 1.3144999999999998 12
12.6875 -0.9359999999999999 -0.7373000000000001 148
12.656199999999998 -0.9336 1.6269999999999998 82
12.7344 -0.9395 -0.44409999999999994 247
12.6719 -0.9346 1.9306999999999999 110
12.7656 -0.9419 -0.14880000000000002 45
12.9219 -0.9531000000000001 2.2773 65
9.3828 -0.7251000000000001 -1.6513999999999998 99
12.835899999999999 -0.9922 0.1497 185
10.7344 -0.8295999999999999 -1.6357 150
12.789100000000001 -0.9883 0.446 124
12.539100000000001 -0.9692000000000001 -1.6122999999999998 213
12.593800000000002 -0.9731000000000001 0.7319 207
12.6094 -0.9751000000000001 -1.3252000000000002 42
12.593800000000002 -0.9736 1.0283 96
12.789100000000001 -0.9883 -1.0439 98
12.5078 -0.9673 1.3144999999999998 162
12.8047 -0.9897 -0.7445999999999999 130
12.664100000000001 -0.9784999999999999 1.6279 101
12.789100000000001 -0.9883 -0.446 170
12.664100000000001 -0.9784999999999999 1.9297 66
12.6797 -0.98 -0.1478 179
12.914100000000001 -0.998 2.2754 190
9.3438 -0.7554000000000001 -1.6465 159
12.6953 -1.0264 0.1481 85
10.726600000000001 -0.8672 -1.6347999999999998 143
12.6328 -1.0205 0.4407 18
12.5547 -1.0146 -1.6152000000000002 92
12.5703 -1.0156 0.731 251
12.601600000000001 -1.0186 -1.3241999999999998 97
12.593800000000002 -1.0176 1.0283 25
12.7344 -1.0293 -1.04 44
12.5078 -1.0107 1.3144999999999998 243
12.7578 -1.0312000000000001 -0.7422 206
12.656199999999998 -1.0234 1.6279 217
12.8203 -1.0361 -0.4473 48
12.6719 -1.0244 1.9325999999999999 96
12.789100000000001 -1.0332 -0.1492 125
12.8906 -1.042 2.2734 230
9.0781 -0.7637 -1.5986000000000002 48
12.8672 -1.083 0.1501 10
10.718800000000002 -0.9023 -1.6338 3
12.8047 -1.0771 0.4468 138
12.5469 -1.0556999999999999 -1.6143 150
12.585899999999999 -1.0586 0.7319 49
12.601600000000001 -1.0605 -1.3241999999999998 8
12.593800000000002 -1.0595999999999999 1.0283 253
12.773399999999999 -1.0752 -1.043 97
12.5156 -1.0537 1.3154 85
12.7031 -1.0693000000000001 -0.7393000000000001 89
12.648399999999999 -1.0645 1.6279 229
12.656199999999998 -1.0654000000000001 -0.44189999999999996 248
12.6797 -1.0664 1.9336000000000002 114
12.6172 -1.0615 -0.1472 31
12.898399999999999 -1.085 2.2754 231
8.7109 -0.7622 -1.5352000000000001 226
12.6953 -1.1104 0.1481 92
10.7344 -0.9390000000000001 -1.6357 104
12.656199999999998 -1.1074 0.44189999999999996 232
12.5547 -1.0986 -1.6162 72
12.585899999999999 -1.1016 0.7323999999999999 73
12.601600000000001 -1.1025 -1.3241999999999998 236
12.5703 -1.0996 1.0273 147
12.781199999999998 -1.1181999999999999 -1.0449 185
12.523399999999999 -1.0957 1.3163999999999998 215
12.8047 -1.1201 -0.7451000000000001 16
12.648399999999999 -1.1064 1.6269999999999998 28
12.835899999999999 -1.123 -0.44799999999999995 14
12.6719 -1.1084 1.9336000000000002 165
12.773399999999999 -1.1181999999999999 -0.149 180
12.906199999999998 -1.1289 2.2773 111
8.6953 -0.7929999999999999 -1.5322 72
12.8594 -1.1729 0.1501 139
