# .PCD v0.7 - Point Cloud Data file format
VERSION 0.7
FIELDS x y z intensity
SIZE 4 4 4 4
TYPE F F F F
COUNT 1 1 1 1
WIDTH 1357
HEIGHT 1
VIEWPOINT 0 0 0 1 0 0 0
POINTS 1357
DATA ascii
-3.3651999999999997 2.793 0.25170000000000003 106
-2.9844 2.4766 -0.4031 208
-29.6406 24.5938 3.1426 86
-3.0702999999999996 2.5488 -0.3223 229
-42.6562 35.375 5.8203 221
-28.1719 23.3906 4.7031 82
-0.5967 0.499 -0.1298 39
-2.9608999999999996 2.4766 -0.491 111
-3.373 2.8202999999999996 0.2532 165
-2.9922000000000004 2.502 -0.4053 41
-29.7656 24.8906 3.1660000000000004 228
-3.082 2.5781 -0.3245 191
-42.625 35.625 5.832000000000001 65
-28.2188 23.5938 4.7266 141
-0.6011 0.5063 -0.13119999999999998 63
-0.6489 0.5464 -0.1229 133
-2.9551 2.4883 -0.4915 187
-3.3789 2.8457 0.2544 56
-2.998 2.5234 -0.4072 99
-42.7188 35.9688 4.5586 228
-3.0370999999999997 2.5586 -0.3206 161
-28.1562 23.7031 4.7266 207
-28.8906 24.3281 5.7539 23
-0.5932999999999999 0.5034000000000001 -0.1298 12
-0.6406000000000001 0.5435 -0.1216 29
-2.9648000000000003 2.5156 -0.4946 216
-3.3594 2.8495999999999997 0.25370000000000004 88
-2.998 2.543 -0.40840000000000004 97
-28.7188 24.3594 3.0723000000000003 77
-3.043 2.582 -0.3223 184
-30.3125 25.7031 4.1719 56
-28.0312 23.7812 4.7227 251
-28.75 24.375 5.7422 162
-0.5825 0.4976 -0.1277 222
-0.6840999999999999 0.5845 -0.1307 129
-2.9531 2.5215 -0.4941 154
-3.3651999999999997 2.873 0.2546 194
-2.9882999999999997 2.5527 -0.40840000000000004 246
-28.4375 24.2969 3.0507999999999997 193
-3.0858999999999996 2.6367000000000003 -0.32789999999999997 214
-26.6719 22.7812 3.6816000000000004 155
-28.1875 24.0781 4.7617 174
-28.7344 24.5469 5.7578 229
-0.5747 0.49439999999999995 -0.1263 109
-0.6820999999999999 0.5864 -0.1307 22
-2.9648000000000003 2.5508 -0.4978 111
-3.3574 2.8887 0.25489999999999996 74
-2.9824 2.5664 -0.4089 16
-28.3594 24.3906 3.0526999999999997 179
-3.1367000000000003 2.6992000000000003 -0.3342 19
-26.5625 22.8438 3.6776999999999997 123
-26.8125 23.0625 4.543 79
-27.9844 24.0781 5.625 188
-0.5820000000000001 0.5044 -0.1284 118
-0.6054999999999999 0.5244 -0.11560000000000001 120
-2.9648000000000003 2.5683999999999996 -0.499 105
-3.3867000000000003 2.9336 0.2581 30
-2.9901999999999997 2.5898000000000003 -0.4111 111
-27.5312 23.8438 2.9726999999999997 210
-3.0742000000000003 2.6620999999999997 -0.3284 218
-26.4062 22.875 3.6660000000000004 161
-26.7188 23.1406 4.543 211
-27.875 24.1406 5.6172 79
-0.5952000000000001 0.519 -0.1318 40
-0.6777 0.5913 -0.1307 170
-2.9531 2.5762 -0.4988 251
-3.3711 2.9395 0.2576 121
-2.9824 2.6016000000000004 -0.4114 139
-27.4531 23.9375 2.9707 87
-3.043 2.6543 -0.3262 86
-26.3906 23.0312 3.6776999999999997 201
-26.75 23.3438 4.5625 200
-27.6719 24.1406 5.5938 186
-0.5903 0.5186 -0.13119999999999998 209
-2.9589999999999996 2.5995999999999997 -0.5015 163
-3.3651999999999997 2.957 0.2581 160
-2.9901999999999997 2.627 -0.4138 76
-27.8281 24.4375 3.0214999999999996 135
-3.1094 2.7305 -0.3342 77
-26.2969 23.1094 3.6738 65
-26.6094 23.375 4.5508 162
-29.0625 25.5312 5.890599999999999 102
-0.583 0.5151 -0.1298 130
-2.9551 2.6113 -0.502 127
-3.3808999999999996 2.9882999999999997 0.25980000000000003 129
-2.9766000000000004 2.6327999999999996 -0.4131 66
-27.3281 24.1562 2.9766000000000004 143
-3.0995999999999997 2.7401999999999997 -0.3342 255
-26.1875 23.1406 3.668 76
-26.1562 23.125 4.4883 115
-27.0625 23.9219 5.5 242
-0.5811 0.5171 -0.1298 190
-2.9629000000000003 2.6367000000000003 -0.5049 135
-3.3613 2.9922000000000004 0.259 191
-2.9766000000000004 2.6504000000000003 -0.4143 14
-27.2031 24.2031 2.9707 171
-3.0918 2.752 -0.3342 210
-26.0625 23.1875 3.6620999999999997 206
-26.0625 23.2031 4.4844 147
-26.875 23.9062 5.4765999999999995 7
-0.5703 0.5117 -0.1277 123
-0.6698999999999999 0.6006 -0.1307 79
-2.9648000000000003 2.6582 -0.5068 204
-3.3983999999999996 3.0469 0.26289999999999997 45
-2.9882999999999997 2.6797000000000004 -0.4172 49
-27.125 24.3125 2.9726999999999997 172
-3.043 2.7285000000000004 -0.3301 196
-26.3281 23.6094 3.7129000000000003 252
-26.9688 24.1875 4.6523 97
-26.7344 23.9688 5.4688 227
-0.5922999999999999 0.5347 -0.1333 168
-2.9512 2.6660000000000004 -0.5063 90
-3.3945 3.0645 0.2634 46
-2.9941000000000004 2.7031 -0.4194 215
-28.5781 25.8125 3.1426 4
-3.0410000000000004 2.7461 -0.3311 87
-26.2344 23.6875 3.7108999999999996 40
-26.7969 24.1875 4.6367 254
-26.5938 24.0156 5.457000000000001 20
-0.5874 0.5342 -0.1326 32
-2.9492000000000003 2.6816000000000004 -0.5073 156
-3.3887 3.082 0.2639 176
-2.9844 2.7129000000000003 -0.4194 87
-28.4844 25.9062 3.1406 87
-3.0625 2.7832 -0.3342 250
-26.0938 23.7344 3.7031 37
-26.4375 24.0469 4.5938 220
-26.4219 24.0156 5.4375 188
-0.5942000000000001 0.5439 -0.1346 3
-2.9492000000000003 2.7012 -0.5088 252
-3.375 3.0898000000000003 0.2637 50
-2.998 2.7461 -0.4226 44
-28.5 26.0938 3.1523000000000003 140
-3.0526999999999997 2.7949 -0.3342 204
-26.125 23.9219 3.7168 114
-25.9844 23.7969 4.5273 252
-26.2656 24.0469 5.425800000000001 76
-0.5659000000000001 0.522 -0.1284 163
-2.9492000000000003 2.7207 -0.5107 20
-3.4023000000000003 3.1367000000000003 0.2666 168
-2.9707 2.7401999999999997 -0.4202 43
-29.0 26.7344 3.2188 100
-3.0957 2.8535000000000004 -0.34009999999999996 167
-26.7812 24.7031 3.8242000000000003 200
-25.8594 23.8438 4.5195 188
-26.2344 24.2031 5.4375 183
-0.6074 0.5645 -0.1388 230
-2.9589999999999996 2.7461 -0.5136999999999999 151
-3.3827999999999996 3.1406 0.2659 66
-2.9785000000000004 2.7656 -0.4226 205
-28.4219 26.3906 3.1641000000000004 223
-3.0801 2.8594 -0.3396 188
-26.4844 24.5938 3.793 121
-25.7031 23.875 4.5078 22
-28.5 26.4531 5.921900000000001 69
-0.5825 0.5449 -0.1333 196
-0.6567000000000001 0.6147 -0.1307 250
-2.9531 2.7617000000000003 -0.5146000000000001 225
-3.375 3.1562 0.2661 122
-2.998 2.8047000000000004 -0.42700000000000005 26
-28.4844 26.6406 3.1836 179
-3.0605 2.8632999999999997 -0.3386 193
-26.4219 24.7188 3.7988 237
-25.6875 24.0312 4.5195 137
-27.4531 25.6875 5.7265999999999995 251
-0.5722999999999999 0.5390999999999999 -0.13119999999999998 134
-2.9414 2.7714999999999996 -0.5142 88
-3.377 3.1816000000000004 0.2673 221
-3.0 2.8262 -0.4285 114
-26.9219 25.3594 3.0176 247
-3.0332 2.8574 -0.3367 142
-26.375 24.8594 3.8047000000000004 34
-25.5781 24.0938 4.5156 35
-26.2656 24.7344 5.4961 40
-0.5562 0.5273 -0.1277 29
-0.6528 0.6191 -0.1307 76
-2.9629000000000003 2.8105 -0.52 19
-3.3574 3.1855 0.2666 134
-2.9844 2.8301 -0.4277 88
-28.5938 27.1094 3.2148000000000003 169
-3.0370999999999997 2.8808999999999996 -0.3381 156
-26.5 25.125 3.8339999999999996 91
-25.75 24.4062 4.5586 158
-26.1562 24.8125 5.4922 91
-0.5825 0.5562 -0.1346 234
-2.9629000000000003 2.8281 -0.5215 187
-3.4199 3.2656 0.2725 39
-2.9922000000000004 2.8574 -0.4302 204
-28.4062 27.125 3.2051 122
-3.0507999999999997 2.9120999999999997 -0.3408 8
-26.3594 25.1719 3.8262 97
-25.5312 24.375 4.5352 127
-25.9219 24.75 5.457000000000001 203
-0.5752 0.5527000000000001 -0.1333 158
-2.9551 2.8418 -0.522 202
-3.4238 3.2910000000000004 0.2737 244
-2.9882999999999997 2.873 -0.43119999999999997 243
-26.6875 25.6562 3.0195 84
-3.0488 2.9316000000000004 -0.3418 11
-28.25 27.1562 4.1133 142
-25.5625 24.5625 4.5547 219
-25.875 24.8594 5.4648 182
-0.5590999999999999 0.541 -0.1298 37
-2.957 2.8613 -0.5239 135
-3.4257999999999997 3.3164 0.2747 64
-2.998 2.9023000000000003 -0.4341 118
-26.0 25.1562 2.9512 230
-3.0254000000000003 2.9276999999999997 -0.34009999999999996 227
-28.0 27.0938 4.0898 192
-26.0156 25.1719 4.6523 200
-25.7812 24.9375 5.4609000000000005 101
-0.5600999999999999 0.5459 -0.1305 248
-2.9551 2.8808999999999996 -0.5254 104
-3.4199 3.3339999999999996 0.2751 57
-3.0 2.9238 -0.43579999999999997 155
-26.7812 26.1094 3.0526999999999997 168
-3.0137 2.9395 -0.34009999999999996 69
-26.3594 25.7031 3.8651999999999997 142
-26.1719 25.5156 4.6953 26
-0.5806 0.5698 -0.136 67
-2.9648000000000003 2.9101999999999997 -0.5288 244
-3.4023000000000003 3.3398000000000003 0.2747 211
-2.9901999999999997 2.9336 -0.43579999999999997 84
-26.7031 26.2188 3.0526999999999997 155
-3.0214999999999996 2.9668 -0.342 246
-26.1406 25.6719 3.8457 14
-25.9844 25.5156 4.6797 38
-0.5786 0.5718 -0.136 137
-2.9608999999999996 2.9276999999999997 -0.5303 29
-3.3906 3.3516000000000004 0.2747 247
-2.9785000000000004 2.9452999999999996 -0.43579999999999997 160
-26.0 25.7031 2.9844 138
-3.0117000000000003 2.9766000000000004 -0.342 149
-25.9688 25.6562 3.832 70
-25.7656 25.4688 4.6523 165
-0.5932999999999999 0.5903 -0.14029999999999998 232
-2.9726999999999997 2.9589999999999996 -0.5342 170
-3.4082 3.3926 0.2771 136
-2.9824 2.9688 -0.43770000000000003 6
-25.8125 25.6875 2.9707 182
-3.0039 2.9901999999999997 -0.3425 117
-25.8281 25.7031 3.8242000000000003 170
-25.6875 25.5625 4.6562 4
-0.5913 0.5928 -0.14029999999999998 120
-2.9629000000000003 2.9707 -0.5342 29
-59.7188 59.875 4.918 44
-2.9745999999999997 2.9824 -0.4382 133
-25.8438 25.9062 2.9844 49
-3.0098000000000003 3.0176 -0.34450000000000003 106
-25.7812 25.8438 3.8339999999999996 112
-25.1406 25.2031 4.5742 77
-0.5586 0.564 -0.1326 230
-2.9473000000000003 2.9745999999999997 -0.5332 38
-59.2188 59.7812 4.8945 37
-2.9863 3.0156 -0.4414 141
-25.9688 26.2188 3.0117000000000003 226
-3.0098000000000003 3.0391000000000004 -0.3457 18
-27.375 27.6406 4.0859 227
-25.0469 25.2812 4.5703 22
-0.5649000000000001 0.5742 -0.1346 157
-2.9608999999999996 3.0098000000000003 -0.5376 146
-58.8125 59.7812 4.875 169
-2.9901999999999997 3.0410000000000004 -0.4436 41
-25.5 25.9219 2.9668 40
-3.0176 3.0664 -0.3477 140
-26.5156 26.9531 3.9688 171
-26.0469 26.4688 4.7734 252
-0.563 0.5761999999999999 -0.1346 189
-3.043 3.1151999999999997 -0.6577 1
-2.957 3.0273000000000003 -0.5386 56
-58.4062 59.7812 4.8594 230
-2.9766000000000004 3.0469 -0.44310000000000005 174
-3.0176 3.0879000000000003 -0.3489 18
-26.7656 27.3906 4.0195 30
-26.375 27.0 4.8477 130
-0.5718 0.5893999999999999 -0.1375 58
-3.0332 3.127 -0.6577 253
-2.9629000000000003 3.0547000000000004 -0.542 172
-58.0 59.7812 4.8438 12
-2.9922000000000004 3.0839999999999996 -0.447 247
-3.0137 3.1074 -0.34990000000000004 158
-25.75 26.5312 3.8808999999999996 121
-25.75 26.5469 4.75 197
-0.5806 0.603 -0.14029999999999998 124
-3.002 3.1172000000000004 -0.6533 172
-2.9629000000000003 3.0762 -0.5439 94
-57.5625 59.75 4.8242 218
-2.9922000000000004 3.1055 -0.4487 149
-3.0156 3.1289 -0.3513 188
-25.7812 26.75 3.9004000000000003 137
-24.9688 25.9219 4.625 62
-0.5786 0.605 -0.14029999999999998 62
-3.0273000000000003 3.1641000000000004 -0.6611 66
-2.9531 3.0858999999999996 -0.5439 96
-57.1562 59.7188 4.8086 49
-3.0039 3.1387 -0.45189999999999997 203
-3.0176 3.1543 -0.3528 195
-25.6406 26.7969 3.8926 23
-24.9844 26.1094 4.6445 163
-0.5552 0.584 -0.1346 206
-3.0176 3.1738 -0.6611 13
-3.2676 3.4375 0.1638 6
-2.9473000000000003 3.1016000000000004 -0.5449 95
-56.75 59.6875 4.7891 237
-2.9844 3.1406 -0.4507 193
-26.6719 28.0625 3.1582 20
-3.0195 3.1757999999999997 -0.3542 206
-25.6562 27.0 3.9101999999999997 115
-24.8125 26.1094 4.6289 15
-0.5557 0.5889 -0.1354 96
-3.0293 3.2108999999999996 -0.6665000000000001 111
-2.9668 3.1445 -0.5503 106
-56.3438 59.7188 4.7734 155
-2.9941000000000004 3.1738 -0.45409999999999995 28
-26.6094 28.1875 3.1620999999999997 243
-3.0077999999999996 3.1875 -0.3542 75
-25.5312 27.0625 3.9062 145
-24.8594 26.3438 4.6523 58
-0.5590999999999999 0.5967 -0.1367 102
-2.9785000000000004 3.1776999999999997 -0.6577 50
-2.9608999999999996 3.1601999999999997 -0.5518 212
-55.9375 59.6875 4.7578 194
-2.9805 3.1816000000000004 -0.4536 44
-26.4531 28.2188 3.1562 251
-3.0077999999999996 3.2089999999999996 -0.3555 199
-25.5 27.2031 3.9141000000000004 8
-24.7969 26.4531 4.6602 228
-0.5297999999999999 0.5693 -0.1298 239
-2.9726999999999997 3.1952999999999996 -0.6587000000000001 70
-2.9589999999999996 3.1797000000000004 -0.5532 52
-55.5938 59.7188 4.7461 118
-2.9941000000000004 3.2188 -0.4575 133
-26.3906 28.375 3.1620999999999997 24
-3.0117000000000003 3.2363 -0.3574 144
-25.25 27.1406 3.8906 41
-0.5386 0.583 -0.1326 51
-3.2051 3.4688 0.054299999999999994 231
-2.9668 3.2108999999999996 -0.6602 17
-2.9551 3.1973000000000003 -0.5547 3
-55.1562 59.6875 4.7266 128
-2.9785000000000004 3.2226999999999997 -0.45649999999999996 229
-3.0117000000000003 3.2598000000000003 -0.3589 237
-25.0938 27.1562 3.8827999999999996 25
-0.4993 0.5444 -0.1229 136
-2.9766000000000004 3.2441000000000004 -0.665 197
-2.9589999999999996 3.2266000000000004 -0.5576 121
-54.7812 59.6875 4.7109 119
-2.9941000000000004 3.2617000000000003 -0.4607 154
-3.002 3.2714999999999996 -0.3591 142
-25.8125 28.125 4.0078 18
-3.1094 3.3867000000000003 -0.0529 128
-2.9961 3.2891000000000004 -0.7773 182
-2.9824 3.2714999999999996 -0.6685 187
-2.9668 3.2558999999999996 -0.561 171
-54.375 59.6875 4.6953 167
-2.9844 3.2754000000000003 -0.4612 165
-2.9961 3.2891000000000004 -0.3599 247
-24.9375 27.375 3.8867000000000003 163
-2.9745999999999997 3.2870999999999997 -0.7744 186
-2.9629000000000003 3.2733999999999996 -0.6665000000000001 202
-2.9648000000000003 3.2754000000000003 -0.563 33
-53.9688 59.6562 4.6758 183
-2.9844 3.2988 -0.4629 146
-53.9062 59.5625 6.5586 233
-3.0039 3.3202999999999996 -0.36210000000000003 35
-25.7344 28.4531 4.0273 116
-3.0723000000000003 3.3964999999999996 -0.15810000000000002 74
-2.9668 3.3007999999999997 -0.7748999999999999 145
-2.9844 3.3223000000000003 -0.6743000000000001 56
-3.3026999999999997 3.6776999999999997 0.17079999999999998 199
-2.9492000000000003 3.2832 -0.562 251
-53.625 59.6562 4.6641 248
-2.9882999999999997 3.3262 -0.4653 223
-53.5312 59.5625 6.5390999999999995 57
-2.9824 3.3183999999999996 -0.3608 241
-25.6406 28.5312 4.0273 236
-3.0702999999999996 3.418 -0.2646 0
-2.9531 3.3105 -0.7748999999999999 200
-2.9707 3.3301 -0.6738 160
-2.9512 3.3086 -0.5649000000000001 4
-53.2188 59.6562 4.6484 13
-2.9785000000000004 3.3398000000000003 -0.4658 143
-53.1562 59.5625 6.515599999999999 126
-3.0117000000000003 3.377 -0.366 136
-3.0605 3.4316000000000004 -0.26489999999999997 79
-2.9473000000000003 3.3262 -0.7759 244
-2.9726999999999997 3.3555 -0.6768000000000001 239
-3.2773000000000003 3.6992000000000003 0.17079999999999998 10
-2.9512 3.3301 -0.5669 148
-52.8125 59.625 4.6328 26
-2.957 3.3379000000000003 -0.46409999999999996 141
-52.7812 59.5625 6.4961 43
-3.0195 3.4082 -0.3682 55
-2.9531 3.3574 -0.7807999999999999 159
-2.9745999999999997 3.3808999999999996 -0.6801999999999999 175
-3.2656 3.7108999999999996 0.17079999999999998 159
-2.9785000000000004 3.3848000000000003 -0.5747 110
-52.4688 59.625 4.6172 175
-2.9512 3.3535000000000004 -0.4648 156
-52.3438 59.5 6.4727 93
-3.0098000000000003 3.4219 -0.36869999999999997 168
-2.957 3.3848000000000003 -0.7852 57
-2.9688 3.3983999999999996 -0.6816 14
-3.252 3.7226999999999997 0.17079999999999998 15
-2.9824 3.4141000000000004 -0.5776 236
-52.0938 59.625 4.6016 245
-2.9844 3.4160000000000004 -0.4722 27
-52.0 59.5 6.453099999999999 207
-3.0058999999999996 3.4414 -0.3696 246
-2.9589999999999996 3.4101999999999997 -0.7886 165
-2.9707 3.4238 -0.6846 69
-3.2401999999999997 3.7324 0.17079999999999998 203
-2.9726999999999997 3.4257999999999997 -0.5776 50
-51.7188 59.5938 4.5898 133
-2.9688 3.4219 -0.4717 234
-51.6562 59.5 6.4336 187
-3.0077999999999996 3.4648000000000003 -0.3711 92
-2.9551 3.4276999999999997 -0.7905 127
-2.9745999999999997 3.4512 -0.6884999999999999 115
-3.248 3.7676 0.17190000000000003 13
-2.9589999999999996 3.4336 -0.5776 235
-51.3438 59.5938 4.5742 53
-3.002 3.4824 -0.4788 61
-51.2812 59.5 6.4140999999999995 33
-3.0254000000000003 3.5098000000000003 -0.37479999999999997 180
-2.9512 3.4473000000000003 -0.7929999999999999 24
-2.9629000000000003 3.4629000000000003 -0.6884999999999999 101
-3.2324 3.7773000000000003 0.1718 68
-2.9668 3.4668 -0.5815 234
-51.0 59.5938 4.5625 53
-2.9824 3.4844 -0.4775 192
-50.875 59.4688 6.390599999999999 63
-3.0117000000000003 3.5195 -0.37479999999999997 83
-2.9668 3.4922000000000004 -0.8003 42
-2.9629000000000003 3.4882999999999997 -0.6914 53
-3.2422000000000004 3.8164 0.17309999999999998 115
-2.9688 3.4941000000000004 -0.584 197
-50.625 59.5625 4.5469 146
-2.9882999999999997 3.5176 -0.4805 137
-50.5312 59.4688 6.3711 87
-3.0156 3.5488 -0.37670000000000003 87
-2.9726999999999997 3.5233999999999996 -0.8051999999999999 173
-2.9688 3.5176 -0.6953 19
-3.2266000000000004 3.8242000000000003 0.1729 145
-2.9629000000000003 3.5137 -0.5859000000000001 207
-50.25 59.5625 4.5312 198
-2.9961 3.5507999999999997 -0.4836 209
-50.1875 59.4688 6.3515999999999995 143
-3.0077999999999996 3.5645 -0.3774 150
-2.9688 3.543 -0.8076000000000001 220
-2.9648000000000003 3.5391000000000004 -0.6973 75
-3.2382999999999997 3.8651999999999997 0.1743 8
-2.9707 3.5469 -0.5893999999999999 62
-49.875 59.5312 4.5156 189
-2.9901999999999997 3.5702999999999996 -0.4851 95
-49.8125 59.4688 6.332000000000001 206
-3.0058999999999996 3.5879000000000003 -0.3787 54
-2.9629000000000003 3.5625 -0.8096 53
-2.9844 3.5898000000000003 -0.7051000000000001 139
-3.2245999999999997 3.877 0.1743 4
-2.9551 3.5526999999999997 -0.5889 243
-49.5 59.5312 4.5 20
-2.9863 3.5898000000000003 -0.4863 211
-49.4375 59.4375 6.3086 193
-3.0176 3.6289 -0.3818 93
-2.9551 3.5781 -0.8109999999999999 117
-2.9941000000000004 3.627 -0.7109000000000001 46
-3.25 3.9355 0.1764 31
-2.9629000000000003 3.5879000000000003 -0.5932999999999999 119
-49.1562 59.5 4.4883 47
-49.0625 59.4375 6.292999999999999 147
-3.0137 3.6483999999999996 -0.38280000000000003 10
-2.9589999999999996 3.6055 -0.8149 143
-2.9882999999999997 3.6426 -0.7119 16
-3.2617000000000003 3.9766000000000004 0.1777 252
-2.9648000000000003 3.6132999999999997 -0.5957 55
-48.8125 59.4688 4.4727 162
-2.998 3.6543 -0.49219999999999997 66
-48.7188 59.4062 6.2734000000000005 50
-3.0293 3.6914 -0.3865 235
-2.9531 3.625 -0.8169 164
-2.9824 3.6582 -0.7134 39
-2.9882999999999997 3.6660000000000004 -0.603 175
-48.4688 59.5 4.4609 179
-2.998 3.6797000000000004 -0.4941 181
-48.4062 59.4062 6.2578 211
-3.0176 3.7031 -0.3865 112
-2.9608999999999996 3.6601999999999997 -0.8228 165
-2.9785000000000004 3.6816000000000004 -0.7153 216
-48.1562 59.5625 2.6719 69
-2.9844 3.6895 -0.605 17
-48.125 59.5 4.4492 243
-3.0214999999999996 3.7363 -0.5005 245
-48.0625 59.4062 6.238300000000001 212
-3.0137 3.7266000000000004 -0.38770000000000004 95
-20.2656 25.0625 3.3827999999999996 124
-2.9531 3.6757999999999997 -0.8242 79
-2.9922000000000004 3.7266000000000004 -0.7222 85
-47.8438 59.5938 2.6660000000000004 69
-2.9863 3.7188 -0.6079 65
-47.75 59.4688 4.4336 17
-3.0156 3.7539 -0.5015 124
-47.6875 59.375 6.2188 39
-3.0214999999999996 3.7617000000000003 -0.39039999999999997 232
-20.2031 25.1562 3.3867000000000003 180
-2.9531 3.7051 -0.8281000000000001 240
-2.9961 3.7577999999999996 -0.7265999999999999 24
-47.4688 59.5625 2.6582 124
-2.9745999999999997 3.7324 -0.6084 136
-47.4062 59.4688 4.4219 11
-2.9824 3.7422000000000004 -0.49829999999999997 216
-18.7031 23.4688 2.4473 88
-3.0137 3.7812 -0.3914 96
-20.2188 25.3594 3.4043 244
-18.9375 23.7656 4.6289 198
-2.9589999999999996 3.7382999999999997 -0.8334999999999999 63
-2.998 3.7870999999999997 -0.73 119
-47.125 59.5625 2.6504000000000003 216
-2.9745999999999997 3.7577999999999996 -0.6108 88
-47.0625 59.4375 4.4102 210
-3.0098000000000003 3.8026999999999997 -0.5049 200
-47.0312 59.4062 6.1836 188
-3.0176 3.8145 -0.3936 97
-19.7656 24.9688 3.3418 97
-18.8438 23.7969 4.6211 24
-2.9785000000000004 3.7891000000000004 -0.8423 119
-2.9844 3.7969 -0.73 49
-46.8125 59.5625 2.6426 212
-2.9785000000000004 3.7891000000000004 -0.6147 38
-46.75 59.4688 4.3984 109
-3.0117000000000003 3.832 -0.5078 147
-18.5 23.5469 2.4414 60
-3.0098000000000003 3.8301 -0.3943 83
-19.7812 25.1719 3.3613 28
-20.0156 25.4688 -1.1289 95
-18.9062 24.0469 4.6602 162
-2.9882999999999997 3.8262 -0.8486 221
-3.0039 3.8476999999999997 -0.7378 118
-46.4688 59.5312 2.6367000000000003 39
-2.9805 3.8183999999999996 -0.6177 198
-46.4062 59.4375 4.3828 221
-3.0077999999999996 3.8535000000000004 -0.5093 179
-18.4375 23.625 2.4453 36
-3.0058999999999996 3.8495999999999997 -0.3953 225
-19.4844 24.9531 3.3223000000000003 59
-18.875 24.1875 3.9414 8
-19.8438 25.4219 -1.125 117
-18.7969 24.0625 4.6484 55
-2.9766000000000004 3.8398000000000003 -0.8491 22
-3.0058999999999996 3.877 -0.7417 131
-46.125 59.5 2.627 60
-2.9766000000000004 3.8418 -0.6196 236
-46.0312 59.4062 4.3711 155
-3.0156 3.8887 -0.5127 122
-18.7656 24.2031 2.498 251
-3.0195 3.8945 -0.39890000000000003 189
-19.5312 25.1875 3.3457 172
-18.7812 24.2188 3.9375 135
-19.6875 25.3906 -1.1201 124
-18.7031 24.125 4.6484 173
-2.9726999999999997 3.8613 -0.8521 35
-3.2461 4.2188 0.0613 145
-2.998 3.8926 -0.7426999999999999 232
-2.9824 3.873 -0.623 246
-45.7188 59.4062 4.3594 23
-3.0156 3.918 -0.5151 23
-18.625 24.1875 2.4902 121
-3.0195 3.9238 -0.40090000000000003 3
-19.3125 25.0938 3.3242000000000003 175
-18.7188 24.3125 3.9414 243
-19.5469 25.3906 -1.1172 166
-17.8906 23.25 4.4648 85
-2.9805 3.9043 -0.8589 48
-3.1875 4.1758 0.0605 27
-2.9961 3.9238 -0.7461 3
-2.9941000000000004 3.9219 -0.6294 228
-45.375 59.4062 4.3477 238
-3.0117000000000003 3.9452999999999996 -0.5171 186
-18.5312 24.2812 2.4922 174
-3.0195 3.9551 -0.4028 153
-19.1094 25.0312 3.3066000000000004 153
-17.5781 23.0312 3.7226999999999997 112
-17.6562 23.125 4.4297 162
-2.9901999999999997 3.9473000000000003 -0.8656999999999999 42
-3.2129000000000003 4.2422 0.0613 228
-2.9805 3.9355 -0.7461 77
-2.9922000000000004 3.9492000000000003 -0.6318 183
-45.0312 59.4375 4.3359 255
-2.998 3.957 -0.5171 204
-18.3438 24.2188 2.4785 204
-3.0137 3.9785000000000004 -0.40409999999999996 62
-18.8906 24.9375 3.2832 61
-17.9062 23.6406 3.8105 61
-17.5625 23.1875 4.4297 115
-2.9961 3.9785000000000004 -0.8711 9
-2.9941000000000004 3.9745999999999997 -0.7524 61
-3.002 3.9863 -0.6367 70
-44.7188 59.4062 4.3242 176
-3.0195 4.0117 -0.5229 13
-18.1875 24.1562 2.4668 201
-3.0077999999999996 3.9941000000000004 -0.4048 189
-19.1406 25.4062 3.3398000000000003 84
-17.7969 23.6406 3.8007999999999997 16
-17.5781 23.3438 4.4492 90
-2.9922000000000004 4.0 -0.8734999999999999 115
-3.0117000000000003 4.0273 -0.7603 64
-2.9922000000000004 4.0 -0.6372 90
-44.4375 59.4062 4.3125 147
-3.0370999999999997 4.0625 -0.5283 67
-44.3125 59.2812 6.042999999999999 47
-3.0233999999999996 4.043 -0.40869999999999995 227
-17.4375 23.3125 3.0547000000000004 245
-17.7969 23.8125 3.8183999999999996 53
-17.8906 23.9219 4.5508 254
-2.9824 4.0195 -0.875 86
-3.0137 4.0586 -0.7642 109
-2.9863 4.0234 -0.6392 5
-44.0625 59.375 4.3008 153
-3.0176 4.0664 -0.5278 30
-44.0 59.2812 6.0273 185
-3.0254000000000003 4.0742 -0.41090000000000004 34
-17.75 23.9062 3.125 19
-17.7812 23.9531 3.832 69
-2.998 4.0703 -0.8837999999999999 79
-2.998 4.0703 -0.7642 42
-21.2969 28.9062 1.252 158
-2.9844 4.0508 -0.6416 208
-43.75 59.375 4.2891 14
-3.0254000000000003 4.1055 -0.5312 91
-43.6875 59.2812 6.011699999999999 115
-3.0254000000000003 4.1055 -0.4128 83
-17.4062 23.625 3.0801 216
-18.3125 24.8594 3.9648000000000003 244
-3.002 4.1055 -0.8896 53
-3.0137 4.1211 -0.7725 228
-21.0469 28.7969 1.2441 226
-2.9922000000000004 4.0938 -0.6465000000000001 63
-43.4062 59.375 4.2773 236
-3.0214999999999996 4.1328 -0.5337 118
-43.3438 59.2812 5.9961 61
-3.0254000000000003 4.1406 -0.415 151
-17.2812 23.6406 3.0742000000000003 56
-18.2344 24.9375 3.9688 174
-17.875 24.4531 4.6133 240
-3.1797000000000004 4.3477 -0.0621 40
-3.002 4.1367 -0.894 77
-3.0156 4.1562 -0.7764 184
-20.8906 28.7812 1.2402 39
-2.9805 4.1055 -0.6475 11
-43.0938 59.4062 4.2656 25
-3.0195 4.1602 -0.5356000000000001 104
-17.8281 24.5625 2.4766 198
-3.0370999999999997 4.1836 -0.41869999999999996 63
-17.2344 23.75 3.0801 66
-18.125 24.9688 3.9629000000000003 22
-17.8281 24.5781 4.625 151
-3.1367000000000003 4.3203 -0.0616 54
-2.9961 4.1562 -0.8959999999999999 190
-3.002 4.1641 -0.7764 252
-20.75 28.7812 1.2373 97
-2.9922000000000004 4.1523 -0.6528 166
-42.7812 59.3438 4.2539 158
-3.0195 4.1875 -0.5381 75
-17.7344 24.5938 2.4727 197
-3.0332 4.207 -0.4199 61
-17.1875 23.8438 3.0839999999999996 211
-18.3438 25.4531 4.0312 105
-17.7656 24.6406 4.625 37
-3.1483999999999996 4.3672 -0.062 234
-2.9961 4.1836 -0.8998999999999999 195
-3.0273000000000003 4.2305 -0.7866 167
-20.6406 28.8438 1.2363 228
-3.0117000000000003 4.207 -0.6602 157
-42.4688 59.3125 4.2422 74
-3.0058999999999996 4.1992 -0.5381 172
-18.625 26.0156 2.6094 118
-3.0332 4.2383 -0.4219 172
-17.2031 24.0156 3.0995999999999997 156
-17.375 24.2656 3.832 183
-17.6562 24.6562 4.6172 10
-3.2108999999999996 4.4844 -0.0636 196
-3.0077999999999996 4.2344 -0.9081999999999999 34
-3.0214999999999996 4.2539 -0.7890999999999999 147
-20.5781 28.9844 1.2393 96
-2.9961 4.2188 -0.6602 138
-42.125 59.3438 4.2305 62
-3.0312 4.2695 -0.5454 139
-18.5156 26.0625 2.6074 205
-3.0332 4.2695 -0.4243 209
-17.375 24.4688 3.1483999999999996 55
-17.0938 24.0625 3.7910000000000004 158
-3.1660000000000004 4.457 -0.1891 242
-17.2812 24.3438 4.5469 155
-15.539100000000001 21.8906 -0.313 36
-3.0156 4.2773 -0.9155 181
-3.0176 4.2812 -0.792 103
-20.4844 29.0625 1.2393 133
-3.0117000000000003 4.2734 -0.667 250
-41.8125 59.3125 4.2188 69
-3.0488 4.3242 -0.5513 2
-41.75 59.2188 5.9140999999999995 215
-3.0293 4.2969 -0.42579999999999996 247
-17.1875 24.3906 3.1308999999999996 76
-17.0625 24.2188 3.8047000000000004 3
-3.1172000000000004 4.4219 -0.18710000000000002 199
-17.1094 24.2656 4.5234 128
-15.4453 21.9062 -0.3125 136
-3.0233999999999996 4.3203 -0.9224 55
-3.0137 4.3086 -0.7948999999999999 46
-20.3906 29.1562 1.2402 10
-3.0039 4.293 -0.6685 181
-41.5 59.3125 4.2109 176
-3.0312 4.332 -0.5513 45
-18.6719 26.6875 2.6562 66
-3.0312 4.332 -0.4282 215
-17.0938 24.4219 3.1289 239
-3.1074 4.4414 -0.3127 199
-16.7656 23.9688 3.7577999999999996 203
-17.0 24.2969 4.5156 84
-15.273399999999999 21.8281 -0.31079999999999997 238
-3.0058999999999996 4.3281 -0.9214 33
-3.0254000000000003 4.3555 -0.8022 127
-20.3281 29.2812 1.2431999999999999 66
-3.0 4.3203 -0.6714 180
-41.1875 59.3125 4.1992 249
-3.0332 4.3672 -0.5542 9
-18.5625 26.7188 2.6543 159
-3.0391000000000004 4.375 -0.4314 48
-17.0 24.4844 3.1289 64
-3.1308999999999996 4.5078 -0.31670000000000004 190
-16.3281 23.5 3.6757999999999997 36
-3.0664 4.4141 -0.1859 248
-16.8906 24.3125 4.5078 240
-15.125 21.7812 -0.3091 68
-3.0117000000000003 4.3672 -0.9277 101
-3.0254000000000003 4.3867 -0.8062 51
-20.3125 29.4688 1.248 41
-3.0 4.3516 -0.6743000000000001 33
-40.9062 59.3438 4.1914 223
-3.0586 4.4336 -0.5615 247
-17.8594 25.9062 2.5664 37
-3.0488 4.4219 -0.4351 104
-16.9688 24.6094 3.1387 94
-16.4219 23.8125 3.7148000000000003 213
-3.0801 4.4688 -0.1877 79
-16.875 24.4688 4.5273 81
-15.039100000000001 21.8125 -0.30879999999999996 35
-16.4844 23.9062 5.1133 17
-3.0098000000000003 4.3945 -0.9320999999999999 197
-3.0214999999999996 4.4141 -0.8090999999999999 172
-20.2812 29.625 1.252 220
-3.0195 4.4102 -0.6820999999999999 184
-3.0293 4.4258 -0.5590999999999999 239
-17.7656 25.9375 2.5645 201
-3.0370999999999997 4.4336 -0.4353 35
-16.9531 24.75 3.1483999999999996 96
-16.3281 23.8438 3.7108999999999996 228
-16.4375 24.0156 4.4297 166
-14.9453 21.8281 -0.30829999999999996 171
-16.3594 23.8906 5.0977 255
-3.0332 4.4648 -0.9443 204
-3.0098000000000003 4.4297 -0.8101 73
-20.2188 29.7656 1.2549 135
-3.0214999999999996 4.4492 -0.6865000000000001 218
-3.0370999999999997 4.4727 -0.5635 26
-17.7031 26.0781 2.5702999999999996 248
-3.0410000000000004 4.4805 -0.4385 226
-16.8594 24.8125 3.1483999999999996 88
-16.1094 23.7188 3.6816000000000004 125
-16.5781 24.4219 4.4961 49
-14.835899999999999 21.8438 -0.3079 155
-16.3125 24.0312 5.1133 226
-3.0332 4.5 -0.9492 40
-3.0273000000000003 4.4922 -0.8193 65
-20.1719 29.9219 1.2578 130
-3.0176 4.4766 -0.6890000000000001 244
-16.7969 24.9219 1.7461000000000002 111
-3.0586 4.5391 -0.5708 141
-17.6094 26.125 2.5702999999999996 113
-3.0410000000000004 4.5117 -0.4409 120
-16.7188 24.8125 3.1406 236
-15.898399999999999 23.5938 3.6543 8
-15.773399999999999 23.4062 4.2969 89
-14.726600000000001 21.8438 -0.3071 93
-16.2969 24.1875 5.1328 160
-3.0293 4.5273 -0.9526 152
-3.0410000000000004 4.543 -0.8271 226
-20.1562 30.1094 1.2637 138
-3.0137 4.5039 -0.6914 81
-16.6719 24.9219 1.7422 203
-3.0645 4.5781 -0.5747 11
-17.4844 26.125 2.5645 244
-3.0370999999999997 4.5391 -0.4424 122
-15.4219 23.0469 2.9101999999999997 109
-15.843800000000002 23.6719 3.6582 204
-15.6875 23.4375 4.293 43
-14.6328 21.875 -0.3069 113
-16.2656 24.3125 5.1484000000000005 238
-3.0233999999999996 4.5508 -0.9556 25
-3.0507999999999997 4.5938 -0.8345 202
-20.1406 30.3125 1.2686 24
-3.0156 4.5391 -0.6958 176
-16.5781 24.9688 1.7412 167
-3.0449 4.582 -0.5737 37
-17.3906 26.1875 2.5645 134
-3.043 4.5781 -0.44530000000000003 149
-15.3125 23.0469 2.9043 157
-16.125 24.2812 3.7441000000000004 190
-2.8945 4.3555 -0.1809 123
-15.593800000000002 23.4688 4.2891 72
-14.5703 21.9375 -0.3071 231
-14.9375 22.4844 4.75 205
-3.0233999999999996 4.5859 -0.9609000000000001 116
-3.0370999999999997 4.6055 -0.835 25
-3.0293 4.5938 -0.7026 73
-16.5 25.0312 1.7422 40
-3.0312 4.5977 -0.5742 4
-17.3438 26.3125 2.5702999999999996 45
-3.0566000000000004 4.6367 -0.45 103
-15.281199999999998 23.1719 2.9141000000000004 153
-16.75 25.3906 3.9082 84
-15.406199999999998 23.3594 4.2617 199
-14.539100000000001 22.0469 -0.3079 157
-14.8906 22.5781 4.7617 59
-3.0214999999999996 4.6133 -0.9648 201
-3.0098000000000003 4.5977 -0.8315 255
-3.0449 4.6484 -0.7095 215
-3.0605 4.6758 -0.583 178
-16.3594 24.9844 2.4355 72
-3.0645 4.6797 -0.4531 163
-15.226600000000001 23.2656 2.918 58
-3.1327999999999996 4.7852 -0.3301 118
-16.7188 25.5469 3.9219 59
-13.4453 20.5469 -0.8554999999999999 251
-15.335899999999999 23.4219 4.2617 141
-14.5078 22.1562 -0.30879999999999996 236
-16.2031 24.75 5.207000000000001 249
-3.0391000000000004 4.6797 -0.9765999999999999 29
-19.7969 30.4844 0.4241 184
-3.0176 4.6484 -0.8384 67
-3.0273000000000003 4.6602 -0.7095 45
-16.1875 24.9219 1.7266 20
-3.0586 4.7109 -0.5859000000000001 237
-16.2188 24.9844 2.4297 174
-3.0645 4.7188 -0.4558 140
-15.085899999999999 23.2344 2.9062 92
-3.1327999999999996 4.8242 -0.332 2
-16.9688 26.1406 4.0039 64
-13.3906 20.6094 -0.8564 247
-14.656199999999998 22.5781 4.0977 200
-14.476600000000001 22.2969 -0.3098 211
-16.1875 24.9375 5.234400000000001 98
-3.0488 4.7305 -0.9849 71
-19.7656 30.6875 0.426 191
-3.0312 4.7031 -0.8472 104
-3.0214999999999996 4.6875 -0.7119 42
-16.0938 24.9844 1.7266 120
-3.0839999999999996 4.7852 -0.5938 34
-17.0312 26.4375 2.5664 151
-3.0683999999999996 4.7617 -0.45899999999999996 243
-15.8828 24.6406 3.0762 111
-3.1504000000000003 4.8906 -0.3357 112
-15.1172 23.4531 3.5839999999999996 207
-3.1952999999999996 4.957 -0.20420000000000002 68
-15.1094 23.4375 4.2461 194
-3.1699 4.918 -0.0675 37
-14.6328 22.7031 4.7539 240
-3.0312 4.7422 -0.9849 238
-19.7188 30.8281 0.42700000000000005 110
-3.0781 4.8125 -0.8643000000000001 226
-16.0312 25.0781 1.0371 166
-3.0156 4.7148 -0.7143999999999999 103
-37.9062 59.2812 4.0898 228
-3.0723000000000003 4.8008 -0.5947 111
-15.3125 23.9375 2.3184 131
-3.0801 4.8164 -0.46340000000000003 38
-15.0078 23.4688 2.9238 132
-3.1327999999999996 4.8984 -0.3357 65
-15.125 23.6562 3.6055 48
-13.1719 20.6094 -0.8521 141
-15.031199999999998 23.5 4.25 72
-14.460899999999999 22.6094 -0.313 168
-14.585899999999999 22.8125 4.7656 215
-3.0176 4.7539 -0.9854 83
-3.0664 4.832 -0.8662000000000001 158
-15.789100000000001 24.875 1.0273 238
-3.0273000000000003 4.7695 -0.7212000000000001 149
-15.6172 24.6094 1.6924000000000001 140
-3.0625 4.8281 -0.5962 224
-17.4688 27.5312 2.6601999999999997 201
-3.0957 4.8789 -0.4683 59
-14.789100000000001 23.3125 2.8964999999999996 239
-3.1327999999999996 4.9375 -0.33759999999999996 56
-14.914100000000001 23.5 3.5762 253
-13.148399999999999 20.7188 -0.855 198
-14.726600000000001 23.2031 4.1836 51
-14.476600000000001 22.8125 -0.31489999999999996 105
-14.468800000000002 22.7969 4.7539 239
-2.998 4.7617 -0.9849 147
-15.656199999999998 24.875 0.3428 61
-3.0449 4.8359 -0.8652 86
-15.6406 24.8438 1.0234 75
-3.0273000000000003 4.8086 -0.7251000000000001 249
-15.5156 24.6406 1.6913999999999998 47
-3.0507999999999997 4.8477 -0.5977 251
-14.7969 23.5 2.2656 179
-3.0645 4.8672 -0.46630000000000005 163
-14.6797 23.3281 2.8926 243
-3.1992000000000003 5.082 -0.3467 3
-14.9844 23.8125 3.6132999999999997 162
-13.0781 20.7812 -0.8554999999999999 213
-14.1719 22.5156 4.0508 53
-14.4453 22.9531 -0.31620000000000004 247
-14.460899999999999 22.9688 4.7773 138
-2.9961 4.7969 -0.9897 83
-15.6172 25.0 0.34380000000000005 229
-3.0254000000000003 4.8438 -0.8643000000000001 159
-15.5547 24.9062 1.0234 251
-3.0702999999999996 4.918 -0.7402 11
-37.0 59.25 4.0625 75
-3.0410000000000004 4.8672 -0.5986 111
-14.7031 23.5469 2.2637 10
-3.0995999999999997 4.9648 -0.4744 41
-14.6172 23.4062 2.8945 62
-3.1445 5.0352 -0.3428 51
-14.039100000000001 22.4844 3.4043 4
-13.023399999999999 20.8438 -0.8564 122
-14.210899999999999 22.75 4.0859 141
-14.476600000000001 23.1719 -0.3186 189
-14.4219 23.0938 4.793 18
-3.002 4.8438 -0.9976 153
-15.6094 25.1719 0.3455 23
-3.0449 4.9102 -0.8745 245
-15.523399999999999 25.0469 1.0273 81
-3.0801 4.9648 -0.7461 115
-36.7188 59.25 4.0547 181
-3.0605 4.9375 -0.606 120
-14.7031 23.7031 2.2754 10
-3.0858999999999996 4.9766 -0.4746 71
-14.6406 23.6094 2.9160000000000004 206
-3.1797000000000004 5.1289 -0.34840000000000004 51
-15.6094 25.1719 3.8047000000000004 1
-12.9531 20.8906 -0.8564 141
-14.1953 22.8906 4.1016 206
-15.585899999999999 25.1406 -0.345 2
-14.4844 23.3594 4.8398 191
-19.4844 31.6562 0.4338 110
-3.0547000000000004 4.9609 -0.8818 104
-3.0469 4.9492 -0.7422 71
-36.4375 59.1875 4.043 175
-3.0547000000000004 4.9648 -0.6079 179
-14.6719 23.8438 2.2832 50
-3.1172000000000004 5.0664 -0.48219999999999996 226
-16.7031 27.1406 3.3438 235
-9.6953 15.7578 -1.0742 240
-15.4922 25.1719 3.7969 113
-12.8672 20.9062 -0.8554999999999999 25
-13.914100000000001 22.6094 4.0391 84
-14.164100000000001 23.0156 4.7578 122
-3.0625 5.0156 -1.0293 41
-19.4688 31.8906 0.436 79
-3.1483999999999996 5.1602 -0.915 136
-3.0526999999999997 5.0 -0.748 209
-36.1562 59.2188 4.0352 39
-3.0526999999999997 5.0 -0.6113000000000001 51
-16.6562 27.2812 2.6074 36
-3.1113 5.0977 -0.4841 14
-14.5781 23.8906 2.9375 112
-9.5547 15.656199999999998 -1.0645 100
-15.5547 25.4844 3.8339999999999996 79
-14.0156 22.9688 4.0977 149
-14.3203 23.4531 4.8398 164
-3.0469 5.0312 -1.0303 35
-3.1016000000000004 5.1211 -0.9067000000000001 5
-3.0566000000000004 5.0469 -0.7534000000000001 151
-15.273399999999999 25.2188 1.7128999999999999 98
-3.0645 5.0586 -0.6172 171
-16.4844 27.2344 2.5976999999999997 244
-3.0995999999999997 5.1172 -0.4851 161
-14.2578 23.5469 2.8887 227
-9.4531 15.601600000000001 -1.0586 22
-15.2578 25.1875 3.7832 26
-13.8906 22.9375 4.082 232
-14.164100000000001 23.3906 4.8125 220
-3.0742000000000003 5.1172 -1.0449 216
-19.3594 32.2188 0.4387 173
-3.082 5.1289 -0.9062 79
-3.0488 5.0742 -0.7559 61
-15.156199999999998 25.2188 1.71 124
-3.0566000000000004 5.0859 -0.6191 198
-16.5781 27.5938 2.627 210
-3.1191000000000004 5.1914 -0.491 176
-14.164100000000001 23.5625 2.8848000000000003 249
-9.3984 15.648399999999999 -1.0595999999999999 16
-14.210899999999999 23.6562 3.5449 38
-12.7344 21.1875 -0.8618000000000001 161
-13.7969 22.9688 4.0781 226
-14.0 23.2969 4.7852 175
-3.0742000000000003 5.1562 -1.0508 214
-19.3906 32.5312 0.44189999999999996 186
-3.0547000000000004 5.125 -0.7622 67
-3.0683999999999996 5.144500000000001 -0.625 102
-3.1191000000000004 5.234400000000001 -0.4939 169
-14.351600000000001 24.0781 2.9414 38
-9.3359 15.656199999999998 -1.0576 28
-15.1094 25.3438 3.7910000000000004 122
-13.7344 23.0469 4.0859 35
-13.960899999999999 23.4219 4.8008 168
-3.0586 5.171900000000001 -1.0518 219
-3.1132999999999997 5.261699999999999 -0.9258 115
-3.0645 5.1797 -0.7686 178
-14.0625 23.7812 1.6044999999999998 249
-3.0683999999999996 5.1875 -0.6289 12
-3.1426 5.3125 -0.5005 99
-15.539100000000001 26.2656 3.2031 141
-9.3047 15.726600000000001 -1.0605 121
-15.468800000000002 26.1406 3.9023000000000003 41
-12.656199999999998 21.3906 -0.8662000000000001 227
-13.460899999999999 22.75 4.0273 197
-13.976600000000001 23.625 4.832 41
-3.0898000000000003 5.261699999999999 -1.0684 24
-3.1016000000000004 5.2852 -0.9277 112
-3.0976999999999997 5.2773 -0.7812 202
-14.0781 23.9688 1.6152000000000002 255
-3.0469 5.1914 -0.6279 75
-14.093800000000002 24.0 2.2695 145
-3.1348000000000003 5.3398 -0.502 76
-15.468800000000002 26.3438 3.207 178
-9.25 15.75 -1.0595999999999999 85
-13.7969 23.5 3.5 19
-12.6328 21.5156 -0.8695999999999999 62
-13.5 23.0 4.0586 85
-13.468800000000002 22.9375 4.6836 232
-3.0898000000000003 5.3086 -1.0752 81
-3.0918 5.3086 -0.9301999999999999 9
-3.1816000000000004 5.4648 -0.8081 120
-14.0703 24.1719 1.625 174
-3.0781 5.2890999999999995 -0.6386999999999999 196
-14.0625 24.1562 2.2793 189
-3.1406 5.394500000000001 -0.5063 59
-15.375 26.4062 3.207 181
-9.1641 15.7422 -1.0576 108
-13.6953 23.5156 3.4961 42
-12.539100000000001 21.5469 -0.8687 176
-13.351600000000001 22.9375 4.0391 190
-13.4297 23.0625 4.6992 134
-3.0723000000000003 5.3203 -1.0762 188
-3.1172000000000004 5.3984000000000005 -0.9438 143
-3.1426 5.4414 -0.8027 202
-14.0781 24.375 1.6347999999999998 116
-3.1562 5.4648 -0.5117 201
-15.468800000000002 26.7812 3.2461 202
-9.1016 15.7578 -1.0556999999999999 236
-14.664100000000001 25.3906 3.7656 138
-12.531199999999998 21.7031 -0.873 172
-13.2344 22.9062 4.0273 5
-13.101600000000001 22.6875 4.6133 107
-3.1211 5.4453 -1.0996 254
-3.1523000000000003 5.5 -0.9604 240
-3.1151999999999997 5.4375 -0.8008 209
-3.1601999999999997 5.515599999999999 -0.6636 109
-3.1914 5.5703 -0.5205 209
-15.4219 26.9219 3.2558999999999996 62
-9.0469 15.7969 -1.0566 238
-14.523399999999999 25.3438 3.752 66
-13.6172 23.7812 4.1719 16
-13.0547 22.7812 4.625 5
-3.1094 5.4727 -1.1025 102
-3.1191000000000004 5.488300000000001 -0.9561 106
-3.0762 5.4102 -0.7954000000000001 93
-3.1895 5.613300000000001 -0.6738 81
-14.625 25.7344 2.4141 135
-3.1836 5.6015999999999995 -0.5225 65
-14.9453 26.2969 3.1757999999999997 234
-8.9922 15.8203 -1.0556999999999999 176
-14.414100000000001 25.375 3.748 44
-13.5469 23.8281 4.1719 138
-13.476600000000001 23.7188 4.8008 217
-3.0858999999999996 5.4727 -1.1006 116
-3.0858999999999996 5.4727 -0.9517 172
-3.1211 5.5352 -0.812 24
-33.3438 59.125 3.9452999999999996 227
-3.1797000000000004 5.636699999999999 -0.6758 242
-14.5469 25.7969 2.416 207
-7.0586 12.5156 -1.1699 119
-14.8672 26.3594 3.1757999999999997 67
-8.9297 15.8281 -1.0547 189
-14.414100000000001 25.5625 3.7676 142
-13.4375 23.8281 4.1641 247
-12.9219 22.9062 4.6289 167
-3.1504000000000003 5.6289 -0.9771 191
-3.1776999999999997 5.6797 -0.8315 84
-33.0938 59.125 3.9395 252
-5.7461 10.2656 -1.2314 161
-7.0039 12.5156 -1.168 161
-8.875 15.8672 -1.0547 102
-14.3594 25.6719 3.7773000000000003 161
-12.2344 21.8594 -0.873 31
-13.2422 23.6562 4.1289 44
-12.8672 23.0 4.6406 50
-3.6523000000000003 6.5859000000000005 -1.3203 34
-4.7891 8.6328 -1.2646 5
-32.75 59.0938 3.9276999999999997 42
-5.699199999999999 10.281199999999998 -1.2305 226
-14.531199999999998 26.2031 2.4434 59
-6.9609000000000005 12.5547 -1.1689 18
-14.1797 25.5625 3.0683999999999996 11
-8.8125 15.898399999999999 -1.0547 2
-14.156199999999998 25.5312 3.75 216
-12.148399999999999 21.9062 -0.873 104
-13.25 23.8906 4.1602 231
-12.773399999999999 23.0312 4.6367 23
-3.623 6.5898 -1.3184 30
-4.1367 7.519500000000001 -1.3027000000000002 105
-4.7227 8.5859 -1.2549 140
-32.5 59.125 3.9219 150
-5.6602 10.289100000000001 -1.2295 221
-14.468800000000002 26.3125 2.4492 52
-6.8789 12.5078 -1.1621 95
-14.1328 25.6875 3.0781 154
-8.7422 15.898399999999999 -1.0527 153
-13.6406 24.7969 3.6367000000000003 253
-13.085899999999999 23.7969 4.1328 20
-12.843800000000002 23.3438 4.6914 160
-3.5976999999999997 6.5938 -1.3174000000000001 114
-4.1133 7.5390999999999995 -1.3027000000000002 45
-4.6875 8.5938 -1.2539 134
-32.25 59.125 3.9160000000000004 186
-5.6211 10.3047 -1.2285 107
-6.8515999999999995 12.5625 -1.165 206
-14.148399999999999 25.9375 3.1016000000000004 111
-8.6875 15.9297 -1.0527 124
-13.835899999999999 25.375 3.7108999999999996 110
-13.023399999999999 23.8906 4.1406 171
-13.0469 23.9219 4.7969 34
-3.5742000000000003 6.609400000000001 -1.3174000000000001 69
-4.0664 7.515599999999999 -1.2959 132
-4.6562 8.6094 -1.2539 117
-31.9531 59.0625 3.9043 95
-5.5703 10.2969 -1.2256 184
-6.8086 12.585899999999999 -1.165 51
-14.1875 26.2344 3.1289 26
-8.6406 15.976600000000001 -1.0547 193
-13.7422 25.4062 3.7089999999999996 255
-12.0156 22.2188 -0.8798999999999999 179
-14.1406 26.1406 4.5273 24
-12.9531 23.9531 4.793 236
-3.5605 6.6289 -1.3193000000000001 92
-4.0469 7.5390999999999995 -1.2978999999999998 253
-4.6367 8.6406 -1.2559 20
-31.7188 59.0938 3.8983999999999996 157
-5.5352 10.3047 -1.2246 12
-14.656199999999998 27.3125 2.5273 137
-6.7812 12.6328 -1.167 46
-13.6094 25.3438 3.0195 89
-8.5859 15.9922 -1.0527 152
-13.6953 25.5 3.7188 103
-12.914100000000001 24.0625 4.1562 93
-12.914100000000001 24.0469 4.8047 183
-3.5391000000000004 6.644500000000001 -1.3203 25
-4.0117 7.5312 -1.2938999999999998 6
-4.6016 8.6406 -1.2539 145
-31.4844 59.0938 3.8926 218
-5.5 10.3281 -1.2246 218
-14.6719 27.5469 2.5449 184
-6.7148 12.6094 -1.1631 9
-13.593800000000002 25.5156 3.0332 243
-8.5234 16.0 -1.0527 66
-13.875 26.0469 3.7910000000000004 146
-11.875 22.2969 -0.8798999999999999 62
-13.656199999999998 25.6406 4.4219 67
-12.9922 24.3906 -0.3223 1
-3.5098000000000003 6.6523 -1.3184 254
-3.9863 7.5547 -1.2959 165
-4.5625 8.6406 -1.252 205
-31.1875 59.125 3.8867000000000003 208
-5.4648 10.351600000000001 -1.2256 105
-6.667999999999999 12.6406 -1.1631 224
-13.781199999999998 26.1094 3.0976999999999997 194
-8.4375 15.9922 -1.0498 29
-13.6406 25.8438 3.7539 10
-13.523399999999999 25.625 4.4141 202
-12.8672 24.375 -0.3215 36
-13.0547 24.7344 4.9258 246
-3.4805 6.6523 -1.3163999999999998 47
-3.9589999999999996 7.5664 -1.2959 159
-4.5273 8.6562 -1.251 74
-30.9062 59.0625 3.877 185
-5.417999999999999 10.351600000000001 -1.2236 236
-6.6289 12.664100000000001 -1.1641 13
-13.851600000000001 26.4688 3.1348000000000003 146
-8.4141 16.0938 -1.0537 103
-13.601600000000001 26.0 3.7676 77
-11.8047 22.5469 -0.8872 34
-13.3125 25.4531 4.3711 62
-3.4531 6.6523 -1.3144999999999998 45
-3.9257999999999997 7.5664 -1.2930000000000001 201
-4.5039 8.6797 -1.252 226
-30.6406 59.0312 3.8672000000000004 96
-5.3711 10.343800000000002 -1.2207 6
-6.578099999999999 12.6719 -1.1621 156
-13.6953 26.3906 3.1191000000000004 9
-8.3516 16.0938 -1.0527 239
-13.4922 26.0 3.7617000000000003 11
-12.6172 24.3125 -0.3196 149
-13.398399999999999 25.8125 5.1211 197
-3.4395 6.6836 -1.3184 110
-3.8983999999999996 7.5703 -1.2919999999999998 247
-4.4844 8.7109 -1.2549 89
-30.4219 59.0938 3.8651999999999997 117
-5.3359000000000005 10.3594 -1.2207 75
-6.5273 12.6719 -1.1611 206
-12.906199999999998 25.0781 2.9589999999999996 130
-8.3125 16.1562 -1.0547 126
-13.4297 26.0781 3.7676 243
-13.0156 25.2812 4.332 31
-12.5625 24.3906 -0.3201 253
-13.343800000000002 25.9219 5.1328 92
-3.4141000000000004 6.6953 -1.3174000000000001 213
-3.8632999999999997 7.574199999999999 -1.29 52
-4.4375 8.7031 -1.251 27
-30.1094 59.0312 3.8535000000000004 162
-5.296900000000001 10.3828 -1.2207 248
-6.4688 12.6875 -1.1592 208
-12.835899999999999 25.1719 2.9648000000000003 107
-8.25 16.1719 -1.0537 85
-13.125 25.7344 3.7108999999999996 125
-12.8125 25.125 4.293 232
-13.2031 25.8906 5.1172 111
-3.3848000000000003 6.6953 -1.3154 83
-3.8418 7.5977 -1.2919999999999998 200
-4.4062 8.7188 -1.251 92
-29.8594 59.0312 3.8476999999999997 92
-5.2539 10.398399999999999 -1.2197 103
-6.421900000000001 12.7031 -1.1592 30
-13.476600000000001 26.6562 3.1348000000000003 123
-8.1641 16.1406 -1.0498 25
-13.2344 26.1875 3.7676 67
-12.8047 25.3281 4.3203 105
-13.1719 26.0469 5.140599999999999 163
-3.3535000000000004 6.6875 -1.3115 108
-3.8164 7.613300000000001 -1.2919999999999998 28
-4.3789 8.7266 -1.251 175
-29.5938 59.0312 3.8398000000000003 175
-5.2188 10.406199999999998 -1.2187999999999999 32
-6.375 12.710899999999999 -1.1582 176
-12.531199999999998 25.0 2.9336 143
-8.1094 16.1719 -1.0498 49
-12.656199999999998 25.25 3.627 190
-12.710899999999999 25.3438 4.3164 210
-12.9922 25.9219 5.1055 202
-3.3438 6.7227 -1.3163999999999998 162
-3.7773000000000003 7.5977 -1.2871000000000001 199
-4.3633 8.7734 -1.2549 93
-29.3438 59.0 3.832 201
-5.175800000000001 10.406199999999998 -1.2168 192
-6.324199999999999 12.718800000000002 -1.1562000000000001 173
-12.468800000000002 25.0781 2.9395 166
-8.0547 16.2031 -1.0498 129
-12.6328 25.4062 3.6426 255
-12.773399999999999 25.6875 4.3672 171
-12.914100000000001 25.9688 5.1055 11
-3.3145 6.7265999999999995 -1.3144999999999998 194
-3.752 7.609400000000001 -1.2871000000000001 107
-4.3203 8.7656 -1.252 238
-29.0781 59.0 3.8242000000000003 238
-5.1289 10.406199999999998 -1.2148 223
-6.269500000000001 12.718800000000002 -1.1543 180
-12.7031 25.7656 3.0137 82
-8.0078 16.25 -1.0508 18
-12.593800000000002 25.5469 3.6582 169
-11.718800000000002 23.7812 -0.9238 92
-12.468800000000002 25.2969 4.2969 61
-3.2969 6.7461 -1.3163999999999998 189
-3.7305 7.6328 -1.2891 101
-4.2891 8.7734 -1.251 185
-28.8438 59.0 3.8183999999999996 193
-5.0977 10.4297 -1.2158 175
-6.2265999999999995 12.7422 -1.1543 160
-12.6094 25.7969 3.0137 72
-7.9453 16.25 -1.0498 10
-12.539100000000001 25.6562 3.668 75
-12.156199999999998 24.875 4.2148 115
-3.2637 6.7422 -1.3135 234
-3.6992000000000003 7.644500000000001 -1.2881 176
-4.2539 8.7891 -1.251 93
-28.5625 59.0 3.8125 233
-5.0508 10.4375 -1.2139 200
-6.167999999999999 12.7422 -1.1523 60
-12.4922 25.8125 3.0098000000000003 208
-7.875 16.2656 -1.0488 159
-12.375 25.5625 3.6483999999999996 118
-11.4844 23.7188 -0.9185 46
-12.0625 24.9219 4.2148 62
-3.2344 6.7422 -1.3115 32
-3.6757999999999997 7.6602 -1.2891 102
-4.2266 8.8125 -1.252 151
-28.2969 58.9688 3.8026999999999997 127
-5.0039 10.4297 -1.2109 255
-12.101600000000001 25.2188 2.2812 86
-6.1172 12.75 -1.1514 242
-13.023399999999999 27.1406 3.1601999999999997 219
-7.824199999999999 16.3125 -1.0498 146
-12.281199999999998 25.6094 3.6464999999999996 214
-12.4531 25.9531 4.3828 151
-12.1875 25.3906 4.9609 74
-3.2108999999999996 6.75 -1.3105000000000002 190
-3.6504000000000003 7.671900000000001 -1.2891 158
-4.2031 8.8359 -1.2539 195
-28.0781 59.0312 3.8007999999999997 24
-4.9727 10.460899999999999 -1.2129 143
-12.0078 25.25 2.2793 77
-6.0898 12.8047 -1.1543 254
-12.9219 27.1562 3.1562 110
-7.7578 16.3125 -1.0479 173
-12.125 25.4844 3.625 32
-12.093800000000002 25.4375 4.957 118
-3.2012 6.7852 -1.3154 147
-3.6113 7.6602 -1.2852000000000001 234
-4.1719 8.8438 -1.2529000000000001 193
-27.8125 58.9688 3.7910000000000004 175
-4.9414 10.476600000000001 -1.2129 171
-11.875 25.1719 2.2695 60
-6.0234000000000005 12.773399999999999 -1.1494 65
-12.1719 25.8125 2.9941000000000004 228
-7.6953 16.3125 -1.0469 206
-12.023399999999999 25.4844 3.6191000000000004 25
-12.2344 25.9375 4.3672 205
-3.1699 6.7890999999999995 -1.3144999999999998 54
-3.5938 7.6953 -1.2881 87
-4.1328 8.8438 -1.25 114
-27.5469 58.9688 3.7851999999999997 70
-4.8906 10.468800000000002 -1.21 58
-5.9727 12.789100000000001 -1.1494 68
-12.093800000000002 25.9062 3.0 93
-7.6289 16.3438 -1.0469 165
-11.875 25.4375 3.6055 66
-11.0547 23.6719 -0.9106000000000001 101
-12.1719 26.0781 4.3828 180
-3.1426 6.792999999999999 -1.3125 127
-3.5605 7.6953 -1.2861000000000002 34
-4.0977 8.8516 -1.249 151
-27.2812 58.9688 3.7773000000000003 86
-4.8594 10.5 -1.2119 31
-5.921900000000001 12.7969 -1.1484 236
-7.578099999999999 16.375 -1.0469 111
-11.7656 25.4375 3.5995999999999997 226
-10.976600000000001 23.7188 -0.9106000000000001 178
-12.0703 26.0938 4.3789 114
-3.1132999999999997 6.7852 -1.3096 130
-3.5351999999999997 7.707000000000001 -1.2861000000000002 77
-4.0664 8.8672 -1.249 65
-27.0625 59.0 3.7733999999999996 201
-4.8125 10.4922 -1.209 93
-5.886699999999999 12.8281 -1.1494 253
-11.8281 25.7812 2.9766000000000004 138
-7.5273 16.4219 -1.0479 208
