# .PCD v0.7 - Point Cloud Data file format
VERSION 0.7
FIELDS x y z intensity
SIZE 4 4 4 4
TYPE F F F F
COUNT 1 1 1 1
WIDTH 1251
HEIGHT 1
VIEWPOINT 0 0 0 1 0 0 0
POINTS 1251
DATA ascii
12.6875 -0.8003 1.9316 148
12.8125 -0.8086 -0.1493 132
12.9375 -0.8159000000000001 2.2773 4
9.4062 -0.625 -1.6553 253
12.8828 -0.856 0.1501 5
10.6719 -0.7090000000000001 -1.625 238
12.7969 -0.8495999999999999 0.446 186
12.531199999999998 -0.8325 -1.6103999999999998 98
12.601600000000001 -0.8369 0.7319 43
12.6094 -0.8373999999999999 -1.3232 25
12.585899999999999 -0.8359000000000001 1.0264 227
12.773399999999999 -0.8486 -1.042 249
12.5078 -0.8311 1.3135 193
12.7344 -0.8462000000000001 -0.7402 81
12.664100000000001 -0.8408 1.6269999999999998 201
12.6875 -0.8428 -0.4424 144
12.6719 -0.8418000000000001 1.9306999999999999 181
12.6172 -0.8384 -0.147 153
12.9375 -0.8593999999999999 2.2793 141
9.3828 -0.6543000000000001 -1.6513999999999998 3
12.75 -0.8892 0.14859999999999998 231
10.718800000000002 -0.7476 -1.6318000000000001 78
12.6953 -0.8856999999999999 0.4426 123
12.523399999999999 -0.8734999999999999 -1.6094 139
12.585899999999999 -0.8779 0.7314 46
12.6094 -0.8794 -1.3241999999999998 169
12.593800000000002 -0.8789 1.0283 58
12.781199999999998 -0.8911 -1.043 245
12.5156 -0.8726 1.3135 80
12.7969 -0.8926000000000001 -0.7437 19
12.664100000000001 -0.8833 1.6279 226
12.8125 -0.8936 -0.4468 5
12.6719 -0.8837999999999999 1.9306999999999999 60
12.7656 -0.8901 -0.1487 116
12.906199999999998 -0.9004000000000001 2.2734 158
9.375 -0.6884999999999999 -1.6494 235
12.875 -0.9458 0.1501 74
10.710899999999999 -0.7866 -1.6309 232
12.773399999999999 -0.938 0.44530000000000003 148
12.531199999999998 -0.9198999999999999 -1.6103999999999998 191
12.5781 -0.9233 0.731 65
12.6094 -0.9258 -1.3241999999999998 116
12.601600000000001 -0.9253 1.0283 155
12.6797 -0.9312 -1.0352 51
12.5078 -0.9185 1.3135 105
12.656199999999998 -0.9292 -0.7354 127
12.656199999999998 -0.9297 1.6269999999999998 78
12.8047 -0.9404 -0.4468 217
12.6875 -0.9316 1.9336000000000002 130
12.773399999999999 -0.9384999999999999 -0.1489 5
12.898399999999999 -0.9473 2.2734 59
9.3672 -0.7206999999999999 -1.6494 211
12.8047 -0.9854 0.1493 145
10.718800000000002 -0.8247 -1.6328 225
12.7969 -0.9849 0.4465 77
12.5547 -0.9658 -1.6143 103
12.585899999999999 -0.9688 0.7319 5
12.593800000000002 -0.9692000000000001 -1.3232 234
12.593800000000002 -0.9688 1.0283 214
12.8203 -0.9863 -1.0469 89
12.523399999999999 -0.9639 1.3154 123
12.7969 -0.9843999999999999 -0.7441 145
12.6406 -0.9731000000000001 1.626 8
12.7656 -0.9823999999999999 -0.44530000000000003 65
12.6797 -0.9761 1.9336000000000002 30
12.6875 -0.9761 -0.1478 174
12.898399999999999 -0.9926999999999999 2.2734 166
9.3828 -0.7548999999999999 -1.6522999999999999 16
12.6875 -1.0205 0.1479 173
10.710899999999999 -0.8618000000000001 -1.6318000000000001 249
12.625 -1.0156 0.4404 237
12.5469 -1.0098 -1.6143 6
12.593800000000002 -1.0127 0.7323999999999999 54
12.593800000000002 -1.0137 -1.3232 93
12.5781 -1.0127 1.0273 240
12.75 -1.0264 -1.041 45
12.5156 -1.0068000000000001 1.3154 22
12.781199999999998 -1.0283 -0.7437 162
12.656199999999998 -1.0186 1.6279 166
12.8203 -1.0312000000000001 -0.4473 110
12.6719 -1.0195 1.9316 145
12.773399999999999 -1.0283 -0.1489 142
12.906199999999998 -1.0381 2.2754 119
9.1406 -0.7676000000000001 -1.6094 105
12.8672 -1.0801 0.1501 220
10.726600000000001 -0.9009 -1.6347999999999998 114
12.7578 -1.0713 0.44530000000000003 18
12.5469 -1.0537 -1.6143 162
12.593800000000002 -1.0576 0.7329000000000001 208
12.6094 -1.0586 -1.3252000000000002 99
12.5781 -1.0566 1.0273 135
12.7578 -1.0713 -1.042 50
12.5 -1.0498 1.3144999999999998 51
12.710899999999999 -1.0674 -0.7393000000000001 105
12.664100000000001 -1.0635 1.6288999999999998 54
12.656199999999998 -1.0625 -0.44170000000000004 107
12.664100000000001 -1.0635 1.9306999999999999 92
12.6172 -1.0595999999999999 -0.1472 33
12.906199999999998 -1.084 2.2773 126
8.7031 -0.7612000000000001 -1.5332 34
12.718800000000002 -1.1123 0.1484 64
10.7344 -0.9390000000000001 -1.6366999999999998 193
12.7031 -1.1113 0.4434 124
12.531199999999998 -1.0967 -1.6122999999999998 33
12.585899999999999 -1.1006 0.7323999999999999 153
12.6172 -1.1045 -1.3271000000000002 50
12.585899999999999 -1.1016 1.0283 213
12.8047 -1.1201 -1.0469 85
12.5078 -1.0937999999999999 1.3144999999999998 169
12.7969 -1.1201 -0.7451000000000001 120
12.656199999999998 -1.1074 1.6288999999999998 133
12.8281 -1.1220999999999999 -0.44780000000000003 91
12.664100000000001 -1.1084 1.9316 63
12.7344 -1.1143 -0.14859999999999998 9
12.906199999999998 -1.1289 2.2773 252
8.6719 -0.7896 -1.5283000000000002 129
12.8594 -1.1699 0.1501 176
10.75 -0.978 -1.6387 204
12.726600000000001 -1.1582 0.4446 196
12.5469 -1.1426 -1.6152000000000002 150
12.5781 -1.1445 0.7319 149
12.6094 -1.1475 -1.3262 248
12.593800000000002 -1.1465 1.0293 132
12.726600000000001 -1.1582 -1.04 52
12.5078 -1.1387 1.3154 139
12.7656 -1.1621 -0.7432 146
12.6406 -1.1504 1.6269999999999998 66
12.875 -1.1719 -0.4497 236
12.6719 -1.1533 1.9336000000000002 151
12.8047 -1.166 -0.1495 169
12.8906 -1.1729 2.2734 122
8.6875 -0.8208 -1.5312000000000001 64
12.8906 -1.2178 0.1505 206
10.7656 -1.0176 -1.6416 110
12.7969 -1.21 0.447 207
12.5625 -1.1875 -1.6172 254
12.5781 -1.1895 0.7323999999999999 147
12.601600000000001 -1.1914 -1.3252000000000002 179
12.585899999999999 -1.1895 1.0293 245
12.7344 -1.2031 -1.041 9
12.5156 -1.1836 1.3163999999999998 46
12.718800000000002 -1.2021 -0.7406999999999999 18
12.6406 -1.1953 1.6279 86
12.726600000000001 -1.2031 -0.4448 146
12.6797 -1.1982 1.9355000000000002 48
12.6953 -1.2002 -0.1483 167
12.8906 -1.2187999999999999 2.2754 60
8.6875 -0.8521 -1.5322 166
12.7344 -1.248 0.1487 160
10.7422 -1.0527 -1.6387 128
12.6953 -1.2451 0.44380000000000003 220
12.5547 -1.2314 -1.6172 190
12.585899999999999 -1.2334 0.7329000000000001 56
12.5703 -1.2324 -1.3232 240
12.5781 -1.2334 1.0283 29
12.6328 -1.2393 -1.0332 42
12.5156 -1.2275 1.3174000000000001 111
12.6953 -1.2451 -0.7397 241
12.648399999999999 -1.2402 1.6299000000000001 50
12.718800000000002 -1.2470999999999999 -0.4446 56
12.6719 -1.2422 1.9346 243
12.718800000000002 -1.2470999999999999 -0.14859999999999998 122
12.898399999999999 -1.2646 2.2773 60
8.7031 -0.8837999999999999 -1.5341999999999998 218
12.718800000000002 -1.2919999999999998 0.14859999999999998 179
10.75 -1.0918 -1.6416 213
12.7031 -1.29 0.44409999999999994 239
12.539100000000001 -1.2734 -1.6152000000000002 69
12.585899999999999 -1.2783 0.7334 237
12.5781 -1.2773 -1.3241999999999998 233
12.5781 -1.2773 1.0293 253
12.5625 -1.2764 -1.0283 235
12.5 -1.2695 1.3163999999999998 118
12.5781 -1.2773 -0.7329000000000001 190
12.648399999999999 -1.2852000000000001 1.6309 161
12.585899999999999 -1.2783 -0.4399 50
12.656199999999998 -1.2861000000000002 1.9336000000000002 175
12.593800000000002 -1.2793 -0.1471 120
12.8672 -1.3066 2.2734 182
9.2344 -0.9702 -1.6299000000000001 60
12.6172 -1.3262 0.1475 81
10.75 -1.1299 -1.6416 78
12.6328 -1.3281 0.44189999999999996 215
12.531199999999998 -1.3174000000000001 -1.6152000000000002 96
12.5703 -1.3213 0.7329000000000001 29
12.5781 -1.3213 -1.3241999999999998 222
12.585899999999999 -1.3232 1.0303 95
12.5703 -1.3213 -1.0293 105
12.5 -1.3135 1.3163999999999998 165
12.5703 -1.3213 -0.7323999999999999 6
12.656199999999998 -1.3300999999999998 1.6318000000000001 211
12.585899999999999 -1.3232 -0.44020000000000004 93
12.656199999999998 -1.3300999999999998 1.9336000000000002 144
12.5625 -1.3203 -0.1469 40
12.789100000000001 -1.3437999999999999 2.2598 161
9.3828 -1.0176 -1.6562000000000001 80
12.585899999999999 -1.3652000000000002 0.1471 131
10.7656 -1.167 -1.6444999999999999 3
12.5781 -1.3643 0.4399 208
12.5469 -1.3603999999999998 -1.6181999999999999 67
12.5625 -1.3622999999999998 0.7329000000000001 242
12.5625 -1.3622999999999998 -1.3232 59
12.585899999999999 -1.3643 1.0303 211
12.5781 -1.3643 -1.0303 232
12.5 -1.3555000000000001 1.3174000000000001 232
12.5625 -1.3622999999999998 -0.7323999999999999 247
12.648399999999999 -1.3721 1.6309 49
12.593800000000002 -1.3662 -0.4404 167
12.6719 -1.374 1.9365 12
12.5547 -1.3613 -0.1467 184
12.773399999999999 -1.3857 2.2578 104
9.4141 -1.0527 -1.6631 203
12.5703 -1.4062000000000001 0.1471 122
10.7656 -1.2031 -1.6455000000000002 240
12.5781 -1.4072 0.44020000000000004 191
12.539100000000001 -1.4022999999999999 -1.6172 227
12.5703 -1.4053 0.7334 217
12.5625 -1.4043 -1.3241999999999998 5
12.5703 -1.4062000000000001 1.0303 119
12.5781 -1.4062000000000001 -1.0303 86
12.5078 -1.3984 1.3184 184
12.5625 -1.4043 -0.7329000000000001 49
12.6328 -1.4131 1.6299000000000001 119
12.585899999999999 -1.4072 -0.4404 94
12.6719 -1.4169999999999998 1.9375 236
12.5703 -1.4062000000000001 -0.1471 150
12.773399999999999 -1.4287 2.2598 61
9.4219 -1.0889 -1.665 197
12.5703 -1.4521000000000002 0.1471 102
10.7578 -1.2422 -1.6444999999999999 224
12.5781 -1.4531 0.44020000000000004 79
12.539100000000001 -1.4491999999999998 -1.6181999999999999 115
12.585899999999999 -1.4541 0.7343999999999999 193
12.5703 -1.4521000000000002 -1.3252000000000002 36
12.5547 -1.4512 1.0293 100
12.5703 -1.4531 -1.0303 194
12.5078 -1.4453 1.3193000000000001 138
12.5703 -1.4521000000000002 -0.7339 147
12.6406 -1.46 1.6309 59
12.5781 -1.4531 -0.44020000000000004 209
12.6719 -1.4638999999999998 1.9385 151
12.5703 -1.4521000000000002 -0.1471 170
12.8281 -1.4813999999999998 2.2695 3
9.4375 -1.124 -1.6680000000000001 57
12.5781 -1.4971 0.1472 172
10.773399999999999 -1.2832 -1.6484 220
12.5625 -1.4961000000000002 0.4399 89
12.539100000000001 -1.4931999999999999 -1.6191 105
12.5703 -1.4971 0.7339 107
12.5703 -1.4971 -1.3262 98
12.5781 -1.4980000000000002 1.0312000000000001 249
12.5625 -1.4950999999999999 -1.0293 250
12.5 -1.4883000000000002 1.3184 112
12.5703 -1.4961000000000002 -0.7339 240
12.656199999999998 -1.5068000000000001 1.6338 115
12.5703 -1.4971 -0.4404 93
12.656199999999998 -1.5068000000000001 1.9375 25
12.5703 -1.4961000000000002 -0.1471 86
12.8906 -1.5352000000000001 2.2812 113
9.4219 -1.1543 -1.6669999999999998 79
12.585899999999999 -1.541 0.14730000000000001 96
10.8047 -1.3222999999999998 -1.6533000000000002 255
12.5781 -1.54 0.4407 120
12.523399999999999 -1.5332 -1.6172 3
12.5703 -1.5391 0.7343999999999999 222
12.5781 -1.5391 -1.3271000000000002 98
12.5781 -1.54 1.0312000000000001 193
12.5625 -1.5381 -1.0303 164
12.5 -1.5303 1.3184 26
12.5703 -1.5381 -0.7339 17
12.656199999999998 -1.5488 1.6338 161
12.5781 -1.54 -0.4407 66
12.656199999999998 -1.5497999999999998 1.9375 244
12.5547 -1.5371000000000001 -0.147 202
12.8828 -1.5771000000000002 2.2812 210
9.4062 -1.1836 -1.665 133
12.5625 -1.5800999999999998 0.1472 89
10.781199999999998 -1.3563999999999998 -1.6503999999999999 211
12.5781 -1.5830000000000002 0.4409 217
12.523399999999999 -1.5752000000000002 -1.6181999999999999 162
12.5625 -1.5800999999999998 0.7339 124
12.5625 -1.5800999999999998 -1.3262 242
12.5703 -1.5811000000000002 1.0312000000000001 53
12.5781 -1.5819999999999999 -1.0322 22
12.5 -1.5722999999999998 1.3193000000000001 195
12.5547 -1.5800999999999998 -0.7339 125
12.6406 -1.5897999999999999 1.6328 246
12.5781 -1.5819999999999999 -0.4409 192
12.664100000000001 -1.5928 1.9394999999999998 56
12.5547 -1.5791 -0.1471 111
12.9219 -1.625 2.2891 199
9.4375 -1.2246 -1.6709 168
12.5625 -1.6299000000000001 0.14730000000000001 185
10.781199999999998 -1.3984 -1.6513999999999998 216
12.5781 -1.6309 0.4409 161
12.531199999999998 -1.626 -1.6200999999999999 3
12.5625 -1.6299000000000001 0.7343999999999999 240
12.5625 -1.6288999999999998 -1.3262 27
12.5703 -1.6309 1.0322 71
12.5703 -1.6309 -1.0322 127
12.5 -1.6211000000000002 1.3203 131
12.5625 -1.6299000000000001 -0.7343999999999999 156
12.6328 -1.6387 1.6328 246
12.5703 -1.6299000000000001 -0.4407 160
12.6719 -1.6436000000000002 1.9424000000000001 189
12.5703 -1.6299000000000001 -0.14730000000000001 230
12.914100000000001 -1.6747999999999998 2.2891 238
9.4531 -1.2588 -1.6738 115
12.5625 -1.6738 0.14730000000000001 174
10.773399999999999 -1.4355000000000002 -1.6503999999999999 71
12.5703 -1.6747999999999998 0.4409 16
12.5469 -1.6719 -1.6230000000000002 213
12.5703 -1.6747999999999998 0.7354 113
12.5703 -1.6747999999999998 -1.3281 23
12.5547 -1.6728999999999998 1.0312000000000001 240
12.5703 -1.6747999999999998 -1.0322 16
12.5 -1.666 1.3213 180
12.5703 -1.6758000000000002 -0.7354 18
12.6406 -1.6836000000000002 1.6347999999999998 177
12.5625 -1.6738 -0.4407 90
12.648399999999999 -1.6846 1.9385 41
12.5625 -1.6738 -0.14730000000000001 227
12.898399999999999 -1.7187999999999999 2.2871 181
9.4609 -1.29 -1.6758000000000002 186
12.5781 -1.7168 0.1476 42
10.781199999999998 -1.4716999999999998 -1.6533000000000002 21
12.5625 -1.7138999999999998 0.4409 148
12.523399999999999 -1.709 -1.6211000000000002 190
12.5703 -1.7158000000000002 0.7358 81
12.5703 -1.7147999999999999 -1.3291 159
12.5703 -1.7147999999999999 1.0322 160
12.5547 -1.7128999999999999 -1.0312000000000001 192
12.4922 -1.7041 1.3203 176
12.5703 -1.7158000000000002 -0.7354 164
12.648399999999999 -1.7266 1.6366999999999998 226
12.5547 -1.7138999999999998 -0.4407 10
12.6328 -1.7236000000000002 1.9375 125
12.5625 -1.7138999999999998 -0.14730000000000001 119
12.906199999999998 -1.7607 2.2891 82
9.4453 -1.3203 -1.6738 194
12.5781 -1.7588 0.1476 23
10.7969 -1.5097999999999998 -1.6562000000000001 93
12.5547 -1.7559 0.4409 232
12.5078 -1.749 -1.6191 173
12.5625 -1.7568000000000001 0.7354 218
12.5781 -1.7588 -1.3300999999999998 126
12.5625 -1.7568000000000001 1.0322 100
12.5547 -1.7559 -1.0322 238
12.4844 -1.7450999999999999 1.3203 109
12.5469 -1.7549000000000001 -0.7349 63
12.648399999999999 -1.7694999999999999 1.6377000000000002 82
12.5703 -1.7578 -0.4414 254
12.6328 -1.7666 1.9394999999999998 246
12.5547 -1.7549000000000001 -0.14730000000000001 71
12.8906 -1.8027000000000002 2.2891 172
9.4375 -1.3584 -1.6738 239
12.5547 -1.8075999999999999 0.1475 192
10.7969 -1.5537 -1.6572 127
12.5703 -1.8096 0.44170000000000004 210
12.5078 -1.7997999999999998 -1.6200999999999999 177
12.5547 -1.8075999999999999 0.7354 14
12.5547 -1.8066 -1.3281 125
12.5625 -1.8086000000000002 1.0332 230
12.5547 -1.8075999999999999 -1.0332 78
12.4844 -1.7969 1.3213 95
12.5469 -1.8056999999999999 -0.7349 7
12.6406 -1.8193000000000001 1.6377000000000002 98
12.5781 -1.8105000000000002 -0.4421 143
12.625 -1.8174000000000001 1.9394999999999998 118
12.5547 -1.8066 -0.14730000000000001 193
12.906199999999998 -1.8574000000000002 2.293 247
9.4453 -1.3944999999999999 -1.6758000000000002 28
12.5625 -1.8544999999999998 0.1476 33
10.773399999999999 -1.5908000000000002 -1.6543 138
12.5703 -1.8563999999999998 0.44189999999999996 128
12.523399999999999 -1.8486000000000002 -1.6221 115
12.5547 -1.8535 0.7358 137
12.5547 -1.8535 -1.3291 107
12.5625 -1.8555000000000001 1.0342 144
12.5547 -1.8544999999999998 -1.0332 48
12.4844 -1.8437999999999999 1.3213 23
12.5547 -1.8535 -0.7354 242
12.6328 -1.8652000000000002 1.6366999999999998 54
12.5625 -1.8555000000000001 -0.44170000000000004 27
12.6406 -1.8662 1.9413999999999998 163
12.5625 -1.8555000000000001 -0.1476 193
12.906199999999998 -1.9053 2.293 211
9.4688 -1.4306999999999999 -1.6816 42
12.5625 -1.8975 0.1477 254
10.781199999999998 -1.6288999999999998 -1.6562000000000001 241
12.5547 -1.8965 0.44170000000000004 91
12.531199999999998 -1.8936000000000002 -1.625 141
12.5703 -1.8994 0.7373000000000001 166
12.5547 -1.8965 -1.3300999999999998 188
12.5625 -1.8975 1.0342 16
12.5547 -1.8965 -1.0332 222
12.4922 -1.8877000000000002 1.3232 18
12.5547 -1.8965 -0.7363 3
12.6328 -1.9082 1.6377000000000002 27
12.5469 -1.8955000000000002 -0.4414 160
12.6172 -1.9053 1.9385 200
12.5703 -1.8984 -0.1477 30
12.898399999999999 -1.9482 2.293 171
9.4688 -1.4638999999999998 -1.6825999999999999 251
12.5781 -1.9453 0.1479 202
10.781199999999998 -1.6669999999999998 -1.6572 174
12.5625 -1.9424000000000001 0.4421 155
12.539100000000001 -1.9385 -1.626 63
12.5625 -1.9424000000000001 0.7368000000000001 8
12.5625 -1.9424000000000001 -1.3311000000000002 254
12.5625 -1.9424000000000001 1.0352 159
12.5469 -1.9394999999999998 -1.0332 7
12.4844 -1.9306999999999999 1.3232 38
12.5547 -1.9413999999999998 -0.7363 222
12.648399999999999 -1.9561000000000002 1.6406 211
12.5547 -1.9413999999999998 -0.44189999999999996 36
12.6094 -1.9491999999999998 1.9394999999999998 96
12.5547 -1.9413999999999998 -0.1477 100
12.898399999999999 -1.9941 2.293 216
9.4688 -1.4941 -1.6825999999999999 17
12.5781 -1.9853999999999998 0.1481 154
10.789100000000001 -1.7031 -1.6591999999999998 241
12.5625 -1.9824000000000002 0.4424 117
12.531199999999998 -1.9775 -1.626 78
12.5625 -1.9834 0.7373000000000001 166
12.5703 -1.9834 -1.3330000000000002 237
12.5625 -1.9824000000000002 1.0352 58
12.539100000000001 -1.9794999999999998 -1.0332 91
12.4844 -1.9707 1.3232 86
12.5469 -1.9805000000000001 -0.7363 121
12.656199999999998 -1.9980000000000002 1.6436000000000002 208
12.5547 -1.9813999999999998 -0.4421 86
12.6172 -1.9912 1.9413999999999998 197
12.539100000000001 -1.9794999999999998 -0.1476 26
12.914100000000001 -2.0391 2.2988 168
9.4609 -1.5253999999999999 -1.6816 193
12.5625 -2.0254 0.1478 119
10.8047 -1.7422 -1.6621000000000001 113
12.5703 -2.0273 0.4429 50
12.539100000000001 -2.0215 -1.6288999999999998 244
12.5469 -2.0234 0.7368000000000001 85
12.5625 -2.0254 -1.3330000000000002 4
12.5781 -2.0273 1.0371 171
12.5469 -2.0234 -1.0342 104
12.4844 -2.0137 1.3241999999999998 38
12.539100000000001 -2.0215 -0.7363 107
12.625 -2.0371 1.6396000000000002 81
12.5703 -2.0273 -0.4429 200
12.6172 -2.0352 1.9424000000000001 99
12.5547 -2.0234 -0.1478 33
12.968800000000002 -2.0898 2.3086 110
9.4609 -1.5635 -1.6836000000000002 40
12.5469 -2.0723 0.1478 42
10.7969 -1.7841999999999998 -1.6621000000000001 191
12.5625 -2.0762 0.4429 61
12.5469 -2.0723 -1.6309 33
12.5547 -2.0742 0.7378 7
12.5547 -2.0742 -1.3330000000000002 77
12.5547 -2.0742 1.0361 83
12.5469 -2.0723 -1.0352 98
12.4844 -2.0625 1.3252000000000002 59
12.539100000000001 -2.0703 -0.7368000000000001 181
12.6328 -2.0859 1.6406 36
12.5703 -2.0762 -0.44310000000000005 155
12.6172 -2.084 1.9443000000000001 253
12.5547 -2.0742 -0.1479 171
12.9453 -2.1387 2.3066 159
9.4688 -1.5986000000000002 -1.6855000000000002 141
12.5547 -2.1191 0.1479 51
10.7969 -1.8232 -1.6641 179
12.5469 -2.1172 0.4426 120
12.5547 -2.1191 -1.6318000000000001 27
12.5547 -2.1191 0.7383 213
12.5547 -2.1191 -1.3330000000000002 53
12.5625 -2.1191 1.0371 211
12.539100000000001 -2.1152 -1.0352 119
12.4922 -2.1094 1.3271000000000002 25
12.539100000000001 -2.1172 -0.7373000000000001 161
12.6406 -2.1328 1.6436000000000002 48
12.539100000000001 -2.1152 -0.4421 26
12.6094 -2.1289 1.9434 90
12.5625 -2.1191 -0.1481 177
12.8906 -2.1758 2.2969 79
9.5078 -1.6387 -1.6943000000000001 80
12.5547 -2.1641 0.1481 252
10.8281 -1.8662 -1.6688999999999998 56
12.5469 -2.1621 0.4429 174
12.539100000000001 -2.1621 -1.6318000000000001 198
12.5625 -2.166 0.7387999999999999 226
12.5625 -2.166 -1.335 87
12.5547 -2.1641 1.0371 245
12.531199999999998 -2.1602 -1.0352 150
12.4922 -2.1523 1.3271000000000002 155
12.5469 -2.1621 -0.7378 136
12.625 -2.1758 1.6425999999999998 90
12.5625 -2.166 -0.4434 207
12.6094 -2.1738 1.9443000000000001 178
12.5469 -2.1621 -0.1479 47
12.906199999999998 -2.2246 2.3008 61
9.4844 -1.6688999999999998 -1.6904 231
12.5547 -2.209 0.1482 188
10.8203 -1.9033000000000002 -1.6688999999999998 193
12.5469 -2.207 0.44310000000000005 137
12.539100000000001 -2.207 -1.6318000000000001 118
12.5469 -2.207 0.7383 14
12.5703 -2.2109 -1.3369 18
12.5703 -2.2129 1.0391 3
12.531199999999998 -2.2051 -1.0361 98
12.476600000000001 -2.1953 1.3271000000000002 10
12.539100000000001 -2.2051 -0.7378 9
12.6328 -2.2227 1.6444999999999999 95
12.5625 -2.2109 -0.4436 173
12.6094 -2.2188 1.9453 143
12.5469 -2.207 -0.1481 217
12.906199999999998 -2.2715 2.3027 29
8.2188 -1.4756 -1.4647999999999999 200
12.5547 -2.2539 0.1482 194
10.8594 -1.9491999999999998 -1.6758000000000002 203
12.5547 -2.2539 0.4436 214
12.531199999999998 -2.25 -1.6328 117
12.5469 -2.252 0.7387999999999999 216
12.5625 -2.2559 -1.3369 247
12.5703 -2.2559 1.0391 185
12.5469 -2.252 -1.0371 40
12.476600000000001 -2.2402 1.3281 36
12.523399999999999 -2.248 -0.7378 101
12.6172 -2.2656 1.6436000000000002 247
12.5703 -2.2559 -0.44409999999999994 161
12.625 -2.2676 1.9502000000000002 63
12.5469 -2.252 -0.1482 166
12.8828 -2.3145 2.3008 200
8.2344 -1.5088 -1.4687999999999999 237
12.5469 -2.2988 0.1483 32
8.2656 -1.5137 -1.2744 115
12.5469 -2.2988 0.44380000000000003 187
8.2656 -1.5146000000000002 -1.0752 5
12.5469 -2.2988 0.7397 180
12.5625 -2.3008 1.04 190
12.539100000000001 -2.2969 -1.0381 1
12.4922 -2.2891 1.3300999999999998 93
12.523399999999999 -2.2949 -0.7383 134
12.6328 -2.3145 1.6465 94
12.5703 -2.3027 -0.4443 183
12.6172 -2.3105 1.9491999999999998 134
12.5547 -2.2988 -0.1483 255
12.8906 -2.3613 2.3027 147
12.539100000000001 -2.3418 0.1483 45
10.8281 -2.0215 -1.6728999999999998 177
12.5469 -2.3438 0.44380000000000003 134
8.2656 -1.5438999999999998 -1.0762 196
12.5547 -2.3457 0.7402 127
8.2891 -1.5478999999999998 -0.8818 211
12.5469 -2.3438 1.0391 229
8.2969 -1.5488 -0.6855 196
12.4922 -2.334 1.3311000000000002 141
12.5625 -2.3457 -0.7406999999999999 126
12.6172 -2.3555 1.6455000000000002 22
12.5469 -2.3438 -0.44380000000000003 53
12.6094 -2.3555 1.9502000000000002 58
12.5625 -2.3457 -0.14859999999999998 117
12.9219 -2.4141 2.3105 139
9.4766 -1.8047 -1.6943000000000001 241
12.5625 -2.3926 0.1487 239
10.8203 -2.0605 -1.6728999999999998 221
12.531199999999998 -2.3867 0.44380000000000003 17
12.539100000000001 -2.3867 -1.6366999999999998 86
12.5547 -2.3906 0.7406999999999999 190
12.5469 -2.3887 -1.3378999999999999 160
12.5547 -2.3906 1.041 78
8.2812 -1.5771000000000002 -0.6851 199
12.476600000000001 -2.377 1.3311000000000002 16
8.3047 -1.5811000000000002 -0.4893 216
12.648399999999999 -2.4082 1.6503999999999999 123
8.3359 -1.5869 -0.2944 127
12.593800000000002 -2.3984 1.9491999999999998 177
12.5156 -2.3828 -0.1481 99
12.9375 -2.4629 2.3145 114
9.4844 -1.8378999999999999 -1.6953 3
12.5625 -2.4355 0.14880000000000002 68
10.835899999999999 -2.0996 -1.6768 111
12.539100000000001 -2.4316 0.4443 19
12.539100000000001 -2.4297 -1.6377000000000002 73
12.539100000000001 -2.4316 0.7406999999999999 142
12.5625 -2.4355 -1.3408000000000002 166
12.5625 -2.4355 1.042 27
12.5469 -2.4316 -1.04 16
12.476600000000001 -2.418 1.3311000000000002 113
12.5547 -2.4336 -0.7412000000000001 195
12.625 -2.4473 1.6494 136
8.3203 -1.6133000000000002 -0.2942 110
12.601600000000001 -2.4434 1.9512 141
8.2891 -1.6063999999999998 -0.0978 235
12.875 -2.4941 2.3047 196
9.4766 -1.8700999999999999 -1.6963 80
8.3203 -1.6416 0.0983 241
10.843800000000002 -2.1387 -1.6787 35
8.3438 -1.6465 0.2952 36
12.523399999999999 -2.4707 -1.6366999999999998 205
12.5469 -2.4746 0.7412000000000001 41
12.648399999999999 -2.4941 -1.3506 241
12.5547 -2.4766 1.042 222
12.5703 -2.4805 -1.043 183
12.4922 -2.4648 1.334 129
12.5703 -2.4805 -0.7426999999999999 254
12.6094 -2.4883 1.6484 39
12.5703 -2.4805 -0.4456 230
12.6094 -2.4883 1.9531 16
12.539100000000001 -2.4727 -0.14859999999999998 40
12.8203 -2.5293 2.2969 65
9.4922 -1.9091999999999998 -1.7002000000000002 246
8.3281 -1.6747999999999998 0.0984 86
10.8281 -2.1777 -1.6777000000000002 55
8.3438 -1.6768 0.2952 241
12.5547 -2.5234 -1.6416 172
8.3359 -1.6768 0.49219999999999997 229
12.6719 -2.5469 -1.3535 21
12.75 -2.5625 -1.0586 66
12.4844 -2.5117 1.334 103
12.718800000000002 -2.5586 -0.7524 190
12.6172 -2.5371 1.6503999999999999 79
12.6797 -2.5488 -0.4497 4
12.625 -2.5391 1.9569999999999999 97
12.6172 -2.5371 -0.1497 180
12.7578 -2.5664 2.2871 202
9.5156 -1.9482 -1.7050999999999998 68
12.625 -2.5839999999999996 0.14980000000000002 48
10.8281 -2.2168 -1.6787 28
12.585899999999999 -2.5762 0.4468 107
12.539100000000001 -2.5664 -1.6406 191
8.3516 -1.71 0.49340000000000006 204
12.656199999999998 -2.5898000000000003 -1.3525 62
8.3516 -1.71 0.6923999999999999 61
12.710899999999999 -2.6016000000000004 -1.0556999999999999 47
8.3672 -1.7128999999999999 0.8931 53
12.75 -2.6094 -0.7544 208
12.7578 -2.6113 -0.45289999999999997 199
12.6172 -2.5839999999999996 1.9580000000000002 190
12.7578 -2.6113 2.2891 7
9.5156 -1.9834 -1.7069999999999999 92
12.8125 -2.6699 0.1522 43
10.8125 -2.2539 -1.6777000000000002 254
12.6172 -2.6289 0.4482 26
12.531199999999998 -2.6094 -1.6406 242
12.539100000000001 -2.6132999999999997 0.7426999999999999 215
12.6719 -2.6406 -1.3555000000000001 240
12.523399999999999 -2.6094 1.041 253
12.7344 -2.6523000000000003 -1.0586 143
8.3594 -1.7422 0.8931 252
12.7422 -2.6543 -0.7544 236
8.3828 -1.7461000000000002 1.0957 154
12.6875 -2.6426 -0.4507 198
12.593800000000002 -2.625 1.9550999999999998 12
12.6406 -2.6348000000000003 -0.1501 216
12.7578 -2.6582 2.291 215
9.5078 -2.0156 -1.7061000000000002 248
10.8203 -2.2949 -1.6806999999999999 113
12.648399999999999 -2.6816000000000004 0.4497 146
12.5156 -2.6543 -1.6406 225
12.539100000000001 -2.6582 0.7432 196
12.6797 -2.6875 -1.3574000000000002 43
12.5469 -2.6601999999999997 1.0439 71
12.75 -2.7031 -1.0605 234
12.468800000000002 -2.6445 1.3359 31
12.75 -2.7031 -0.7554000000000001 120
8.3281 -1.7666 1.0898 163
12.7656 -2.707 -0.4539 119
12.601600000000001 -2.6719 1.9580000000000002 123
12.726600000000001 -2.6973000000000003 -0.1512 11
12.843800000000002 -2.7226999999999997 2.3086 15
9.4922 -2.0469 -1.7050999999999998 138
10.8281 -2.334 -1.6816 255
12.75 -2.75 0.4536 149
12.523399999999999 -2.7012 -1.6425999999999998 165
12.531199999999998 -2.7031 0.7432 135
12.664100000000001 -2.7324 -1.3574000000000002 63
12.531199999999998 -2.7031 1.0439 125
12.7344 -2.7461 -1.0605 75
12.476600000000001 -2.6914 1.3369 200
12.710899999999999 -2.7401999999999997 -0.7539 172
12.6172 -2.7207 1.6543 237
12.7344 -2.7461 -0.4531 120
12.601600000000001 -2.7188 1.96 248
12.718800000000002 -2.7441000000000004 -0.1512 241
12.835899999999999 -2.7676 2.3066 151
9.5 -2.084 -1.7080000000000002 189
12.8125 -2.8086 0.1525 63
10.851600000000001 -2.3809 -1.6875 3
12.7656 -2.8007999999999997 0.4546 228
12.531199999999998 -2.748 -1.6444999999999999 246
12.539100000000001 -2.75 0.7441 10
12.664100000000001 -2.7773000000000003 -1.3584 209
12.523399999999999 -2.7461 1.0439 210
12.7422 -2.7949 -1.0615 202
12.4844 -2.7382999999999997 1.3388999999999998 201
12.7422 -2.7949 -0.7563 24
12.6094 -2.7656 1.6553 108
12.773399999999999 -2.8007999999999997 -0.4548 161
12.6172 -2.7676 1.9638999999999998 204
12.726600000000001 -2.7910000000000004 -0.1515 71
12.8672 -2.8223000000000003 2.3164 41
9.5156 -2.123 -1.7119 218
10.843800000000002 -2.418 -1.6875 141
12.6797 -2.8262 0.45189999999999997 234
12.539100000000001 -2.7969 -1.6475 5
12.539100000000001 -2.7949 0.7445999999999999 38
12.6719 -2.8262 -1.3603999999999998 221
12.5078 -2.7891000000000004 1.043 78
12.6719 -2.8262 -1.0566 147
12.476600000000001 -2.7812 1.3388999999999998 116
12.726600000000001 -2.8379000000000003 -0.7559 248
12.6172 -2.8145 1.6572 222
12.7656 -2.8476999999999997 -0.4551 106
12.6094 -2.8105 1.9628999999999999 3
12.7422 -2.8418 -0.1517 29
12.9219 -2.8808999999999996 2.3262 153
9.5156 -2.1562 -1.7128999999999999 154
12.789100000000001 -2.8983999999999996 0.1525 205
10.843800000000002 -2.457 -1.6885 199
12.7656 -2.8926 0.4551 17
12.5156 -2.8379000000000003 -1.6455000000000002 72
12.5469 -2.8438 0.7456 132
12.6797 -2.873 -1.3613 185
12.5 -2.832 1.043 160
12.781199999999998 -2.8964999999999996 -1.0664 20
12.468800000000002 -2.8262 1.3388999999999998 155
12.7656 -2.8926 -0.7587999999999999 198
12.625 -2.8613 1.6591999999999998 199
12.7578 -2.8926 -0.4551 246
12.601600000000001 -2.8555 1.9638999999999998 167
12.726600000000001 -2.8848000000000003 -0.1517 157
12.8906 -2.9219 2.3223 122
9.5 -2.1855 -1.7109 31
10.851600000000001 -2.498 -1.6913999999999998 27
12.773399999999999 -2.9395 0.4558 105
12.5156 -2.8789 -1.6465 147
12.539100000000001 -2.8867000000000003 0.7461 136
12.6797 -2.918 -1.3622999999999998 69
12.5078 -2.8789 1.0449 79
12.7344 -2.9297000000000004 -1.0635 27
12.468800000000002 -2.8691000000000004 1.3397999999999999 236
12.75 -2.9336 -0.7587999999999999 143
12.6172 -2.9043 1.6602000000000001 212
12.8047 -2.9473000000000003 -0.457 243
12.601600000000001 -2.9004000000000003 1.9647999999999999 113
12.789100000000001 -2.9433999999999996 -0.15259999999999999 148
12.875 -2.9629000000000003 2.3223 255
9.5078 -2.2207 -1.7138999999999998 141
12.7656 -2.9824 0.1525 192
10.851600000000001 -2.5352 -1.6924000000000001 206
12.7578 -2.9805 0.4558 115
12.523399999999999 -2.9257999999999997 -1.6494 205
12.531199999999998 -2.9276999999999997 0.7461 230
12.656199999999998 -2.957 -1.3613 93
12.5078 -2.9219 1.0459 237
12.7656 -2.9824 -1.0674 231
12.468800000000002 -2.9120999999999997 1.3408000000000002 123
12.6797 -2.9629000000000003 -0.7548999999999999 174
12.6172 -2.9473000000000003 1.6611000000000002 105
12.710899999999999 -2.9707 -0.45409999999999995 109
12.6094 -2.9473000000000003 1.9687999999999999 126
12.726600000000001 -2.9726999999999997 -0.152 204
12.8672 -3.0058999999999996 2.3223 200
9.5156 -2.2598 -1.7168 213
12.8125 -3.043 0.1531 103
10.8594 -2.5781 -1.6953 142
12.773399999999999 -3.0332 0.4568 201
12.531199999999998 -2.9766000000000004 -1.6513999999999998 194
12.531199999999998 -2.9766000000000004 0.7465999999999999 130
12.656199999999998 -3.0058999999999996 -1.3633000000000002 202
12.5 -2.9688 1.0459 167
12.7656 -3.0312 -1.0684 173
12.460899999999999 -2.9589999999999996 1.3418 133
12.7422 -3.0273000000000003 -0.7593000000000001 92
12.6094 -2.9941000000000004 1.6621000000000001 78
12.7578 -3.0293 -0.4561 134
12.6094 -2.9941000000000004 1.9687999999999999 90
12.726600000000001 -3.0233999999999996 -0.1521 228
12.8672 -3.0566000000000004 2.3242 200
9.5234 -2.2969 -1.7197 221
10.843800000000002 -2.6151999999999997 -1.6943000000000001 223
12.6875 -3.0605 0.4539 4
12.5156 -3.0195 -1.6513999999999998 221
12.539100000000001 -3.0233999999999996 0.7476 26
12.664100000000001 -3.0547000000000004 -1.3643 11
12.4922 -3.0117000000000003 1.0459 25
12.664100000000001 -3.0547000000000004 -1.0605 50
12.476600000000001 -3.0098000000000003 1.3447 111
12.718800000000002 -3.0683999999999996 -0.7587999999999999 82
12.6094 -3.0410000000000004 1.6631 49
12.7344 -3.0723000000000003 -0.4558 136
12.593800000000002 -3.0391000000000004 1.9697 203
12.726600000000001 -3.0702999999999996 -0.1522 74
12.8672 -3.1035000000000004 2.3262 109
9.5234 -2.334 -1.7216999999999998 85
10.843800000000002 -2.6562 -1.6963 121
12.7656 -3.125 0.457 166
12.523399999999999 -3.0664 -1.6522999999999999 95
12.539100000000001 -3.0702999999999996 0.748 242
12.656199999999998 -3.0995999999999997 -1.3652000000000002 60
12.4922 -3.0586 1.0469 48
12.75 -3.1211 -1.0684 230
12.468800000000002 -3.0526999999999997 1.3437999999999999 188
12.75 -3.1211 -0.7606999999999999 160
12.625 -3.0918 1.6669999999999998 20
12.75 -3.123 -0.4568 107
12.593800000000002 -3.0839999999999996 1.9707 34
12.7422 -3.1191000000000004 -0.1525 215
12.875 -3.1543 2.3301 76
9.5156 -2.3652 -1.7216999999999998 233
12.9219 -3.2108999999999996 0.1548 63
10.8594 -2.6992000000000003 -1.7002000000000002 193
12.7656 -3.1738 0.4578 70
12.5078 -3.1094 -1.6522999999999999 129
12.531199999999998 -3.1151999999999997 0.7484999999999999 117
12.664100000000001 -3.1483999999999996 -1.3672 114
12.5 -3.1074 1.0488 39
12.718800000000002 -3.1620999999999997 -1.0674 2
12.4531 -3.0957 1.3437999999999999 72
12.726600000000001 -3.1641000000000004 -0.7603 117
12.6094 -3.1348000000000003 1.666 181
12.7578 -3.1719 -0.4575 216
12.593800000000002 -3.1308999999999996 1.9716999999999998 147
12.718800000000002 -3.1601999999999997 -0.1523 239
12.8828 -3.2012 2.332 53
9.5078 -2.4004 -1.7216999999999998 104
10.875 -2.7441000000000004 -1.7041 35
12.7422 -3.2148000000000003 0.457 19
12.5156 -3.1582 -1.6553 67
12.523399999999999 -3.1601999999999997 0.7490000000000001 165
12.648399999999999 -3.1914 -1.3662 87
12.5 -3.1543 1.0498 123
12.773399999999999 -3.2226999999999997 -1.0723 220
12.460899999999999 -3.1426 1.3457 83
12.7422 -3.2148000000000003 -0.7617 26
12.625 -3.1855 1.6688999999999998 12
12.7344 -3.2129000000000003 -0.4568 77
12.601600000000001 -3.1776999999999997 1.9746000000000001 145
12.726600000000001 -3.2108999999999996 -0.15259999999999999 32
12.875 -3.248 2.334 189
9.4844 -2.4297 -1.7197 132
10.875 -2.7832 -1.7050999999999998 148
12.7969 -3.2754000000000003 0.4595 239
12.523399999999999 -3.207 -1.6572 62
12.523399999999999 -3.2051 0.7495 149
12.648399999999999 -3.2382999999999997 -1.3681999999999999 58
12.5 -3.1992000000000003 1.0508 227
12.781199999999998 -3.2714999999999996 -1.0742 179
12.468800000000002 -3.1914 1.3486000000000002 92
12.7422 -3.2637 -0.7626999999999999 191
12.601600000000001 -3.2266000000000004 1.6680000000000001 62
12.7969 -3.2754000000000003 -0.4595 208
12.6094 -3.2285000000000004 1.9785 212
12.789100000000001 -3.2733999999999996 -0.1534 114
12.8672 -3.2949 2.334 3
9.5234 -2.4727 -1.7285 31
12.8828 -3.3438 0.1548 117
10.8594 -2.8183999999999996 -1.7041 100
12.789100000000001 -3.3183999999999996 0.4595 129
12.523399999999999 -3.25 -1.6591999999999998 67
12.5156 -3.25 0.75 31
12.656199999999998 -3.2851999999999997 -1.3700999999999999 218
12.4844 -3.2401999999999997 1.0498 127
12.718800000000002 -3.3007999999999997 -1.0693000000000001 181
12.476600000000001 -3.2382999999999997 1.3496000000000001 183
12.710899999999999 -3.3007999999999997 -0.7617 30
12.601600000000001 -3.2714999999999996 1.6699000000000002 143
12.718800000000002 -3.3007999999999997 -0.457 5
12.6094 -3.2733999999999996 1.9805000000000001 9
12.7344 -3.3066000000000004 -0.153 245
12.8672 -3.3398000000000003 2.3379 194
9.5312 -2.5078 -1.7305000000000001 67
10.8594 -2.8574 -1.7061000000000002 122
12.726600000000001 -3.3476999999999997 0.4578 223
12.5156 -3.293 -1.6591999999999998 173
12.531199999999998 -3.2969 0.7515000000000001 137
12.6719 -3.3339999999999996 -1.3721 60
12.4922 -3.2870999999999997 1.0518 153
12.75 -3.3535000000000004 -1.0732 19
12.460899999999999 -3.2793 1.3496000000000001 214
12.75 -3.3535000000000004 -0.7642 152
12.6094 -3.3164 1.6719 215
12.7422 -3.3516000000000004 -0.4583 122
12.6328 -3.3223000000000003 1.9844 49
12.75 -3.3555 -0.1533 2
12.8672 -3.3848000000000003 2.3398 222
9.5 -2.5352 -1.7256 204
10.8672 -2.9004000000000003 -1.7080000000000002 23
12.781199999999998 -3.4120999999999997 0.46020000000000005 109
12.5078 -3.3398000000000003 -1.6591999999999998 6
12.531199999999998 -3.3457 0.752 108
12.6719 -3.3848000000000003 -1.374 108
12.5078 -3.3398000000000003 1.0537 233
12.7031 -3.3926 -1.0703 159
12.4531 -3.3242000000000003 1.3496000000000001 215
12.6875 -3.3867000000000003 -0.7612000000000001 163
12.6094 -3.3651999999999997 1.6728999999999998 62
12.7656 -3.4082 -0.4595 147
12.6406 -3.377 1.9893 83
12.710899999999999 -3.3945 -0.153 218
12.8672 -3.4355 2.3418 226
9.5078 -2.5762 -1.7305000000000001 165
10.8672 -2.9414 -1.71 254
12.7656 -3.4551 0.46 204
12.5078 -3.3867000000000003 -1.6611000000000002 93
12.5078 -3.3867000000000003 0.7515000000000001 97
12.664100000000001 -3.4276999999999997 -1.374 26
12.5 -3.3848000000000003 1.0537 57
12.7422 -3.4492000000000003 -1.0742 33
12.4531 -3.373 1.3516 46
12.710899999999999 -3.4433999999999996 -0.7637 189
12.601600000000001 -3.4120999999999997 1.6738 16
12.726600000000001 -3.4452999999999996 -0.4585 97
12.6719 -3.4316000000000004 1.9961000000000002 24
12.718800000000002 -3.4433999999999996 -0.1532 192
12.8594 -3.4824 2.3418 81
9.5234 -2.6132999999999997 -1.7344 92
10.851600000000001 -2.9785000000000004 -1.71 78
12.789100000000001 -3.5098000000000003 0.46140000000000003 178
12.523399999999999 -3.4375 -1.665 0
12.5156 -3.4375 0.7524 48
12.656199999999998 -3.4745999999999997 -1.375 237
12.4844 -3.4276999999999997 1.0537 207
12.726600000000001 -3.4941000000000004 -1.0742 25
12.460899999999999 -3.4219 1.3535 234
12.7344 -3.4961 -0.7656000000000001 213
12.585899999999999 -3.4551 1.6728999999999998 52
12.7422 -3.498 -0.4597 134
12.6797 -3.4824 1.999 158
12.718800000000002 -3.4922000000000004 -0.1534 203
12.906199999999998 -3.543 2.3535 110
9.5234 -2.6504000000000003 -1.7353999999999998 179
10.843800000000002 -3.0176 -1.71 129
12.781199999999998 -3.5566000000000004 0.46140000000000003 44
12.5156 -3.4824 -1.666 12
12.523399999999999 -3.4863 0.7539 77
12.648399999999999 -3.5195 -1.376 251
12.4844 -3.4726999999999997 1.0547 228
12.726600000000001 -3.5410000000000004 -1.0752 223
12.468800000000002 -3.4688 1.3555000000000001 93
12.7031 -3.5351999999999997 -0.7642 159
12.593800000000002 -3.5039 1.6758000000000002 129
12.648399999999999 -3.5195 -0.4568 204
12.6719 -3.5273000000000003 2.0 142
12.710899999999999 -3.5370999999999997 -0.1534 165
12.8906 -3.5858999999999996 2.3516 35
9.5391 -2.6895 -1.7393 108
10.851600000000001 -3.0605 -1.7128999999999999 164
12.726600000000001 -3.5898000000000003 0.46 40
12.5156 -3.5293 -1.6669999999999998 0
12.531199999999998 -3.5332 0.7548999999999999 155
12.664100000000001 -3.5702999999999996 -1.3779 68
12.4844 -3.5214999999999996 1.0556999999999999 230
12.7422 -3.5938 -1.0781 135
12.4453 -3.5098000000000003 1.3544999999999998 205
12.773399999999999 -3.6016000000000004 -0.7695000000000001 143
12.593800000000002 -3.5526999999999997 1.6777000000000002 83
12.8125 -3.6132999999999997 -0.4631 110
12.6719 -3.5742000000000003 2.002 97
12.773399999999999 -3.6016000000000004 -0.1543 74
12.875 -3.6308999999999996 2.3516 15
9.4922 -2.7129000000000003 -1.7334 20
12.7969 -3.6582 0.1548 37
10.8594 -3.1035000000000004 -1.7158000000000002 162
12.773399999999999 -3.6523000000000003 0.4622 84
12.5078 -3.5742000000000003 -1.6669999999999998 136
12.523399999999999 -3.5781 0.7548999999999999 245
12.664100000000001 -3.6191000000000004 -1.3788999999999998 196
12.4844 -3.5683999999999996 1.0566 201
12.6719 -3.6211 -1.0732 230
12.4531 -3.5586 1.3563999999999998 187
12.6719 -3.6211 -0.7642 228
12.593800000000002 -3.5995999999999997 1.6797 28
12.7969 -3.6562 -0.4629 226
12.6797 -3.623 2.0039 69
12.789100000000001 -3.6543 -0.1547 213
12.851600000000001 -3.6738 2.3496 175
9.5078 -2.7539 -1.7383000000000002 209
12.789100000000001 -3.7031 0.1548 31
10.843800000000002 -3.1387 -1.7147999999999999 179
12.7578 -3.6952999999999996 0.4622 222
12.5078 -3.623 -1.6699000000000002 237
12.5156 -3.623 0.7554000000000001 237
12.6328 -3.6582 -1.3779 245
12.4844 -3.6151999999999997 1.0576 155
12.664100000000001 -3.668 -1.0732 88
12.4531 -3.6055 1.3584 123
12.648399999999999 -3.6620999999999997 -0.7637 133
12.585899999999999 -3.6445 1.6797 127
12.6797 -3.6719 -0.4592 191
12.6953 -3.6757999999999997 2.0078 193
12.6719 -3.6699 -0.1533 155
12.8203 -3.7129000000000003 2.3457 107
9.5078 -2.7891000000000004 -1.7402000000000002 3
12.6719 -3.7168 0.1536 200
10.835899999999999 -3.1776999999999997 -1.7147999999999999 149
12.6719 -3.7168 0.4592 31
12.5078 -3.668 -1.6709 74
12.5156 -3.6719 0.7563 225
12.5156 -3.6719 -1.3662 175
12.468800000000002 -3.6582 1.0576 34
12.5703 -3.6875 -1.0664 174
12.4531 -3.6543 1.3594 27
12.593800000000002 -3.6933999999999996 -0.7606999999999999 251
12.5781 -3.6895 1.6806999999999999 33
12.664100000000001 -3.7148000000000003 -0.45899999999999996 35
12.6953 -3.7245999999999997 2.0117 93
12.648399999999999 -3.7108999999999996 -0.1532 192
12.7969 -3.7539 2.3438 51
9.5078 -2.8242000000000003 -1.7422 127
12.6328 -3.752 0.1532 205
10.8281 -3.2168 -1.7158000000000002 46
12.6328 -3.752 0.4585 133
12.5078 -3.7148000000000003 -1.6728999999999998 65
12.531199999999998 -3.7207 0.7578 142
12.5078 -3.7148000000000003 -1.3672 25
12.460899999999999 -3.7012 1.0586 115
12.5156 -3.7168 -1.0625 238
12.460899999999999 -3.7012 1.3613 14
12.523399999999999 -3.7188 -0.7573000000000001 139
12.585899999999999 -3.7382999999999997 1.6836000000000002 65
12.531199999999998 -3.7207 -0.4546 154
12.6797 -3.7656 2.0117 197
12.5469 -3.7245999999999997 -0.1521 171
12.710899999999999 -3.7754000000000003 2.332 238
9.5234 -2.8613 -1.7461000000000002 57
12.531199999999998 -3.7656 0.1521 19
10.835899999999999 -3.2558999999999996 -1.7187999999999999 110
12.539100000000001 -3.7695 0.4556 55
12.5 -3.7577999999999996 -1.6738 62
12.5156 -3.7617000000000003 0.7578 135
12.5156 -3.7617000000000003 -1.3691 115
12.4531 -3.7422000000000004 1.0586 84
12.5078 -3.7598000000000003 -1.0635 105
12.4531 -3.7441000000000004 1.3622999999999998 191
12.5156 -3.7637 -0.7578 22
12.585899999999999 -3.7832 1.6846 48
12.5156 -3.7617000000000003 -0.4546 89
12.6172 -3.793 2.002 156
12.5078 -3.7577999999999996 -0.1517 31
12.6719 -3.8086 2.3262 135
9.5 -2.8906 -1.7431999999999999 221
12.5156 -3.8105 0.1521 44
10.843800000000002 -3.3007999999999997 -1.7216999999999998 196
12.5156 -3.8105 0.4551 63
12.5 -3.8047000000000004 -1.6747999999999998 31
12.5156 -3.8105 0.7587999999999999 143
12.531199999999998 -3.8145 -1.3721 18
12.4531 -3.7910000000000004 1.0595999999999999 229
12.5078 -3.8086 -1.0645 109
12.4453 -3.7891000000000004 1.3633000000000002 212
12.5156 -3.8105 -0.7587999999999999 20
12.593800000000002 -3.832 1.6875 24
12.5156 -3.8105 -0.4551 142
12.593800000000002 -3.832 2.0 181
12.5 -3.8066000000000004 -0.152 170
12.6172 -3.8398000000000003 2.3184 36
9.4922 -2.9219 -1.7431999999999999 221
12.5156 -3.8555 0.1522 70
10.835899999999999 -3.3358999999999996 -1.7216999999999998 155
12.5156 -3.8535000000000004 0.45530000000000004 255
12.4844 -3.8457 -1.6747999999999998 248
12.4922 -3.8476999999999997 0.7578 42
12.5078 -3.8535000000000004 -1.3711000000000002 100
12.4531 -3.8358999999999996 1.0605 58
12.5156 -3.8555 -1.0664 99
12.4453 -3.8339999999999996 1.3643 203
12.5078 -3.8535000000000004 -0.7587999999999999 135
12.585899999999999 -3.875 1.6885 67
12.5156 -3.8555 -0.4556 218
12.593800000000002 -3.8789 2.002 179
12.5078 -3.8535000000000004 -0.1522 187
12.601600000000001 -3.8827999999999996 2.3184 8
9.4844 -2.9589999999999996 -1.7450999999999999 213
12.5156 -3.9062 0.1525 93
10.8281 -3.3789 -1.7236000000000002 254
12.523399999999999 -3.9082 0.45630000000000004 23
12.4922 -3.8983999999999996 -1.6777000000000002 44
12.5078 -3.9043 0.7598 201
12.5 -3.9023000000000003 -1.3721 42
12.4375 -3.8808999999999996 1.0605 122
12.5078 -3.9043 -1.0674 172
12.4453 -3.8848000000000003 1.3662 132
12.5078 -3.9023000000000003 -0.7593000000000001 64
12.5781 -3.9238 1.6894999999999998 23
12.5156 -3.9043 -0.4561 87
12.601600000000001 -3.9316000000000004 2.0059 8
12.5156 -3.9043 -0.1523 152
12.601600000000001 -3.9316000000000004 2.3203 251
9.5 -3.0 -1.749 78
12.5 -3.9492000000000003 0.1525 48
10.8203 -3.418 -1.7236000000000002 135
12.5078 -3.9512 0.45630000000000004 87
12.5 -3.9492000000000003 -1.6806999999999999 185
12.5156 -3.9531 0.7606999999999999 232
12.5156 -3.9531 -1.375 75
12.4219 -3.9238 1.0605 72
12.5 -3.9492000000000003 -1.0674 99
12.4531 -3.9336 1.3681999999999999 171
12.5078 -3.9492000000000003 -0.7603 5
12.5781 -3.9726999999999997 1.6904 203
12.4922 -3.9473000000000003 -0.4558 161
12.585899999999999 -3.9766000000000004 2.0059 78
12.523399999999999 -3.9551 -0.1527 21
12.6094 -3.9824 2.3242 189
9.4922 -3.0351999999999997 -1.75 35
12.523399999999999 -4.0039 0.1528 210
10.8203 -3.4589999999999996 -1.7256 5
12.5 -3.9961 0.45649999999999996 62
12.5 -3.9961 -1.6825999999999999 166
12.5156 -4.0 0.7617 204
12.523399999999999 -4.0039 -1.3769999999999998 172
12.4297 -3.9726999999999997 1.0625 125
12.4922 -3.9941000000000004 -1.0684 202
12.4531 -3.9824 1.3700999999999999 194
12.5078 -3.998 -0.7612000000000001 138
12.585899999999999 -4.0234 1.6943000000000001 193
12.523399999999999 -4.0039 -0.4573 217
12.585899999999999 -4.0234 2.0078 136
12.5078 -4.0 -0.1527 41
12.601600000000001 -4.0273 2.3242 210
9.4844 -3.0683999999999996 -1.75 152
12.5156 -4.0508 0.153 70
10.8281 -3.5039 -1.7294999999999998 156
12.5078 -4.0469 0.4573 167
12.4922 -4.0391 -1.6825999999999999 86
12.5078 -4.0469 0.7622 102
12.523399999999999 -4.0547 -1.3788999999999998 246
12.4375 -4.0234 1.0645 28
12.4922 -4.043 -1.0693000000000001 213
12.460899999999999 -4.0312 1.3721 232
12.4922 -4.043 -0.7617 20
12.593800000000002 -4.0742 1.6972999999999998 59
12.523399999999999 -4.0508 -0.4578 8
12.585899999999999 -4.0703 2.0098 14
12.5078 -4.0469 -0.1528 184
12.593800000000002 -4.0742 2.3262 250
9.4844 -3.1035000000000004 -1.7519999999999998 160
12.5 -4.0938 0.153 154
10.8203 -3.543 -1.7305000000000001 179
12.5078 -4.0977 0.45799999999999996 192
12.5 -4.0938 -1.6865 181
12.5 -4.0938 0.7626999999999999 213
12.5156 -4.0977 -1.3799000000000001 247
12.4453 -4.0742 1.0664 166
12.5 -4.0938 -1.0713 146
12.476600000000001 -4.0859 1.375 63
12.4922 -4.0898 -0.7622 84
12.5781 -4.1211 1.6972999999999998 89
12.531199999999998 -4.1016 -0.4587 108
12.593800000000002 -4.125 2.0137 72
12.5 -4.0938 -0.153 158
12.5781 -4.1211 2.3262 211
9.4219 -3.1211 -1.7431999999999999 33
12.5078 -4.1445 0.1532 45
10.8203 -3.5839999999999996 -1.7313999999999998 131
12.5078 -4.1445 0.4585 157
12.5 -4.1406 -1.6885 181
12.5078 -4.1445 0.7642 146
12.5078 -4.1445 -1.3799000000000001 166
12.4297 -4.1172 1.0664 144
12.5078 -4.1445 -1.0732 20
12.5156 -4.1445 1.3809 95
12.5 -4.1406 -0.7637 15
12.5703 -4.1641 1.6982 104
12.523399999999999 -4.1484 -0.4587 130
12.601600000000001 -4.1758 2.0176 87
12.5156 -4.1445 -0.1533 25
12.585899999999999 -4.1719 2.3301 16
9.4688 -3.1757999999999997 -1.7538999999999998 238
12.4922 -4.1914 0.1532 138
10.8125 -3.627 -1.7324000000000002 134
12.4922 -4.1914 0.4585 48
12.5156 -4.1953 -1.6924000000000001 148
12.5078 -4.1953 0.7651 254
12.5078 -4.1953 -1.3818000000000001 68
12.4297 -4.168 1.0674 243
12.5 -4.1914 -1.0732 30
12.5547 -4.2109 1.3877000000000002 219
12.5078 -4.1953 -0.7651 167
12.5781 -4.2188 1.7002000000000002 173
12.5078 -4.1953 -0.45899999999999996 0
12.593800000000002 -4.2227 2.0195 195
12.5078 -4.1953 -0.1534 89
12.593800000000002 -4.2266 2.3359 8
9.4766 -3.2148000000000003 -1.7568000000000001 43
12.5 -4.2422 0.1534 52
10.8047 -3.6660000000000004 -1.7334 99
12.4922 -4.2383 0.45899999999999996 105
12.460899999999999 -4.2266 -1.6875 50
12.5078 -4.2422 0.7656000000000001 99
12.5156 -4.2461 -1.3838 126
12.4297 -4.2148 1.0684 163
12.4922 -4.2383 -1.0742 208
12.5703 -4.2656 1.3906 200
12.5078 -4.2422 -0.7656000000000001 118
12.5781 -4.2695 1.7031 69
12.5156 -4.2461 -0.4597 23
12.585899999999999 -4.2695 2.0195 242
12.5 -4.2422 -0.1534 15
12.601600000000001 -4.2734 2.3379 107
9.4688 -3.2441000000000004 -1.7568000000000001 7
12.5 -4.2852 0.1537 51
10.8203 -3.7089999999999996 -1.7372999999999998 167
12.5 -4.2852 0.4597 37
12.375 -4.2422 -1.6768 157
12.5 -4.2852 0.7666 28
12.4219 -4.2578 -1.376 158
12.4453 -4.2656 1.0713 32
12.468800000000002 -4.2734 -1.0732 6
12.5781 -4.3125 1.3925999999999998 164
12.4922 -4.2812 -0.7661 74
12.5781 -4.3125 1.7050999999999998 62
12.5156 -4.293 -0.4604 38
12.5781 -4.3125 2.0215 127
12.4922 -4.2812 -0.1534 86
12.5781 -4.3125 2.3379 246
9.3828 -3.252 -1.7441 109
12.4922 -4.3281 0.1537 10
10.8125 -3.7461 -1.7383000000000002 90
12.5 -4.332 0.46020000000000005 150
12.375 -4.2891 -1.6797 123
12.5 -4.3281 0.7666 156
12.3906 -4.293 -1.3730000000000002 62
12.4297 -4.3086 1.0713 126
12.3828 -4.293 -1.0674 41
12.593800000000002 -4.3633 1.3965 249
12.3906 -4.293 -0.7603 79
12.5625 -4.3516 1.7041 154
12.468800000000002 -4.3203 -0.45899999999999996 240
12.585899999999999 -4.3594 2.0234 149
12.476600000000001 -4.3242 -0.1534 211
12.5781 -4.3594 2.3398 196
12.406199999999998 -4.3477 0.1528 205
10.8125 -3.7891000000000004 -1.7402000000000002 1
12.460899999999999 -4.3672 0.4595 244
12.4922 -4.3789 -1.6972999999999998 84
12.4844 -4.375 0.7670999999999999 176
12.4922 -4.3789 -1.3866999999999998 139
12.4297 -4.3594 1.0723 155
12.3906 -4.3438 -1.0684 29
12.5625 -4.4023 1.3944999999999999 82
12.3672 -4.3359 -0.7598 212
12.523399999999999 -4.3906 1.7021000000000002 79
12.398399999999999 -4.3477 -0.457 206
12.593800000000002 -4.4141 2.0293 29
12.406199999999998 -4.3516 -0.1528 31
12.585899999999999 -4.4102 2.3438 239
3.8301 -1.3574000000000002 -0.7090000000000001 241
12.398399999999999 -4.3945 0.153 247
3.8555 -1.3672 -0.6172 126
12.398399999999999 -4.3984 0.4578 73
