# .PCD v0.7 - Point Cloud Data file format
VERSION 0.7
FIELDS x y z intensity
SIZE 4 4 4 4
TYPE F F F F
COUNT 1 1 1 1
WIDTH 1243
HEIGHT 1
VIEWPOINT 0 0 0 1 0 0 0
POINTS 1243
DATA ascii
-13.0703 -20.7031 1.4219 240
-18.1719 -28.7812 2.7773000000000003 41
-7.0586 -11.1797 1.3847999999999998 93
-18.2188 -28.8594 4.3828 52
-18.25 -28.9062 5.207000000000001 250
-18.2812 -28.9531 6.0312 93
-2.9531 -4.6406 -0.9623999999999999 101
-2.9629000000000003 -4.6562 -0.8354 10
-13.0781 -20.5625 0.8491 90
-13.093800000000002 -20.5781 1.4169999999999998 233
-7.605499999999999 -11.9531 1.1533 206
-7.0977 -11.156199999999998 1.3847999999999998 176
-18.3906 -28.9062 4.4023 98
-18.625 -29.2812 5.2852 119
-18.6562 -29.3438 6.125 176
-2.9629000000000003 -4.625 -0.9609000000000001 0
-2.9824 -4.6523 -0.8364 194
-13.0625 -20.375 0.8438 190
-7.8359000000000005 -12.218800000000002 0.8418000000000001 141
-7.613300000000001 -11.875 1.1484 161
-7.0586 -11.0156 1.3700999999999999 234
-18.7656 -29.2656 4.4648 24
-4.0 -6.2422 -0.2571 249
-18.7812 -29.3125 5.300800000000001 246
-18.8125 -29.3438 6.136699999999999 215
-2.9805 -4.6133 -0.9614 232
-3.0137 -4.668 -0.8408 234
-13.0625 -20.2344 0.8393999999999999 60
-13.0703 -20.2344 1.3994 112
-7.6015999999999995 -11.7656 1.1406 13
-7.0352 -10.8906 1.3584 163
-18.8906 -29.25 4.4766 179
-18.9062 -29.2656 5.3047 115
-13.0 -20.125 -0.2793 200
-18.9062 -29.2656 6.136699999999999 1
-3.0 -4.6094 -0.9623999999999999 62
-3.0410000000000004 -4.6719 -0.8432999999999999 143
-13.0547 -20.0469 0.8340000000000001 112
-3.2226999999999997 -4.9531 -0.7548999999999999 53
-7.0273 -10.7969 0.7471 76
-7.0547 -10.835899999999999 1.0527 237
-7.078099999999999 -10.875 1.3594 17
-19.0156 -29.2188 4.4805 10
-19.0469 -29.2656 5.3164 44
-13.0 -19.9688 -0.2776 145
-19.0469 -29.25 6.1484000000000005 207
-3.0293 -4.6211 -0.9668000000000001 79
-3.0410000000000004 -4.6367 -0.8393999999999999 11
-13.0469 -19.8906 0.8291 82
-13.0469 -19.8906 1.3809 146
-7.0586 -10.7578 1.0479 234
-7.0664 -10.773399999999999 1.3496000000000001 147
-19.1562 -29.2031 4.4844 169
-19.2031 -29.2812 5.3359000000000005 59
-12.9922 -19.8125 -0.2761 42
-19.2344 -29.3281 6.1797 17
-3.0762 -4.6562 -0.9765999999999999 202
-13.0469 -19.75 0.2759 191
-3.0625 -4.6328 -0.8403 139
-13.0625 -19.7656 0.8256999999999999 47
-7.015599999999999 -10.6172 0.7378 117
-6.9765999999999995 -10.5547 1.0303 235
-7.1211 -10.781199999999998 1.3535 19
-7.140599999999999 -10.8047 1.6611000000000002 146
-19.2812 -29.1719 5.324199999999999 52
-13.0156 -19.6875 -0.2751 182
-19.2656 -29.1562 6.1562 212
-13.0703 -19.625 0.2749 1
-3.082 -4.6289 -0.8418000000000001 205
-7.0 -10.5156 0.43920000000000003 51
-7.0664 -10.6094 0.7387999999999999 2
-7.015599999999999 -10.539100000000001 1.0303 86
-7.1875 -10.789100000000001 1.3584 210
-7.1640999999999995 -10.7578 1.6572 90
-19.2656 -28.9375 5.292999999999999 75
-13.023399999999999 -19.5625 -0.27390000000000003 108
-19.2812 -28.9531 6.125 234
-13.0625 -19.4688 0.2732 162
-3.1132999999999997 -4.6406 -0.8456999999999999 76
-7.0390999999999995 -10.4922 0.43920000000000003 168
-7.0977 -10.5781 0.7387999999999999 112
-7.0312 -10.4844 1.0273 106
-7.3086 -10.8906 1.374 240
-6.9922 -10.4219 1.6094 118
-6.828099999999999 -10.1719 1.8613 179
-13.0078 -19.3906 -0.272 147
-19.4062 -28.9219 6.136699999999999 238
-13.0469 -19.2969 0.27149999999999996 209
-3.1387 -4.6445 -0.8481000000000001 172
-13.039100000000001 -19.2812 0.8109999999999999 10
-7.1602 -10.593800000000002 0.7412000000000001 72
-7.113300000000001 -10.5156 1.0332 207
-7.7109000000000005 -11.406199999999998 1.4424000000000001 63
-6.9961 -10.343800000000002 1.6006 32
-6.8828 -10.1797 1.8672 104
-13.0 -19.2344 -0.2705 59
-19.5469 -28.9219 6.1484000000000005 190
-13.0781 -19.2031 0.2708 133
-3.1406 -4.6094 -0.8438 139
-13.031199999999998 -19.125 0.8066 242
-7.078099999999999 -10.3906 0.7290000000000001 188
-7.1602 -10.5156 1.0352 144
-7.3672 -10.8125 1.3711000000000002 60
-7.324199999999999 -10.75 1.6680000000000001 56
-4.3242 -6.3477 -0.2664 65
-7.1523 -10.5 1.9306999999999999 209
-13.0547 -19.1562 -0.2703 72
-7.0547 -10.3594 2.2031 47
-13.085899999999999 -19.0781 0.2695 133
-3.1582 -4.6016 -0.8447 223
-13.031199999999998 -19.0 0.8027 115
-7.1015999999999995 -10.351600000000001 0.7275 89
-7.0664 -10.2969 1.0166 55
-7.8164 -11.3906 1.4472999999999998 110
-7.4023 -10.789100000000001 1.6777000000000002 104
-13.0547 -19.0312 -0.8037000000000001 26
-6.980499999999999 -10.1719 1.875 130
-13.0547 -19.0312 -0.26899999999999996 18
-7.0625 -10.2969 2.1934 172
-0.5879 -0.8506 -0.17489999999999997 111
-13.093800000000002 -18.9531 0.2686 25
-3.207 -4.6406 -0.8534999999999999 46
-13.023399999999999 -18.8594 0.7983 85
-7.1914 -10.406199999999998 0.7334 225
-7.0078 -10.1406 1.0029000000000001 64
-7.9336 -11.4844 1.4619 36
-7.0859000000000005 -10.2578 1.5977000000000001 168
-13.0547 -18.8906 -0.7998000000000001 90
-7.0352 -10.1875 1.8809 13
-13.0469 -18.875 -0.2673 6
-7.050800000000001 -10.2109 2.1797 156
-13.148399999999999 -18.8906 0.2683 216
-3.2324 -4.6406 -0.856 76
-13.023399999999999 -18.7031 0.7939 85
-13.023399999999999 -18.7031 1.3232 57
-7.0 -10.0469 0.9965999999999999 223
-6.917999999999999 -9.9375 1.2676 34
-7.171900000000001 -10.2969 1.6094 119
-13.0547 -18.75 -0.7959 87
-7.1211 -10.2266 1.8936000000000002 154
-13.093800000000002 -18.7969 -0.2671 74
-7.1523 -10.273399999999999 2.1992 233
-13.1875 -18.7969 0.2676 231
-13.0469 -18.5938 0.7915000000000001 91
-7.2188 -10.289100000000001 0.7284999999999999 190
-7.0547 -10.0547 1.0 72
-6.980499999999999 -9.9531 1.2725 223
-20.2188 -28.8125 4.5234 237
-13.0469 -18.6094 -0.7915000000000001 126
-7.0273 -10.0156 1.8594 30
-13.1328 -18.7188 -0.2664 139
-7.2227 -10.2969 2.2109 20
-7.9922 -11.3047 0.4817 170
-7.2422 -10.25 0.7275 163
-7.109400000000001 -10.0625 1.0029000000000001 192
-7.015599999999999 -9.9297 1.2725 243
-7.2265999999999995 -10.2266 1.6044999999999998 149
-13.0469 -18.4688 -0.7876000000000001 183
-7.0703 -10.0078 1.8613 211
-13.093800000000002 -18.5312 -0.2644 99
-7.1602 -10.1328 2.1797 221
-13.1719 -18.5 0.2646 15
-7.9336 -11.1406 0.4758 216
-3.4276999999999997 -4.8125 -0.7548999999999999 216
-8.7109 -12.2344 0.8715999999999999 166
-3.8594 -5.421900000000001 -0.6948000000000001 136
-7.2109000000000005 -10.125 1.0117 182
-6.953099999999999 -9.7656 1.2549 73
-7.1953 -10.1094 1.5908000000000002 119
-13.039100000000001 -18.3125 -0.7831999999999999 248
-7.0898 -9.9531 1.8574000000000002 190
-13.125 -18.4375 -0.2637 95
-7.1836 -10.0859 2.1758 242
-7.988300000000001 -11.1406 0.4768 70
-6.8203 -9.5078 0.6781999999999999 242
-7.265599999999999 -10.1328 1.0146 239
-6.9922 -9.75 1.2568000000000001 109
-7.136699999999999 -9.9531 1.5693000000000001 229
-13.039100000000001 -18.1719 -0.7793000000000001 229
-7.1640999999999995 -9.9922 1.8681999999999999 95
-13.125 -18.2969 -0.2625 169
-7.3438 -10.2422 2.2148 129
-0.6054999999999999 -0.8384 -0.17489999999999997 155
-7.8125 -10.8125 0.1552 196
-7.875 -10.898399999999999 0.4678 13
-6.8438 -9.4766 0.6772 2
-7.3047 -10.1094 1.0146 140
-7.0586 -9.7734 1.2627 71
-7.1836 -9.9375 1.5722999999999998 62
-13.039100000000001 -18.0469 -0.7754000000000001 83
-7.7539 -10.726600000000001 2.0117 246
-13.023399999999999 -18.0312 -0.2593 229
-7.363300000000001 -10.1875 2.209 148
-7.8359000000000005 -10.7656 0.1548 76
-13.0 -17.8594 0.7695000000000001 233
-6.8398 -9.3984 0.6733 135
-3.9160000000000004 -5.3828 -0.6948000000000001 82
-7.2461 -9.9531 1.002 188
-7.082000000000001 -9.7344 1.2607 168
-12.976600000000001 -17.8281 -1.2803 28
-7.2265999999999995 -9.9297 1.5741999999999998 211
-13.039100000000001 -17.9062 -0.772 250
-7.824199999999999 -10.75 2.0215 204
-13.281199999999998 -18.25 -0.26289999999999997 40
-7.3477 -10.0938 2.1934 42
-13.343800000000002 -18.1875 0.26289999999999997 241
-7.3047 -9.9609 0.4294 216
-6.8438 -9.3359 0.6709 23
-3.9355 -5.3672 -0.6948000000000001 34
-7.296900000000001 -9.9531 1.0049 206
-7.0625 -9.6328 1.251 136
-12.9844 -17.7031 -1.2744 81
-7.234400000000001 -9.8672 1.5684 115
-13.023399999999999 -17.7656 -0.7676000000000001 11
-21.1719 -28.875 5.453099999999999 145
-13.289100000000001 -18.125 -0.262 87
-7.4336 -10.1328 2.209 121
-8.4141 -11.398399999999999 0.1648 47
-7.3086 -9.9062 0.428 15
-6.8515999999999995 -9.2812 0.6685 173
-3.9531 -5.355499999999999 -0.6948000000000001 142
-8.8125 -11.9453 1.209 175
-7.1640999999999995 -9.7031 1.2637 141
-12.976600000000001 -17.5781 -1.2695 51
-7.3359000000000005 -9.9375 1.5830000000000002 220
-13.0156 -17.625 -0.7631999999999999 195
-8.0078 -10.843800000000002 2.0488 1
-13.3047 -18.0312 -0.261 245
-7.5 -10.1641 2.2207 161
-13.3672 -17.9844 0.261 216
-7.332000000000001 -9.8672 0.4275 117
-6.8789 -9.2578 0.6679999999999999 15
-3.9707 -5.3398 -0.6948000000000001 225
-7.3086 -9.8359 0.9976 39
-7.2188 -9.7109 1.2676 67
-12.968800000000002 -17.4531 -1.2617 134
-7.234400000000001 -9.7344 1.5547 141
-13.0156 -17.5156 -0.7598 152
-7.1836 -9.6641 1.8291 57
-13.281199999999998 -17.875 -0.2595 59
-7.640599999999999 -10.281199999999998 2.25 93
-13.351600000000001 -17.8281 0.2595 238
-7.0352 -9.3984 0.4082 115
-6.9453 -9.2734 0.6714 232
-4.0508 -5.4062 -0.7056 30
-8.7031 -11.625 1.1826 50
-7.3047 -9.75 1.2764 158
-12.960899999999999 -17.3125 -1.2559 10
-7.2461 -9.6719 1.5488 181
-13.0156 -17.375 -0.7563 20
-7.2148 -9.6328 1.8291 155
-13.2656 -17.7031 -0.25780000000000003 198
-7.8438 -10.476600000000001 2.2988 120
-13.3281 -17.6719 0.25780000000000003 60
-7.0547 -9.3516 0.4075 225
-6.9922 -9.2734 0.6729 17
-4.0078 -5.3125 -0.6948000000000001 177
-7.3086 -9.6875 0.9878 149
-6.5938 -8.7422 -0.8906000000000001 144
-9.3203 -12.3594 1.6230000000000002 36
-12.9531 -17.1719 -1.249 151
-7.2852 -9.6562 1.5497999999999998 237
-13.0156 -17.25 -0.7529 210
-7.292999999999999 -9.6719 1.8408000000000002 153
-13.281199999999998 -17.6094 -0.2571 215
-7.859400000000001 -10.4219 2.293 202
-13.039100000000001 -17.1562 0.25120000000000003 61
-7.0977 -9.3438 0.408 139
-6.980499999999999 -9.1875 0.6689 212
-4.0859 -5.3789 -0.7056 71
-7.078099999999999 -9.3203 0.9521 19
-7.394500000000001 -9.7266 1.2803 38
-12.9922 -17.0938 -1.2470999999999999 222
-6.707000000000001 -8.8281 1.4209 175
-13.0078 -17.125 -0.7490000000000001 252
-7.4023 -9.7422 1.8584 233
-12.9922 -17.0938 -0.2502 143
-7.890599999999999 -10.3828 2.293 199
-13.023399999999999 -17.0156 0.24960000000000002 248
-12.976600000000001 -16.9531 0.7437 232
-7.0039 -9.1484 0.6679999999999999 93
-4.1055 -5.363300000000001 -0.7056 31
-7.1328 -9.3203 0.9551000000000001 66
-7.421900000000001 -9.6953 1.2793 34
-6.6797 -8.7266 -0.6367 68
-6.7461 -8.8125 1.4219 6
-13.0 -16.9844 -0.7451000000000001 101
-7.355499999999999 -9.6094 1.8388999999999998 40
-13.0 -16.9844 -0.2491 150
-7.9648 -10.406199999999998 2.3027 184
-13.039100000000001 -16.9062 0.2488 210
-7.453099999999999 -9.6641 0.42460000000000003 121
-7.0390999999999995 -9.125 0.6679999999999999 155
-4.1875 -5.425800000000001 -0.7158 33
-7.2148 -9.3516 0.9614 203
-7.4453 -9.6562 1.2773 221
-6.667999999999999 -8.6406 -0.6323 118
-6.8203 -8.8438 1.4306999999999999 38
-13.0 -16.8594 -0.7417 64
-7.488300000000001 -9.7109 1.8633000000000002 71
-12.9922 -16.8438 -0.24789999999999998 58
-6.8086 -8.8281 1.959 41
-12.9922 -16.7188 0.24670000000000003 171
-7.480499999999999 -9.6328 0.4241 91
-7.1875 -9.25 0.6787000000000001 105
-4.2227 -5.4336 -0.7188 66
-7.1914 -9.2578 0.9541 107
-7.484400000000001 -9.6328 1.2773 244
-6.6640999999999995 -8.5781 -0.6294 248
-6.8359000000000005 -8.7969 1.4277000000000002 181
-12.960899999999999 -16.6875 -0.7358 115
-7.7188 -9.9375 1.9121000000000001 111
-12.9453 -16.6562 -0.2458 121
-6.8515999999999995 -8.8203 1.9619 73
-12.968800000000002 -16.5781 0.2452 58
-12.960899999999999 -16.5625 0.7329000000000001 116
-7.207000000000001 -9.2109 0.6777 32
-4.2227 -5.3984000000000005 -0.7158 55
-7.175800000000001 -9.1797 0.9478 208
-6.5547 -8.375 -0.8652 164
-7.5 -9.5859 1.2744 152
-6.8477 -8.7578 1.4247999999999998 137
-12.9531 -16.5625 -0.7323999999999999 71
-7.6562 -9.7891 1.8887 191
-12.9297 -16.5312 -0.2446 165
-6.8125 -8.7109 1.9424000000000001 220
-0.5786 -0.7349 -0.1576 100
-12.968800000000002 -16.4688 0.2443 59
-12.960899999999999 -16.4531 0.73 35
-7.230499999999999 -9.1797 0.6772 6
-4.2852 -5.4414 -0.7231000000000001 12
-7.1836 -9.1172 0.9448000000000001 130
-6.5625 -8.3281 -0.8628 244
-8.7031 -11.0547 1.4746000000000001 155
-6.8828 -8.7422 1.4258000000000002 255
-12.9453 -16.4375 -0.7290000000000001 121
-7.675800000000001 -9.75 1.8857 86
-12.9297 -16.4219 -0.24350000000000002 169
-6.8047 -8.6406 1.9325999999999999 106
-0.606 -0.7637 -0.1646 69
-12.968800000000002 -16.3438 0.243 218
-12.9531 -16.3281 0.7261 138
-7.269500000000001 -9.1641 0.6777 119
-4.3047 -5.421900000000001 -0.7231000000000001 99
-7.203099999999999 -9.0781 0.9429000000000001 77
-6.550800000000001 -8.25 -0.8569 196
-7.136699999999999 -8.9922 1.2012 202
-6.890599999999999 -8.6797 1.4199000000000002 124
-12.9453 -16.3125 -0.7251000000000001 176
-7.707000000000001 -9.7109 1.8838 202
-12.9375 -16.2969 -0.24239999999999998 27
-6.890599999999999 -8.6797 1.9472999999999998 140
-0.5918 -0.7397 -0.1597 74
-12.976600000000001 -16.2344 0.2422 93
-12.9453 -16.1875 0.7222 122
-7.375 -9.2266 0.6846 127
-4.3125 -5.394500000000001 -0.7212000000000001 255
-8.8594 -11.0781 1.1553 82
-6.546900000000001 -8.1875 -0.853 92
-8.7578 -10.9531 1.4697 56
-6.8672 -8.5938 1.4091999999999998 57
-12.9453 -16.1875 -0.7222 34
-7.015599999999999 -8.7734 1.7069999999999999 155
-12.9297 -16.1719 -0.2412 57
-6.9102 -8.6406 1.9443000000000001 168
-0.5468999999999999 -0.6797 -0.1465 111
-12.9219 -16.0469 0.24 151
-12.898399999999999 -16.0156 0.7162999999999999 150
-12.8906 -16.0156 1.1934 26
-6.4961 -8.0703 -1.085 222
-8.9219 -11.085899999999999 1.1582 37
-6.550800000000001 -8.1406 -0.8495999999999999 188
-8.7891 -10.9219 1.4687999999999999 165
-6.8984000000000005 -8.5703 1.4091999999999998 60
-12.9219 -16.0625 -0.7178 60
-9.2656 -11.5078 2.2461 78
-12.8828 -16.0 -0.23929999999999998 59
-6.9140999999999995 -8.5938 1.9375 7
-0.5889 -0.7271 -0.1576 186
-12.914100000000001 -15.9297 0.2389 252
-12.9375 -15.968800000000002 0.7158 219
-12.9297 -15.9531 1.1924 226
-6.5078 -8.0312 -1.082 89
-7.3477 -9.0703 0.9497 159
-6.550800000000001 -8.0859 -0.8462000000000001 46
-7.1172 -8.7812 1.1836 27
-6.957000000000001 -8.5859 1.416 42
-12.898399999999999 -15.914100000000001 -0.7134 16
-7.0 -8.6328 1.6885 168
-12.875 -15.8906 -0.23829999999999998 128
-6.9727 -8.6016 1.9453 50
-0.6069 -0.7426999999999999 -0.1617 224
-12.906199999999998 -15.8047 0.2378 13
-9.8281 -12.031199999999998 0.5405 5
-12.9297 -15.8281 1.1865 223
-6.4961 -7.953099999999999 -1.0752 84
-7.332000000000001 -8.9766 0.9429000000000001 238
-6.546900000000001 -8.0156 -0.8418000000000001 184
-7.140599999999999 -8.7422 1.1816 167
-6.984400000000001 -8.5547 1.415 216
-12.8906 -15.789100000000001 -0.71 185
-6.9688 -8.5312 1.6738 254
-12.8828 -15.7656 -0.2372 29
-6.886699999999999 -8.4297 1.9121000000000001 51
-0.6294 -0.7651 -0.1672 109
-12.9219 -15.7031 0.2369 76
-3.8339999999999996 -4.6602 -0.9140999999999999 61
-9.875 -12.0078 0.541 233
-12.9219 -15.7031 1.1806999999999999 135
-6.4922 -7.894500000000001 -1.0693000000000001 73
-7.363300000000001 -8.9531 0.9429000000000001 113
-6.546900000000001 -7.9609000000000005 -0.8384 116
-8.8594 -10.773399999999999 1.4609 237
-12.875 -15.656199999999998 -0.7061 65
-6.949199999999999 -8.4453 1.6621000000000001 56
-12.8828 -15.664100000000001 -0.23620000000000002 205
-6.9375 -8.4375 1.9188999999999998 125
-0.5967 -0.7206999999999999 -0.1576 240
-12.898399999999999 -15.5703 0.23550000000000001 87
-3.8495999999999997 -4.6484 -0.9140999999999999 201
-12.8906 -15.5625 0.7041 17
-12.9219 -15.601600000000001 1.1758 3
-6.5 -7.8515999999999995 -1.0664 133
-7.417999999999999 -8.9531 0.9462999999999999 41
-6.542999999999999 -7.8984000000000005 -0.8345 71
-23.75 -28.6875 3.9101999999999997 133
-7.109400000000001 -8.5859 1.4287 153
-12.8906 -15.5625 -0.7036 172
-6.9414 -8.3828 1.6533000000000002 167
-12.875 -15.539100000000001 -0.2351 155
-6.925800000000001 -8.3594 1.9072 230
-0.5991 -0.7188 -0.1576 68
-12.9531 -15.539100000000001 0.2357 241
-12.960899999999999 -15.5469 0.7051000000000001 247
-9.0547 -10.8672 0.8203 30
-6.5039 -7.800800000000001 -1.0635 117
-7.4688 -8.9531 0.9487000000000001 141
-6.546900000000001 -7.855499999999999 -0.8315 84
-9.6641 -11.585899999999999 1.5811000000000002 155
-7.0898 -8.5 1.4180000000000001 12
-12.9297 -15.5078 -0.7036 59
-6.9023 -8.2812 1.6366999999999998 58
-12.9375 -15.5156 -0.2354 150
-6.9648 -8.3516 1.9102000000000001 187
-0.5967 -0.7104 -0.1561 182
-13.0469 -15.523399999999999 0.23620000000000002 251
-13.0703 -15.5547 0.7075 223
-9.5 -11.3047 0.8564 17
-6.4922 -7.7265999999999995 -1.0566 183
-7.5273 -8.9609 0.9521 178
-6.5547 -7.800800000000001 -0.8286 162
-9.6953 -11.539100000000001 1.5791 18
-6.9961 -8.3281 1.3936000000000002 190
-6.9375 -8.2578 1.6377000000000002 203
-6.957000000000001 -8.2812 1.8994 182
-0.6045 -0.7143999999999999 -0.1576 55
-13.1719 -15.5703 0.2375 14
-3.8983999999999996 -4.6094 -0.9140999999999999 53
-13.156199999999998 -15.539100000000001 0.7095 184
-9.8438 -11.6328 0.8837999999999999 138
-6.488300000000001 -7.667999999999999 -1.0518 42
-7.9609000000000005 -9.4062 1.0029000000000001 234
-6.5586 -7.75 -0.8256999999999999 249
-9.7734 -11.5547 1.5859 237
-6.9765999999999995 -8.2422 1.3838 3
-6.8672 -8.1172 -0.36939999999999995 146
-7.0273 -8.3047 1.6522999999999999 180
-13.1328 -15.5156 -0.2368 96
-9.4297 -11.148399999999999 2.5664 216
-0.6093999999999999 -0.7148 -0.1582 29
-13.2344 -15.531199999999998 0.2377 171
-3.9160000000000004 -4.5938 -0.9140999999999999 14
-13.2422 -15.539100000000001 0.7114 78
-10.0547 -11.7969 0.8994 56
-6.4922 -7.6172 -1.0479 228
-8.0156 -9.4062 1.0059 132
-6.5625 -7.699199999999999 -0.8228 166
-8.7891 -10.3047 1.7363 231
-6.859400000000001 -8.0469 -0.3677 36
-6.9297 -8.1328 1.6221 0
-13.218800000000002 -15.5156 -0.23739999999999997 138
-18.5781 -21.7969 5.043 149
-0.604 -0.7041 -0.1561 61
-13.335899999999999 -15.539100000000001 0.2386 160
-3.9316000000000004 -4.582 -0.9140999999999999 117
-13.335899999999999 -15.539100000000001 0.7134 224
-9.3594 -10.906199999999998 0.8334999999999999 191
-6.5039 -7.574199999999999 -1.0449 214
-8.0547 -9.3828 1.0059 166
-6.5859000000000005 -7.675800000000001 -0.8228 87
-7.8086 -9.1016 1.2559 173
-7.3438 -8.5547 1.4453 121
-6.8359000000000005 -7.9609000000000005 -0.36469999999999997 39
-6.921900000000001 -8.0625 1.6143 253
-13.3125 -15.5078 -0.23800000000000002 153
-18.5781 -21.6562 5.0234 106
-0.6113000000000001 -0.708 -0.1576 107
-3.9745999999999997 -4.6016 -0.9204000000000001 117
-13.4219 -15.539100000000001 0.7153 6
-9.4609 -10.9531 0.8393999999999999 160
-6.5039 -7.5312 -1.041 224
-8.1094 -9.3828 1.0098 219
-6.5898 -7.6289 -0.8198000000000001 54
-7.859400000000001 -9.1016 1.2588 75
-7.2773 -8.4297 1.4268 110
-6.824199999999999 -7.9023 -0.3628 164
-6.9765999999999995 -8.0781 1.6211000000000002 224
-13.3906 -15.5 -0.2386 136
-7.5625 -8.7578 2.0332 223
-0.6138 -0.7061 -0.1576 206
-13.4531 -15.476600000000001 0.2389 189
-4.0312 -4.6367 -0.9301999999999999 139
-13.5156 -15.539100000000001 0.7173 51
-9.4453 -10.8672 0.835 252
-6.5 -7.4765999999999995 -1.0371 39
-8.1641 -9.3906 1.0127 217
-6.605499999999999 -7.5977 -0.8188 224
-9.5312 -10.960899999999999 1.5225 92
-7.3477 -8.4531 1.4355000000000002 195
-6.8164 -7.8398 -0.3611 22
-7.0234000000000005 -8.0781 1.626 55
-12.976600000000001 -14.9219 -0.2303 227
-7.4453 -8.5625 1.9931999999999999 68
-0.6167 -0.7036 -0.1576 24
-13.593800000000002 -15.5 0.2402 26
-4.0586 -4.6328 -0.9326000000000001 129
-8.8438 -10.0859 0.4668 240
-13.6719 -15.593800000000002 1.2041 193
-6.4922 -7.4062 -1.0303 146
-8.1953 -9.3438 1.0117 140
-6.667999999999999 -7.605499999999999 -0.8228 222
-8.3516 -9.5312 1.3271000000000002 233
-7.3984000000000005 -8.4375 1.4385 204
-6.8086 -7.765599999999999 -0.3589 201
-7.2265999999999995 -8.2422 1.666 94
-12.968800000000002 -14.7969 -0.2291 187
-7.4609000000000005 -8.5078 1.9883000000000002 187
-0.6191 -0.7012 -0.1576 107
-13.6953 -15.5078 0.24109999999999998 87
-4.0625 -4.5977 -0.9292 82
-13.710899999999999 -15.523399999999999 0.7217 181
-9.375 -10.6172 0.8212999999999999 222
-6.5 -7.359400000000001 -1.0273 97
-8.2188 -9.3047 1.0107 155
-8.3672 -9.4766 1.3241999999999998 233
-7.1953 -8.1484 1.3925999999999998 82
-6.7852 -7.6836 -0.35619999999999996 158
-7.199199999999999 -8.1562 1.6522999999999999 70
-12.960899999999999 -14.6719 -0.228 226
-7.2852 -8.25 1.9336000000000002 86
-4.0234 -4.5234 -1.0595999999999999 242
-13.7969 -15.523399999999999 0.2419 93
-4.0898 -4.6016 -0.9320999999999999 201
-13.7969 -15.5156 0.7231000000000001 244
-9.4141 -10.593800000000002 0.8218000000000001 245
-6.5078 -7.3164 -1.0244 94
-8.25 -9.2812 1.0107 142
-8.3438 -9.3828 1.3154 175
-7.300800000000001 -8.2109 1.4082 76
-6.8164 -7.6640999999999995 -0.3564 167
-7.25 -8.1562 1.6572 110
-13.773399999999999 -15.4922 -0.2415 56
-7.394500000000001 -8.3203 1.9550999999999998 130
-4.0195 -4.4883 -1.0547 175
-4.0547 -4.5273 -0.9198999999999999 250
-8.75 -9.7734 0.4561 131
-9.4453 -10.5469 0.8208 78
-6.511699999999999 -7.269500000000001 -1.0215 200
-8.3203 -9.2969 1.0156 202
-8.2344 -9.1953 1.2930000000000001 131
-8.0781 -9.0234 1.5527000000000002 134
-6.8359000000000005 -7.6328 -0.35600000000000004 73
-7.296900000000001 -8.1484 1.6621000000000001 35
-7.4102 -8.2812 1.9521000000000002 196
-4.0742 -4.5234 -1.0664 213
-13.960899999999999 -15.5 0.243 180
-4.0742 -4.5195 -0.9214 19
-14.0 -15.539100000000001 0.7284999999999999 157
-14.031199999999998 -15.5703 1.2168 181
-6.5039 -7.2188 -1.0166 255
-8.3906 -9.3125 1.0195 102
-8.0781 -8.9688 1.2646 253
-7.234400000000001 -8.0312 1.3847999999999998 128
-6.8438 -7.5938 -0.3552 186
-7.2265999999999995 -8.0234 1.6396000000000002 149
-13.968800000000002 -15.5 -0.243 146
-7.2188 -8.0078 1.8936000000000002 37
-4.0898 -4.5078 -1.0664 170
-14.0703 -15.5156 0.244 213
-14.085899999999999 -15.531199999999998 0.7304999999999999 235
-14.1172 -15.5703 1.2197 0
-6.4922 -7.1562 -1.0107 128
-14.148399999999999 -15.593800000000002 1.7168 180
-7.7148 -8.5078 1.2021 22
-7.2773 -8.0234 1.3877000000000002 176
-6.855499999999999 -7.5547 -0.35450000000000004 175
-7.2109000000000005 -7.949199999999999 1.6299000000000001 143
-14.0703 -15.5078 -0.244 253
-7.2734000000000005 -8.0156 1.9013999999999998 145
-4.125 -4.5117 -1.0703 218
-14.1719 -15.5 0.2446 248
-4.2344 -4.6328 -0.9506999999999999 23
-8.875 -9.7031 0.4573 178
-14.226600000000001 -15.5625 1.2236 28
-6.5039 -7.113300000000001 -1.0088 119
-14.226600000000001 -15.5625 1.7187999999999999 1
-7.6875 -8.4062 1.1934 201
-7.328099999999999 -8.0156 1.3916 248
-6.8477 -7.488300000000001 -0.3525 85
-7.2422 -7.917999999999999 1.6299000000000001 84
-14.1719 -15.5 -0.24480000000000002 129
-7.2812 -7.9609000000000005 1.8955000000000002 151
-14.289100000000001 -15.5078 0.2457 186
-4.2539 -4.6172 -0.9506999999999999 151
-8.9297 -9.6953 0.4585 124
-10.601600000000001 -11.5078 0.9077 213
-6.511699999999999 -7.0703 -1.0059 30
-14.3203 -15.5469 1.7227000000000001 35
-6.3711 -6.917999999999999 -0.7646 110
-7.625 -8.2812 1.1787 163
-8.3281 -9.0391 1.5752000000000002 234
-6.886699999999999 -7.4765999999999995 -0.3533 66
-7.324199999999999 -7.953099999999999 1.6425999999999998 154
-14.2656 -15.4922 -0.24539999999999998 100
-7.324199999999999 -7.953099999999999 1.8994 134
-14.406199999999998 -15.531199999999998 0.2468 250
-4.2812 -4.6172 -0.9536 222
-10.718800000000002 -11.5625 0.9146 78
-6.5234000000000005 -7.0352 -1.0039 92
-14.4297 -15.5625 1.7294999999999998 39
-6.386699999999999 -6.886699999999999 -0.7637 56
-7.609400000000001 -8.2031 1.1709 4
-7.5586 -8.1484 1.4238 80
-6.894500000000001 -7.4336 -0.35229999999999995 172
-7.3359000000000005 -7.9140999999999995 1.6387 30
-14.3672 -15.4922 -0.2462 236
-7.355499999999999 -7.9336 1.9003999999999999 205
-14.4844 -15.5078 0.2473 155
-4.3125 -4.6172 -0.9565 225
-6.5 -6.9609000000000005 -1.2197 97
-14.531199999999998 -15.5625 1.2363 81
-6.515599999999999 -6.980499999999999 -0.9990000000000001 25
-8.7422 -9.3672 1.043 46
-6.4140999999999995 -6.8711 -0.7642 51
-7.703099999999999 -8.25 1.1816 88
-7.5625 -8.1016 1.4199000000000002 13
-6.921900000000001 -7.4140999999999995 -0.35229999999999995 86
-10.7578 -11.5156 2.3965 214
-14.460899999999999 -15.4844 -0.2468 215
-7.3438 -7.8672 1.8906 155
-14.601600000000001 -15.531199999999998 0.2484 141
-4.3281 -4.6055 -0.9575 101
-6.5 -6.9140999999999995 -1.2158 91
-14.6172 -15.5469 1.2383 173
-6.5078 -6.921900000000001 -0.9941 107
-8.7656 -9.3281 1.042 107
-6.4414 -6.8515999999999995 -0.7646 73
-7.734400000000001 -8.2266 1.1816 219
-7.6015999999999995 -8.0859 1.4228999999999998 178
-6.949199999999999 -7.390599999999999 -0.3525 250
-10.7031 -11.3828 2.375 166
-14.5547 -15.476600000000001 -0.24760000000000001 40
-7.9453 -8.4531 2.0391 247
-4.3242 -4.5664 -1.1016 50
-14.6797 -15.5078 0.2488 55
-4.3438 -4.5898 -0.9575 228
-6.5 -6.8672 -1.2109 165
-14.710899999999999 -15.5469 1.2431999999999999 14
-6.5078 -6.8789 -0.9906999999999999 50
-7.953099999999999 -8.4062 0.9414 206
-6.4648 -6.832000000000001 -0.7646 63
-7.6953 -8.1328 1.1729 224
-7.6172 -8.0469 1.4199000000000002 187
-6.953099999999999 -7.3477 -0.3513 38
-7.6640999999999995 -8.1016 1.6943000000000001 38
-14.6328 -15.468800000000002 -0.248 156
-7.9765999999999995 -8.4297 2.0391 95
-4.3672 -4.5859 -1.1094 227
-14.773399999999999 -15.5 0.2495 117
-4.3906 -4.6055 -0.9639 200
-6.4922 -6.8125 -1.2051 219
-14.8203 -15.5547 1.2470999999999999 76
-6.519500000000001 -6.8398 -0.9883 62
-7.949199999999999 -8.3438 0.9375 188
-7.6289 -8.0078 1.1572 176
-6.6328 -6.9609000000000005 -0.5566 253
-7.640599999999999 -8.0156 1.4188999999999998 9
-6.984400000000001 -7.332000000000001 -0.3518 239
-7.7148 -8.0938 1.6982 171
-12.8281 -13.460899999999999 -0.21660000000000001 191
-7.859400000000001 -8.2422 2.002 63
-4.3828 -4.5664 -1.1084 113
-14.875 -15.5078 0.2505 11
-6.5039 -6.7773 -1.4258000000000002 43
-6.4922 -6.769500000000001 -1.2012 28
-10.8906 -11.351600000000001 0.9126000000000001 16
-6.5234000000000005 -6.800800000000001 -0.9863 131
-8.9375 -9.3125 1.0508 220
-7.6836 -8.0078 1.1621 89
-6.640599999999999 -6.921900000000001 -0.5557 238
-7.640599999999999 -7.9648 1.4141 93
-7.019500000000001 -7.3203 -0.35229999999999995 177
-7.7265999999999995 -8.0547 1.6953 33
-12.835899999999999 -13.3828 -0.2159 26
-7.9023 -8.2344 2.0059 111
-7.5859000000000005 -7.8477 -1.9169999999999998 42
-14.9844 -15.5078 0.25120000000000003 249
-6.519500000000001 -6.7461 -1.4238 99
-9.5859 -9.9141 0.4797 168
-6.4922 -6.7188 -1.1963 245
-9.4062 -9.7344 0.7847 231
-6.5273 -6.7539 -0.9829000000000001 24
-11.0625 -11.4531 1.2969 226
-7.730499999999999 -8.0 1.165 170
-6.636699999999999 -6.8672 -0.5527000000000001 43
-7.6836 -7.953099999999999 1.4169999999999998 236
-7.0625 -7.3086 -0.3533 226
-7.7461 -8.0156 1.6934 193
-12.8281 -13.273399999999999 -0.215 125
-7.769500000000001 -8.0391 1.9638999999999998 223
-7.625 -7.8359000000000005 -1.9209 151
-9.5156 -9.7812 0.15869999999999998 83
-6.5078 -6.6875 -1.4169999999999998 216
-9.625 -9.8906 0.48 96
-6.4961 -6.675800000000001 -1.1924 137
-7.886699999999999 -8.1016 0.6553 242
-6.5273 -6.707000000000001 -0.9790000000000001 244
-8.9453 -9.1875 1.0439 35
-7.6914 -7.9062 1.1553 117
-6.636699999999999 -6.8203 -0.5513 26
-7.7422 -7.953099999999999 1.4219 6
-7.078099999999999 -7.2734000000000005 -0.3525 145
-7.765599999999999 -7.980499999999999 1.6913999999999998 32
-9.4844 -9.7422 -0.15810000000000002 136
-7.792999999999999 -8.0078 1.9628999999999999 210
-7.6640999999999995 -7.8203 -1.9228999999999998 254
-9.5312 -9.7266 0.15839999999999999 50
-6.4922 -6.625 -1.4082 151
-9.625 -9.8203 0.4783 235
-6.4922 -6.625 -1.1875 16
-7.9023 -8.0625 0.6543000000000001 199
-6.5273 -6.6602 -0.9756 249
-7.7890999999999995 -7.949199999999999 0.9057999999999999 153
-6.625 -6.761699999999999 -0.7695000000000001 211
-7.7422 -7.9023 1.1582 76
-6.6562 -6.7890999999999995 -0.5503 255
-7.8125 -7.9727 1.4297 144
-7.113300000000001 -7.2578 -0.353 8
-7.7812 -7.9375 1.6885 163
-9.5078 -9.7031 -0.158 33
-7.8125 -7.9727 1.9609 172
-6.574199999999999 -6.6640999999999995 -1.6436000000000002 75
-9.5703 -9.6953 0.15839999999999999 204
-6.488300000000001 -6.574199999999999 -1.4013999999999998 255
-9.5547 -9.6875 0.47340000000000004 61
-6.488300000000001 -6.578099999999999 -1.1826 62
-7.8515999999999995 -7.957000000000001 0.6479 241
-6.5273 -6.613300000000001 -0.9722 184
-7.832000000000001 -7.9375 0.9072 191
-6.6836 -6.7734000000000005 -0.7734000000000001 129
-7.7890999999999995 -7.890599999999999 1.1611 201
-7.8477 -7.953099999999999 1.4316 27
-7.1562 -7.25 -0.354 244
-7.7734000000000005 -7.875 1.6806999999999999 217
-9.5391 -9.6719 -0.158 178
-7.7461 -7.8477 1.9365 176
-6.542999999999999 -6.5859000000000005 -1.6299000000000001 108
-9.6328 -9.6953 0.1589 32
-6.4922 -6.5312 -1.3975 144
-9.5859 -9.6484 0.4731 247
-6.480499999999999 -6.5234000000000005 -1.1777 42
-7.859400000000001 -7.9102 0.6459999999999999 88
-6.5312 -6.5703 -0.9688 15
-7.8672 -7.9140999999999995 0.9077 178
-6.5938 -6.636699999999999 -0.7606999999999999 125
-7.824199999999999 -7.875 1.1621 68
-7.890599999999999 -7.9414 1.4346 182
-7.207000000000001 -7.25 -0.3552 129
-7.796900000000001 -7.8477 1.6806999999999999 72
-8.1016 -8.1562 2.0195 97
-6.5312 -6.5273 -1.6211000000000002 85
-15.4453 -15.4375 0.2544 130
-9.6484 -9.6406 0.4746 199
-6.480499999999999 -6.4765999999999995 -1.1729 13
-7.9297 -7.925800000000001 0.6498999999999999 42
-6.5273 -6.5234000000000005 -0.9653 145
-7.9648 -7.9609000000000005 0.9165000000000001 4
-6.6015999999999995 -6.5977 -0.7587999999999999 83
-7.7852 -7.7812 1.1523 245
-11.2578 -11.25 2.043 252
-7.261699999999999 -7.2578 -0.3567 224
-7.9062 -7.8984000000000005 1.6972999999999998 28
-15.210899999999999 -15.2031 -0.2505 99
-8.0312 -8.0312 1.9950999999999999 183
-6.4688 -6.417999999999999 -1.5996000000000001 69
-15.5625 -15.4375 0.2554 165
-6.5273 -6.4765999999999995 -1.3955000000000002 231
-10.6953 -10.6094 0.5244 230
-6.480499999999999 -6.4297 -1.1689 204
-7.957000000000001 -7.894500000000001 0.6494 16
-6.5273 -6.4765999999999995 -0.9619 101
-8.0312 -7.9688 0.9204000000000001 198
-6.5938 -6.5390999999999995 -0.7548999999999999 240
-7.8477 -7.7852 1.1572 166
-11.3047 -11.218800000000002 2.043 71
-7.2812 -7.2227 -0.35619999999999996 28
-7.921900000000001 -7.859400000000001 1.6943000000000001 48
-15.351600000000001 -15.226600000000001 -0.252 70
-7.8086 -7.7461 1.9316 35
-15.6953 -15.460899999999999 0.2568 87
-6.515599999999999 -6.417999999999999 -1.3877000000000002 56
-10.718800000000002 -10.5547 0.5234000000000001 86
-6.488300000000001 -6.390599999999999 -1.166 92
-7.9922 -7.8711 0.6498999999999999 117
-6.5273 -6.4297 -0.9584999999999999 108
-8.0312 -7.9140999999999995 0.9175 162
-6.5938 -6.4961 -0.7524 46
-7.949199999999999 -7.828099999999999 1.168 83
-7.8164 -7.699199999999999 1.4053 101
-7.3398 -7.230499999999999 -0.3582 24
-7.9375 -7.8203 1.6924000000000001 56
-15.4531 -15.226600000000001 -0.2527 140
-7.8359000000000005 -7.7188 1.9316 227
-6.5078 -6.3672 -1.5977000000000001 220
-15.8047 -15.460899999999999 0.2576 12
-6.484400000000001 -6.3438 -1.3769999999999998 209
-10.710899999999999 -10.476600000000001 0.5215 171
-6.4727 -6.332000000000001 -1.1592 177
-8.0156 -7.8398 0.6494 3
-6.542999999999999 -6.3984000000000005 -0.9570000000000001 101
-15.8828 -15.539100000000001 1.8115 45
-6.5898 -6.449199999999999 -0.7495 24
-7.9453 -7.7734000000000005 1.1641 254
-7.921900000000001 -7.75 1.4199000000000002 238
-7.9688 -7.792999999999999 1.6934 160
-15.5625 -15.226600000000001 -0.25370000000000004 81
-8.7422 -8.5547 2.1484 200
-6.546900000000001 -6.359400000000001 -1.6016 118
-15.906199999999998 -15.4531 0.2585 52
-6.5078 -6.3203 -1.3769999999999998 252
-10.835899999999999 -10.523399999999999 0.5259 251
-6.4727 -6.2890999999999995 -1.1553 42
-8.0234 -7.792999999999999 0.6479 247
-6.542999999999999 -6.355499999999999 -0.9541 104
-8.2031 -7.9688 0.9307 28
-6.605499999999999 -6.417999999999999 -0.7484999999999999 219
-7.9765999999999995 -7.75 1.1641 210
-7.9336 -7.707000000000001 1.4169999999999998 217
-7.417999999999999 -7.207000000000001 -0.3594 89
-7.9414 -7.7148 1.6816 152
-15.585899999999999 -15.1406 -0.2532 245
-8.0156 -7.7890999999999995 1.9638999999999998 137
-6.4727 -6.25 -1.5791 218
-16.0 -15.4453 0.259 158
-6.4922 -6.265599999999999 -1.3691 160
-16.2031 -15.6406 0.7847 172
-6.480499999999999 -6.2578 -1.1533 124
-8.1094 -7.832000000000001 0.6533 96
-6.5312 -6.3047 -0.9497 235
-16.0625 -15.5078 1.8203 3
-7.953099999999999 -7.675800000000001 1.1572 224
-7.984400000000001 -7.707000000000001 1.4219 194
-7.4922 -7.234400000000001 -0.3618 147
-7.957000000000001 -7.6836 1.6806999999999999 153
-15.664100000000001 -15.125 -0.25370000000000004 185
-8.0625 -7.7812 1.9678 4
-6.4727 -6.207000000000001 -1.5732 88
-6.5039 -6.238300000000001 -1.3672 233
-16.2812 -15.6094 0.7856000000000001 146
-6.4727 -6.207000000000001 -1.1484 47
-8.125 -7.792999999999999 0.6523 154
-6.5352 -6.265599999999999 -0.9468000000000001 60
-16.1719 -15.5156 1.8271000000000002 190
-7.921900000000001 -7.5977 1.1494 234
-7.980499999999999 -7.6562 1.4169999999999998 235
-7.5625 -7.2539 -0.364 238
-8.0156 -7.6875 1.6875 13
-15.9297 -15.273399999999999 -0.2571 75
-8.0703 -7.738300000000001 1.9638999999999998 44
-6.4922 -6.1797 -1.5732 25
-6.484400000000001 -6.175800000000001 -1.3594 151
-16.3438 -15.5625 0.7861 131
-6.480499999999999 -6.167999999999999 -1.1455 151
-16.2969 -15.5156 1.3066 118
-6.542999999999999 -6.230499999999999 -0.9453 179
-17.75 -16.8906 1.9971 120
-7.9648 -7.5859000000000005 1.1514 143
-8.0156 -7.6289 1.4180000000000001 180
-7.625 -7.2578 -0.3657 25
-8.1172 -7.7265999999999995 1.7021000000000002 187
-8.0391 -7.6562 1.9502000000000002 41
-6.480499999999999 -6.1289 -1.5654 203
-6.511699999999999 -6.1562 -1.3594 13
-16.375 -15.476600000000001 0.7852 247
-6.4765999999999995 -6.1211 -1.1406 113
-8.3594 -7.9062 0.667 2
-6.5586 -6.199199999999999 -0.9438 218
-9.8125 -9.2734 1.0986 15
-8.0234 -7.5859000000000005 1.1562000000000001 232
-8.0547 -7.609400000000001 1.4199000000000002 172
-16.3281 -15.4297 -0.7827 30
-8.0938 -7.6523 1.6924000000000001 114
-16.1875 -15.2969 -0.2595 96
-8.1562 -7.707000000000001 1.9707 159
-6.511699999999999 -6.113300000000001 -1.5674000000000001 57
-6.519500000000001 -6.1211 -1.3574000000000002 244
-16.4531 -15.4375 0.7856000000000001 38
-6.4765999999999995 -6.078099999999999 -1.1367 44
-8.3438 -7.832000000000001 0.6631 99
-6.5664 -6.1640999999999995 -0.9423999999999999 120
-9.8359 -9.2344 1.0986 185
-6.9375 -6.511699999999999 -0.7734000000000001 117
-8.0938 -7.5938 1.1621 127
-7.9609000000000005 -7.4727 1.3994 251
-16.4219 -15.4219 -0.7852 139
-8.125 -7.6289 1.6934 184
-16.4219 -15.4219 -0.2627 24
-8.1797 -7.675800000000001 1.9707 18
-6.511699999999999 -6.0703 -1.5625 38
-6.5273 -6.0859000000000005 -1.3544999999999998 198
-16.5312 -15.414100000000001 0.7876000000000001 154
-6.488300000000001 -6.046900000000001 -1.1357 195
-16.5781 -15.460899999999999 1.3163999999999998 189
-6.582000000000001 -6.1328 -0.9409000000000001 227
-9.8047 -9.1406 1.0918 127
-6.9609000000000005 -6.488300000000001 -0.7734000000000001 252
-8.1016 -7.5547 1.1602 160
-7.9609000000000005 -7.421900000000001 1.3944999999999999 46
-16.5156 -15.398399999999999 -0.7866 75
-8.1719 -7.613300000000001 1.6963 34
-16.5 -15.3828 -0.26289999999999997 161
-8.25 -7.6875 1.9805000000000001 189
-6.5273 -6.0390999999999995 -1.5605000000000002 117
-6.5039 -6.019500000000001 -1.3447 143
-16.6875 -15.4375 0.792 105
-6.4961 -6.011699999999999 -1.1338 153
-16.7188 -15.468800000000002 1.3222999999999998 125
-9.7266 -9.0 1.0791 87
-6.9102 -6.394500000000001 -0.7656000000000001 224
-8.1406 -7.5312 1.1611 217
-7.957000000000001 -7.363300000000001 1.3887 180
-16.5781 -15.343800000000002 -0.7870999999999999 78
-8.0938 -7.4922 1.6747999999999998 62
-16.625 -15.3906 -0.2642 84
-8.2812 -7.6640999999999995 1.9813999999999998 110
-6.484400000000001 -5.957000000000001 -1.5449000000000002 8
-16.8594 -15.5 0.2668 188
-6.5312 -6.0 -1.3457 99
-16.7969 -15.4297 0.7944 35
-6.5078 -5.980499999999999 -1.1309 194
-16.8438 -15.476600000000001 1.3281 86
-6.5898 -6.0547 -0.9359999999999999 5
-9.75 -8.9609 1.0781 99
-8.2266 -7.5625 1.1699 112
-7.980499999999999 -7.332000000000001 1.3887 152
-16.75 -15.3906 -0.7925 51
-8.1797 -7.511699999999999 1.6865 33
-16.7656 -15.414100000000001 -0.26539999999999997 214
-8.2734 -7.605499999999999 1.9746000000000001 102
-6.5 -5.9336 -1.5438999999999998 202
-6.4922 -5.925800000000001 -1.334 32
-16.9062 -15.4219 0.7974 58
-6.511699999999999 -5.9414 -1.1279000000000001 213
-12.835899999999999 -11.710899999999999 1.0078 126
-6.613300000000001 -6.0352 -0.9365000000000001 66
-9.7812 -8.9219 1.0781 166
-8.5938 -7.8398 1.2178 153
-8.0781 -7.3711 1.4013999999999998 252
-16.8438 -15.375 -0.7948999999999999 40
-8.1875 -7.4688 1.6836000000000002 193
-8.3203 -7.5898 1.9785 13
-6.519500000000001 -5.9062 -1.5438999999999998 50
-12.843800000000002 -11.6328 0.2018 197
-6.5039 -5.890599999999999 -1.3311000000000002 6
-12.8125 -11.6094 0.6021 246
-6.5234000000000005 -5.9140999999999995 -1.127 189
-12.8047 -11.601600000000001 1.0029000000000001 234
-6.6328 -6.011699999999999 -0.9359999999999999 245
-10.0078 -9.0703 1.0996 17
-8.3359 -7.5547 1.1777 207
-8.0625 -7.3047 1.3936000000000002 236
-12.8203 -11.6094 -0.6021 163
-8.2344 -7.457000000000001 1.6875 228
-12.781199999999998 -11.5781 -0.20079999999999998 41
-8.4531 -7.6602 2.0039 56
-12.8281 -11.539100000000001 0.2009 213
-6.515599999999999 -5.859400000000001 -1.3300999999999998 154
-12.8125 -11.523399999999999 0.6001 102
-6.542999999999999 -5.886699999999999 -1.127 30
-12.8047 -11.523399999999999 1.0 124
-6.636699999999999 -5.9727 -0.9336 77
-10.0625 -9.0547 1.1016 20
-8.2578 -7.4297 1.1631 247
-8.0859 -7.2773 1.3936000000000002 179
-12.8125 -11.531199999999998 -0.6001 9
-8.2031 -7.3789 1.6758000000000002 18
-12.781199999999998 -11.5 -0.2002 74
-9.5625 -8.6094 2.2617 142
-6.511699999999999 -5.8203 -1.5322 247
-12.8281 -11.460899999999999 0.2002 138
-6.5234000000000005 -5.828099999999999 -1.3271000000000002 253
-12.8203 -11.4531 0.5986 134
-6.5547 -5.859400000000001 -1.125 141
-12.7969 -11.4375 0.9961 210
-6.6875 -5.9727 -0.938 114
-9.8047 -8.7578 1.0703 218
-8.5391 -7.6289 1.1992 245
-8.2266 -7.3477 1.4131 102
-12.8047 -11.4375 -0.5977 8
-8.2344 -7.355499999999999 1.6777000000000002 174
-12.7969 -11.4375 -0.1998 204
-9.5938 -8.5703 2.2617 59
-6.5312 -5.796900000000001 -1.5322 111
-12.851600000000001 -11.398399999999999 0.20010000000000003 76
-6.5312 -5.792999999999999 -1.3252000000000002 230
-12.8125 -11.3672 0.5962 228
-6.574199999999999 -5.832000000000001 -1.125 216
-12.7969 -11.3594 0.9926999999999999 41
-6.7188 -5.9609000000000005 -0.9395 216
-9.6875 -8.5938 1.0547 98
-8.6562 -7.6797 1.2119 96
-8.2891 -7.3515999999999995 1.4188999999999998 138
-12.8047 -11.3594 -0.5957 38
-8.2656 -7.332000000000001 1.6787 237
-12.8047 -11.3594 -0.19920000000000002 68
-12.789100000000001 -11.343800000000002 3.0058999999999996 224
-6.542999999999999 -5.765599999999999 -1.5303 10
-12.843800000000002 -11.3125 0.19920000000000002 170
-12.7969 -11.273399999999999 0.5938 121
-6.574199999999999 -5.792999999999999 -1.1220999999999999 44
-12.8047 -11.281199999999998 0.9902 144
-6.7227 -5.921900000000001 -0.937 220
-12.8125 -11.289100000000001 1.3916 128
-8.6641 -7.6289 1.209 66
-8.6953 -7.6562 1.4844 159
-12.8047 -11.281199999999998 -0.5942000000000001 30
-8.3359 -7.3438 1.6875 63
-12.781199999999998 -11.2578 -0.1984 195
-12.781199999999998 -11.2656 2.9961 168
-6.550800000000001 -5.730499999999999 -1.5272999999999999 159
-12.8281 -11.226600000000001 0.1985 14
-6.582000000000001 -5.761699999999999 -1.3271000000000002 208
-12.8047 -11.2031 0.5922999999999999 5
-6.6015999999999995 -5.7773 -1.123 28
-12.7969 -11.1953 0.9868000000000001 120
-6.6875 -5.855499999999999 -0.9297 231
-9.7578 -8.5391 1.0556999999999999 5
-8.7109 -7.6211 1.2119 64
-10.414100000000001 -9.1094 1.7744 40
-12.8047 -11.210899999999999 -0.5928 145
-10.710899999999999 -9.375 2.1641 208
-12.773399999999999 -11.1797 -0.19760000000000003 93
-12.7656 -11.1719 2.9844 252
-6.5703 -5.7109000000000005 -1.5272999999999999 245
-12.8125 -11.1328 0.19760000000000003 51
-6.6015999999999995 -5.738300000000001 -1.3271000000000002 226
-12.8047 -11.125 0.5903 253
-6.640599999999999 -5.7734000000000005 -1.127 54
-12.781199999999998 -11.1094 0.9829000000000001 245
-6.699199999999999 -5.824199999999999 -0.9287000000000001 105
-9.875 -8.5859 1.0654000000000001 94
-8.7734 -7.6289 1.2178 147
-10.351600000000001 -9.0 1.7588 220
-12.8047 -11.1328 -0.5908 23
-12.781199999999998 -11.1094 2.5762 51
-12.781199999999998 -11.1094 -0.1971 110
-10.0938 -8.7734 2.3496 146
-6.5938 -5.6875 -1.5283000000000002 224
-12.789100000000001 -11.031199999999998 0.1967 135
-6.613300000000001 -5.703099999999999 -1.3252000000000002 24
-12.8047 -11.039100000000001 0.5884 147
-12.789100000000001 -11.031199999999998 0.98 108
-6.7109000000000005 -5.7890999999999995 -0.9268000000000001 161
-12.7969 -11.039100000000001 1.3769999999999998 83
-8.7891 -7.5859000000000005 1.2158 165
-11.085899999999999 -9.5625 1.8779 197
-12.8047 -11.0469 -0.5889 126
-12.781199999999998 -11.023399999999999 2.5664 71
-12.781199999999998 -11.023399999999999 -0.19649999999999998 78
-10.7422 -9.2656 2.4941 73
-6.6211 -5.671900000000001 -1.5293 206
-12.789100000000001 -10.9531 0.196 177
-6.6289 -5.675800000000001 -1.3241999999999998 57
-12.789100000000001 -10.9531 0.5864 142
-12.8047 -10.968800000000002 0.978 164
-6.738300000000001 -5.7734000000000005 -0.9281999999999999 179
-9.8516 -8.4375 1.0556999999999999 97
-7.3789 -6.3203 -0.79 71
-8.8203 -7.5547 1.2158 45
-7.917999999999999 -6.7812 -0.604 158
-11.460899999999999 -9.8125 1.9346 244
-12.8047 -10.960899999999999 -0.5869 115
-8.3828 -7.175800000000001 1.6758000000000002 3
-12.773399999999999 -10.9453 -0.19579999999999997 95
-10.8125 -9.2578 2.502 254
-6.644500000000001 -5.6484000000000005 -1.5303 145
-12.8125 -10.898399999999999 0.19579999999999997 247
-6.6523 -5.6562 -1.3252000000000002 153
-12.781199999999998 -10.875 0.5845 16
-6.8086 -5.792999999999999 -1.1445 225
-12.8047 -10.8906 0.9751000000000001 74
-6.7812 -5.765599999999999 -0.9312 81
-12.789100000000001 -10.875 1.3672 12
-8.8438 -7.5234000000000005 1.2158 64
-7.890599999999999 -6.7109000000000005 -0.6001 217
-11.4844 -9.7656 1.9336000000000002 201
-12.789100000000001 -10.875 -0.5845 186
-10.6406 -9.0469 2.123 99
-12.7656 -10.8594 -0.19510000000000002 31
-10.968800000000002 -9.3281 2.5312 93
-6.667999999999999 -5.6289 -1.5312000000000001 8
-12.8125 -10.8203 0.19519999999999998 72
-6.6875 -5.6484000000000005 -1.3281 166
-12.781199999999998 -10.7969 0.5825 41
-6.8711 -5.8047 -1.1514 152
-12.781199999999998 -10.789100000000001 0.9706999999999999 167
-6.8359000000000005 -5.7734000000000005 -0.9359999999999999 203
-12.8125 -10.8203 1.3662 135
-8.8672 -7.488300000000001 1.2148 217
-12.781199999999998 -10.7969 -0.9706999999999999 90
-11.5547 -9.7578 1.9394999999999998 248
-12.789100000000001 -10.7969 -0.583 191
-12.773399999999999 -10.789100000000001 2.543 159
-12.7656 -10.781199999999998 -0.1946 141
-9.875 -8.3359 2.2715 100
-6.6914 -5.609400000000001 -1.5322 86
-12.8203 -10.75 0.1948 171
-6.7109000000000005 -5.6289 -1.3291 179
-12.781199999999998 -10.718800000000002 0.5811 15
-6.7812 -5.6875 -1.1328 206
-12.773399999999999 -10.718800000000002 0.9678 210
-6.8789 -5.769500000000001 -0.9390000000000001 142
-10.2188 -8.5703 1.0859 69
-9.9297 -8.3281 1.3584 206
-12.7656 -10.710899999999999 -0.9668000000000001 129
-12.7656 -10.7031 2.1367 164
-12.789100000000001 -10.726600000000001 -0.5811 13
-12.7656 -10.710899999999999 2.5352 97
-12.7578 -10.7031 -0.1938 31
-9.8906 -8.2969 2.2676 160
-6.7227 -5.6015999999999995 -1.5352000000000001 86
-12.789100000000001 -10.656199999999998 0.1938 155
-6.7227 -5.6015999999999995 -1.3281 58
-12.789100000000001 -10.656199999999998 0.5796 99
-12.773399999999999 -10.6406 0.9643999999999999 64
-6.894500000000001 -5.7461 -0.9384999999999999 10
-12.773399999999999 -10.6406 1.3544999999999998 211
-10.0234 -8.3516 1.3672 147
-12.773399999999999 -10.6406 -0.9643999999999999 216
-12.7578 -10.625 2.1309 99
-12.789100000000001 -10.656199999999998 -0.5796 144
-12.7578 -10.6328 2.5254 187
-12.7656 -10.6406 -0.1935 123
-6.75 -5.582000000000001 -1.5371000000000001 180
-12.7969 -10.585899999999999 0.1932 3
-6.7461 -5.578099999999999 -1.3281 71
-12.781199999999998 -10.5703 0.5771000000000001 252
-6.8164 -5.636699999999999 -1.1328 184
-12.773399999999999 -10.5625 0.9619 58
-6.9297 -5.730499999999999 -0.9404 169
-12.7656 -10.5547 1.3486000000000002 76
-7.5312 -6.2265999999999995 -0.7944 87
-9.9844 -8.2578 1.3574000000000002 110
-12.773399999999999 -10.5625 -0.9614 255
-12.75 -10.5469 2.123 63
-12.773399999999999 -10.5625 -0.5771000000000001 14
-12.7656 -10.5547 2.5195 170
-12.773399999999999 -10.5625 -0.1929 99
-9.9375 -8.2188 2.2656 194
-6.7734000000000005 -5.5625 -1.5381 15
-12.8203 -10.523399999999999 0.1931 248
-6.7812 -5.5664 -1.3311000000000002 173
-12.773399999999999 -10.4844 0.5752 224
-6.8203 -5.5977 -1.1299 23
-12.773399999999999 -10.4922 0.9590000000000001 202
-6.9648 -5.7188 -0.9423999999999999 104
-12.781199999999998 -10.4922 1.3466999999999998 102
-7.5312 -6.1836 -0.792 144
-9.9844 -8.1953 1.3525 129
-12.773399999999999 -10.4844 -0.9590000000000001 114
-12.7578 -10.476600000000001 2.1172 92
-12.781199999999998 -10.5 -0.5757 239
-12.7656 -10.476600000000001 2.5117 196
-12.7578 -10.476600000000001 -0.19210000000000002 238
-9.9375 -8.1641 2.2598 76
-6.796900000000001 -5.542999999999999 -1.5391 108
-12.7969 -10.4375 0.1923 66
-6.8125 -5.5547 -1.334 223
-12.7656 -10.414100000000001 0.5732 245
-6.8359000000000005 -5.574199999999999 -1.1289 9
-12.773399999999999 -10.414100000000001 0.9561 81
-7.0039 -5.7148 -0.9458 243
-12.773399999999999 -10.4219 1.3428 151
-7.5938 -6.1953 -0.7968999999999999 231
-12.6719 -10.335899999999999 1.7138999999999998 220
-12.75 -10.398399999999999 -0.9545999999999999 137
-12.7656 -10.406199999999998 2.1133 182
-12.781199999999998 -10.4219 -0.5742 213
-11.1406 -9.0859 2.1855 38
-12.7578 -10.406199999999998 -0.19149999999999998 243
-9.9219 -8.0859 2.25 68
-6.8164 -5.5234000000000005 -1.54 85
-12.789100000000001 -10.3594 0.19149999999999998 29
-6.8359000000000005 -5.5390999999999995 -1.335 253
-12.7656 -10.343800000000002 0.5718 148
-6.8672 -5.5625 -1.1318000000000001 29
-12.7578 -10.335899999999999 0.9521 44
-7.0312 -5.6953 -0.9468000000000001 198
-12.781199999999998 -10.351600000000001 1.3397999999999999 96
-7.6484000000000005 -6.1953 -0.8003 40
-12.664100000000001 -10.2578 1.709 11
-12.7578 -10.335899999999999 -0.9526 23
-12.75 -10.3281 2.1055 245
-12.781199999999998 -10.3594 -0.5728 231
-12.7344 -10.3203 2.4922 180
-12.7422 -10.3203 -0.1909 70
-9.9609 -8.0625 2.252 76
-6.855499999999999 -5.511699999999999 -1.5438999999999998 108
-12.781199999999998 -10.273399999999999 0.19079999999999997 74
-6.863300000000001 -5.515599999999999 -1.3359 35
-12.7656 -10.2656 0.5703 167
-6.9102 -5.550800000000001 -1.1348 16
-12.7656 -10.2578 0.9501999999999999 46
-7.0664 -5.6797 -0.9481999999999999 121
-12.7656 -10.2578 1.334 251
-7.6953 -6.1836 -0.8027 60
-12.6406 -10.1562 1.6991999999999998 126
-12.7578 -10.25 -0.9497 153
-12.7422 -10.2422 2.0977 36
-12.7656 -10.2578 -0.5703 145
-11.468800000000002 -9.2188 2.2363 100
-12.7578 -10.25 -0.19039999999999999 101
-6.9102 -5.511699999999999 -1.5508000000000002 90
-12.789100000000001 -10.2109 0.19039999999999999 160
-6.886699999999999 -5.4961 -1.3369 107
-12.7578 -10.1797 0.5684 229
-6.949199999999999 -5.546900000000001 -1.1377 20
-12.7578 -10.1797 0.9473 215
-7.109400000000001 -5.671900000000001 -0.9517 44
-12.7422 -10.1719 1.3281 0
-7.7539 -6.1875 -0.8066 125
-12.6797 -10.1172 1.7002000000000002 95
-12.75 -10.1797 -0.9468000000000001 223
