# .PCD v0.7 - Point Cloud Data file format
VERSION 0.7
FIELDS x y z intensity
SIZE 4 4 4 4
TYPE F F F F
COUNT 1 1 1 1
WIDTH 1330
HEIGHT 1
VIEWPOINT 0 0 0 1 0 0 0
POINTS 1330
DATA ascii
30.5781 21.7031 3.9355 49
17.6719 12.5469 -1.2588 242
29.1875 20.7344 -0.4177 189
0.6245 0.4404 -0.1273 91
8.3828 5.9102 -1.5575999999999999 20
37.75 26.6094 1.6103999999999998 226
9.5938 6.761699999999999 -1.5038999999999998 82
31.7031 22.3594 2.2539 94
11.4453 8.0703 -1.4678 7
30.8906 21.7812 3.0839999999999996 100
13.781199999999998 9.7188 -1.374 134
17.75 12.5156 -1.2617 80
29.4219 20.75 -0.4202 251
0.6294 0.4407 -0.1281 212
8.3438 5.8398 -1.5469 161
38.0625 26.6562 1.6211000000000002 182
9.6172 6.734400000000001 -1.5049000000000001 36
31.7344 22.2188 2.252 97
11.5 8.0547 -1.4707 38
31.1719 21.8281 3.1055 155
13.835899999999999 9.6875 -1.376 163
17.8594 12.5 -1.2656 57
29.6094 20.7344 -0.4219 29
0.6245 0.4338 -0.1267 161
8.3281 5.7890999999999995 -1.54 88
38.3438 26.6406 1.6279 200
9.6406 6.6953 -1.5038999999999998 49
43.3125 30.0938 3.0664 2
11.5469 8.0234 -1.4736000000000002 218
31.3594 21.7812 3.1151999999999997 236
13.914100000000001 9.6641 -1.3799000000000001 122
17.9688 12.4844 -1.2705 203
29.8594 20.7344 -0.4243 147
0.6616 0.45630000000000004 -0.1343 13
8.3281 5.7422 -1.5352000000000001 7
9.6641 6.667999999999999 -1.5049000000000001 66
43.3438 29.8906 3.0605 162
11.5781 7.988300000000001 -1.4736000000000002 136
13.976600000000001 9.6406 -1.3828 145
18.0781 12.460899999999999 -1.2744 14
30.0938 20.75 -0.4265 254
7.6015999999999995 5.203099999999999 -1.6172 196
8.3203 5.6914 -1.5303 59
38.8438 26.5938 1.6425999999999998 73
9.6875 6.6328 -1.5049000000000001 56
43.3125 29.6406 3.0507999999999997 167
11.625 7.957000000000001 -1.4766 74
14.039100000000001 9.6094 -1.3857 218
18.125 12.406199999999998 -1.2754 176
30.3281 20.7656 -0.429 134
7.636699999999999 5.1875 -1.6211000000000002 92
8.3203 5.6523 -1.5272999999999999 246
39.0938 26.5625 1.6494 223
9.7188 6.6015999999999995 -1.5059 171
43.2812 29.4062 3.0410000000000004 212
11.6797 7.9375 -1.4794999999999998 42
14.0781 9.5625 -1.3866999999999998 100
18.2344 12.3828 -1.2793 34
31.6094 21.4844 -0.446 226
7.6602 5.1640999999999995 -1.6221 79
39.5312 26.6562 0.5566 213
8.3359 5.6211 -1.5263999999999998 204
39.5312 26.6562 1.6631 240
9.7344 6.5664 -1.5049000000000001 187
43.3125 29.1875 3.0351999999999997 59
11.7344 7.9102 -1.4824000000000002 29
14.156199999999998 9.5469 -1.3916 169
18.3125 12.351600000000001 -1.2822 116
31.5781 21.2812 -0.4443 119
7.6836 5.144500000000001 -1.6230000000000002 162
8.3516 5.5898 -1.5253999999999999 222
9.75 6.5273 -1.5038999999999998 48
43.2812 28.9688 3.0273000000000003 73
11.789100000000001 7.890599999999999 -1.4863 137
14.210899999999999 9.5078 -1.3925999999999998 36
18.4062 12.3203 -1.2861000000000002 51
31.5938 21.1406 -0.4436 85
7.703099999999999 5.1172 -1.6230000000000002 206
8.3516 5.550800000000001 -1.5225 122
40.0312 26.6094 1.6768 48
9.7891 6.5 -1.5059 232
43.25 28.7344 3.0195 175
11.835899999999999 7.863300000000001 -1.4883000000000002 194
14.289100000000001 9.4922 -1.3975 235
18.4844 12.281199999999998 -1.2891 78
31.5938 20.9844 -0.4426 173
7.7539 5.1172 -1.6309 33
8.3672 5.515599999999999 -1.5215 113
40.3125 26.5781 1.6836000000000002 141
9.8125 6.4727 -1.5068000000000001 173
43.25 28.5312 3.0117000000000003 69
11.8906 7.8438 -1.4922 240
14.343800000000002 9.4609 -1.4003999999999999 157
18.6094 12.273399999999999 -1.2938999999999998 160
31.5938 20.8438 -0.44189999999999996 171
7.796900000000001 5.1016 -1.6357 132
8.3672 5.4765999999999995 -1.5186000000000002 254
9.8359 6.4375 -1.5068000000000001 36
43.25 28.2969 3.0039 208
11.125 7.2812 -1.3936000000000002 157
14.414100000000001 9.4297 -1.4033000000000002 74
18.7188 12.25 -1.2997999999999998 205
31.6562 20.7188 -0.44170000000000004 217
7.828099999999999 5.082 -1.6377000000000002 198
8.3906 5.449199999999999 -1.5186000000000002 219
9.8594 6.4023 -1.5068000000000001 218
43.25 28.0938 2.998 247
11.1797 7.261699999999999 -1.3965 195
14.460899999999999 9.3906 -1.4053 3
18.7812 12.1953 -1.2997999999999998 113
31.7188 20.5938 -0.4414 2
7.855499999999999 5.0625 -1.6406 103
8.4141 5.421900000000001 -1.5205000000000002 134
41.1562 26.5312 1.7080000000000002 63
9.8672 6.359400000000001 -1.5049000000000001 193
43.2188 27.8594 2.9901999999999997 49
11.2031 7.2227 -1.3965 123
14.5625 9.3828 -1.4121000000000001 218
18.8906 12.1797 -1.3056999999999999 112
31.8125 20.5 -0.44170000000000004 4
7.8672 5.0312 -1.6387 14
8.4297 5.390599999999999 -1.5194999999999999 64
41.5 26.5469 1.7187999999999999 10
9.8906 6.328099999999999 -1.5049000000000001 134
43.2188 27.6406 2.9824 189
11.226600000000001 7.1797 -1.3965 52
14.6172 9.3516 -1.4141 110
18.9844 12.1406 -1.3086000000000002 66
31.9844 20.4531 -0.44310000000000005 106
7.8711 4.9922 -1.6357 205
8.4297 5.3515999999999995 -1.5156 129
9.9297 6.300800000000001 -1.5068000000000001 231
43.2188 27.4375 2.9766000000000004 132
11.2656 7.1523 -1.3984 229
14.664100000000001 9.3047 -1.415 66
19.0625 12.093800000000002 -1.3105000000000002 154
32.25 20.4531 -0.4456 191
7.863300000000001 4.9531 -1.6309 153
8.4531 5.324199999999999 -1.5175999999999998 3
9.9531 6.265599999999999 -1.5078 33
43.2188 27.2188 2.9688 71
11.3125 7.125 -1.4013999999999998 177
14.7422 9.2812 -1.4188999999999998 42
19.2031 12.093800000000002 -1.3174000000000001 59
32.4688 20.4375 -0.44780000000000003 188
7.8672 4.9141 -1.6279 103
8.4766 5.296900000000001 -1.5175999999999998 223
9.9609 6.2265999999999995 -1.5059 9
43.2188 27.0 2.9629000000000003 154
11.3672 7.1015999999999995 -1.4043 241
14.7969 9.2422 -1.4219 34
19.2344 12.023399999999999 -1.3174000000000001 99
32.6875 20.4219 -0.45 108
7.8398 4.8633 -1.6191 104
8.5 5.269500000000001 -1.5186000000000002 34
9.9844 6.1875 -1.5049000000000001 198
11.398399999999999 7.0664 -1.4043 249
14.8906 9.2344 -1.4277000000000002 175
19.3594 12.0078 -1.3232 144
32.9062 20.4062 -0.4521 139
7.828099999999999 4.8164 -1.6133000000000002 49
8.5234 5.2422 -1.5186000000000002 214
10.0078 6.1562 -1.5059 142
43.1562 26.5625 2.9452999999999996 94
11.414100000000001 7.0234000000000005 -1.4043 234
14.9531 9.2031 -1.4306999999999999 217
19.4688 11.9844 -1.3281 57
33.1875 20.4219 -0.4546 108
7.828099999999999 4.7812 -1.6103999999999998 226
8.5078 5.199199999999999 -1.5146000000000002 103
10.0234 6.125 -1.5059 121
43.25 26.4219 2.9473000000000003 233
11.460899999999999 7.0039 -1.4072 133
15.0156 9.1719 -1.4336000000000002 186
19.5469 11.9453 -1.3300999999999998 70
33.4375 20.4219 -0.457 181
7.8359000000000005 4.7461 -1.6074000000000002 181
43.875 26.5781 0.5991 215
8.5156 5.1602 -1.5127000000000002 172
10.0547 6.0898 -1.5068000000000001 13
43.625 26.4375 2.9648000000000003 229
11.539100000000001 6.988300000000001 -1.4131 102
15.0703 9.1328 -1.4355000000000002 79
19.6562 11.914100000000001 -1.335 180
33.6875 20.4062 -0.4597 32
7.8398 4.7109 -1.6055000000000001 83
44.25 26.6094 0.603 70
8.5391 5.1328 -1.5127000000000002 240
43.0938 25.9062 1.7538999999999998 37
10.0703 6.050800000000001 -1.5059 247
43.9688 26.4375 2.9824 7
11.585899999999999 6.9648 -1.4169999999999998 147
15.1719 9.1172 -1.4424000000000001 81
19.7812 11.8906 -1.3397999999999999 104
33.9375 20.3906 -0.4619 221
7.8164 4.6641 -1.5966999999999998 5
44.5938 26.6094 0.6064 23
8.5547 5.1016 -1.5116999999999998 5
43.125 25.7344 1.7519999999999998 190
10.0703 6.0078 -1.5029 134
44.3125 26.4375 2.998 52
11.601600000000001 6.921900000000001 -1.415 17
15.2422 9.0938 -1.4463 209
19.875 11.851600000000001 -1.3437999999999999 238
34.1875 20.3906 -0.4646 243
7.800800000000001 4.6172 -1.5908000000000002 102
44.9375 26.5938 0.6099 207
8.5469 5.0625 -1.5078 253
44.7188 26.4844 1.8135 80
10.0938 5.9765999999999995 -1.5038999999999998 150
44.6562 26.4375 3.0176 79
11.625 6.8828 -1.415 221
15.2969 9.0547 -1.4482 163
19.9062 11.781199999999998 -1.3428 3
34.4375 20.4062 -0.4673 58
7.792999999999999 4.5742 -1.5859 161
45.25 26.5625 0.6128 178
8.5391 5.0156 -1.5038999999999998 226
45.0938 26.4531 1.8232 178
10.1172 5.9375 -1.5038999999999998 240
45.0 26.4062 3.0332 12
11.656199999999998 6.8438 -1.416 52
15.375 9.0234 -1.4521000000000002 43
20.0625 11.773399999999999 -1.3506 4
34.7188 20.3906 -0.47 194
7.800800000000001 4.543 -1.584 208
45.5938 26.5469 0.6162 121
8.5312 4.9688 -1.499 177
43.0 25.0312 1.7353999999999998 213
10.1484 5.9102 -1.5049000000000001 236
45.3438 26.4062 3.0507999999999997 9
11.7031 6.8125 -1.4180000000000001 142
15.414100000000001 8.9766 -1.4531 147
20.2031 11.7656 -1.3574000000000002 127
35.0312 20.3906 -0.4729 49
7.8125 4.5117 -1.584 62
45.9062 26.5 0.6187 170
8.5625 4.9453 -1.501 2
43.1562 24.9219 1.7383000000000002 34
10.1562 5.8672 -1.5029 22
45.6875 26.375 3.0664 59
11.7344 6.7812 -1.4199000000000002 183
15.5156 8.9609 -1.46 255
20.2656 11.710899999999999 -1.3594 237
35.2812 20.375 -0.4753 128
7.7852 4.4609 -1.5752000000000002 36
46.2812 26.5156 0.623 57
8.5859 4.918 -1.5019999999999998 114
46.0938 26.4062 1.8535 23
10.1641 5.824199999999999 -1.5019999999999998 254
44.9375 25.75 3.0117000000000003 70
11.7656 6.7422 -1.4209 194
15.585899999999999 8.9297 -1.4638999999999998 3
20.4062 11.6875 -1.3652000000000002 160
35.5625 20.375 -0.4783 110
7.792999999999999 4.4297 -1.5732 147
46.6562 26.5156 0.627 168
8.6016 4.8867 -1.5019999999999998 16
43.0625 24.4688 1.7275 186
10.1641 5.7734000000000005 -1.4980000000000002 13
44.25 25.1562 2.9589999999999996 146
11.8125 6.7109000000000005 -1.4228999999999998 109
15.656199999999998 8.8984 -1.4678 8
20.4844 11.648399999999999 -1.3691 105
35.8438 20.3594 -0.48119999999999996 36
7.7852 4.3867 -1.5684 203
8.6094 4.8516 -1.501 39
43.0938 24.2969 1.7256 40
10.1875 5.7422 -1.4980000000000002 146
44.2188 24.9219 2.9512 244
11.8281 6.667999999999999 -1.4228999999999998 240
12.148399999999999 6.8477 -1.1348 112
20.6094 11.6172 -1.374 242
36.125 20.3594 -0.4839 97
7.7890999999999995 4.3555 -1.5654 104
47.375 26.4844 0.6338 141
8.625 4.8242 -1.501 38
10.1875 5.6953 -1.4961000000000002 74
44.25 24.75 2.9473000000000003 169
11.8672 6.636699999999999 -1.4247999999999998 1
12.1094 6.7734000000000005 -1.1299 219
20.75 11.601600000000001 -1.3809 14
36.4062 20.3594 -0.48710000000000003 228
7.796900000000001 4.3242 -1.5644999999999998 99
47.7188 26.4688 0.6372 140
8.6484 4.793 -1.501 47
46.2188 25.6406 1.8447 69
10.1953 5.6523 -1.4941 217
11.843800000000002 6.5703 0.7856000000000001 233
11.906199999999998 6.605499999999999 -1.4268 108
11.914100000000001 6.609400000000001 1.1094 251
12.1094 6.7148 -1.1279000000000001 54
12.210899999999999 6.7734000000000005 -0.8101 150
12.1875 6.761699999999999 -0.4849 245
36.7188 20.3594 -0.4902 61
7.7734000000000005 4.2812 -1.5575999999999999 208
8.6797 4.7773 -1.5038999999999998 174
12.2031 6.7188 0.48460000000000003 68
10.1875 5.609400000000001 -1.4912 13
11.8281 6.511699999999999 0.7831999999999999 90
11.9375 6.5703 -1.4277000000000002 18
11.9375 6.5703 1.1094 219
12.1094 6.6640999999999995 -1.125 202
12.1797 6.703099999999999 -0.8062 224
12.1953 6.7148 -0.4844 67
12.164100000000001 6.6953 -0.16149999999999998 250
7.761699999999999 4.2383 -1.5518 99
12.2344 6.6836 0.16210000000000002 14
8.6875 4.7422 -1.5029 252
12.1797 6.6484000000000005 0.4827 72
10.2031 5.5703 -1.4902000000000002 118
11.8047 6.449199999999999 0.7803 148
11.968800000000002 6.5352 -1.4287 84
11.875 6.484400000000001 1.1016 148
12.1328 6.625 -1.125 249
12.2031 6.6640999999999995 -0.8066 243
12.210899999999999 6.667999999999999 -0.4839 118
12.1875 6.6562 -0.16149999999999998 252
12.1719 6.6484000000000005 2.4375 29
7.7812 4.2109 -1.5527000000000002 92
12.2578 6.6328 0.16210000000000002 157
8.7188 4.7148 -1.5049000000000001 227
12.210899999999999 6.605499999999999 0.4829 201
10.2266 5.5312 -1.4902000000000002 107
11.8281 6.4023 0.7803 173
12.0 6.4961 -1.4297 108
11.9844 6.484400000000001 1.1094 106
12.164100000000001 6.582000000000001 -1.126 244
12.2969 6.6523 1.4647999999999999 206
12.2578 6.6328 -0.8086 175
12.1953 6.5977 1.7783000000000002 193
12.25 6.6289 -0.48460000000000003 240
12.25 6.6289 2.1172 215
12.226600000000001 6.6172 -0.1617 203
12.1719 6.5859000000000005 2.4336 83
7.769500000000001 4.168 -1.5478999999999998 132
12.3203 6.609400000000001 0.16260000000000002 0
8.7188 4.6758 -1.5019999999999998 159
12.2344 6.5664 0.4832 65
10.2266 5.488300000000001 -1.4872999999999998 125
11.835899999999999 6.3515999999999995 0.7787999999999999 101
12.0156 6.449199999999999 -1.4287 237
11.8281 6.3477 1.0928 124
12.2578 6.578099999999999 -1.1328 146
21.2812 11.414100000000001 -1.4022999999999999 199
12.2344 6.5664 1.7812000000000001 247
12.273399999999999 6.5859000000000005 2.1172 13
12.3594 6.6328 -0.1632 123
12.1953 6.546900000000001 2.4336 27
7.792999999999999 4.1484 -1.5488 155
8.7578 4.6602 -1.5059 59
44.3125 23.5781 1.751 12
10.2266 5.4453 -1.4853999999999998 93
11.851600000000001 6.3047 0.7783 63
12.0547 6.4140999999999995 -1.4306999999999999 8
11.898399999999999 6.332000000000001 1.0977 40
12.3281 6.5625 -1.1367 17
21.4062 11.398399999999999 -1.4091999999999998 227
49.8438 26.5156 -0.6592 145
12.25 6.519500000000001 2.4395 167
7.7812 4.1055 -1.5438999999999998 157
8.7812 4.6328 -1.5078 143
44.4062 23.4219 1.751 170
10.25 5.4102 -1.4853999999999998 70
11.835899999999999 6.2461 0.7764 104
12.1172 6.394500000000001 -1.4355000000000002 27
16.3281 8.6172 -1.5049000000000001 235
21.5156 11.3594 -1.4131 114
44.4062 23.4375 -1.7519999999999998 232
50.375 26.5781 -0.665 104
7.792999999999999 4.082 -1.5438999999999998 108
8.8047 4.6094 -1.5088 12
44.6562 23.375 1.7578 80
10.2578 5.3711 -1.4834 8
11.843800000000002 6.203099999999999 0.7754000000000001 101
12.1172 6.3477 -1.4336000000000002 162
16.4375 8.6016 -1.5116999999999998 213
21.6406 11.3281 -1.4180000000000001 160
44.4688 23.2969 -1.7519999999999998 141
44.9062 23.5156 -0.5918 226
7.8203 4.0625 -1.5469 23
8.8281 4.5859 -1.5097999999999998 31
44.0938 22.8906 1.7324000000000002 160
10.273399999999999 5.3359000000000005 -1.4834 151
11.9375 6.203099999999999 0.7803 6
12.164100000000001 6.3203 -1.4365 235
16.5156 8.5781 -1.5166 83
21.75 11.2969 -1.4228999999999998 105
44.5 23.1094 -1.749 191
45.0312 23.3906 -0.5922999999999999 254
7.8477 4.0391 -1.5488 186
8.8359 4.5469 -1.5088 61
45.1875 23.25 1.7734 27
10.2969 5.300800000000001 -1.4844 44
12.8203 6.5977 0.8364 195
12.1875 6.2734000000000005 -1.4365 8
16.5938 8.5391 -1.5205000000000002 43
21.8281 11.2344 -1.4258000000000002 53
44.6562 22.9688 -1.7519999999999998 180
7.859400000000001 4.0117 -1.5488 124
8.8516 4.5156 -1.5088 48
46.25 23.5938 1.8105000000000002 151
10.2969 5.2539 -1.4813999999999998 236
44.0312 22.4531 2.873 143
12.2344 6.2422 -1.4385 6
16.6719 8.5 -1.5244 163
22.0 11.226600000000001 -1.4346 61
44.7188 22.8125 -1.7519999999999998 140
7.859400000000001 3.9745999999999997 -1.5459 197
8.8828 4.4922 -1.5116999999999998 242
45.0625 22.7969 1.7616999999999998 117
10.3125 5.2148 -1.4805000000000001 113
12.281199999999998 6.2109000000000005 -1.4413999999999998 36
100.0625 50.5938 9.1562 141
16.7656 8.4766 -1.5303 1
22.1094 11.1797 -1.4385 44
7.875 3.9492000000000003 -1.5459 97
8.9141 4.4688 -1.5137 15
45.0312 22.5781 1.7568000000000001 27
10.335899999999999 5.1797 -1.4813999999999998 250
45.4688 22.8125 2.957 162
12.3203 6.175800000000001 -1.4434 190
16.8438 8.4453 -1.5352000000000001 179
22.2188 11.1406 -1.4434 235
52.7812 26.4688 -0.6895 247
7.9023 3.9297000000000004 -1.5488 189
8.9297 4.4414 -1.5146000000000002 152
45.3125 22.5312 1.7656 142
10.3672 5.1562 -1.4834 6
52.6875 26.2031 3.4199 236
12.343800000000002 6.136699999999999 -1.4443000000000001 54
100.125 49.7812 9.1328 214
16.9531 8.4297 -1.5430000000000001 193
22.3438 11.1094 -1.4491999999999998 23
54.125 26.9219 -0.7061 171
7.921900000000001 3.9062 -1.5497999999999998 48
8.9453 4.4141 -1.5146000000000002 253
45.5312 22.4531 1.7705000000000002 9
10.375 5.1172 -1.4824000000000002 37
46.3438 22.8594 3.0039 51
12.3672 6.0977 -1.4443000000000001 236
99.9375 49.2812 9.0938 45
17.0 8.3828 -1.5449000000000002 53
22.4375 11.0625 -1.4531 231
54.0938 26.6875 -0.7045999999999999 67
7.9297 3.873 -1.5488 22
8.9844 4.3867 -1.5175999999999998 188
45.8438 22.3906 1.7803 32
10.351600000000001 5.0547 -1.4766 207
12.3828 6.046900000000001 -1.4434 248
100.0 48.8438 9.0859 178
17.0938 8.3438 -1.5497999999999998 7
22.5625 11.023399999999999 -1.4580000000000002 15
46.8125 22.8594 -1.8174000000000001 155
46.7188 22.8125 -0.6069 250
7.9297 3.8379000000000003 -1.5459 68
9.0 4.3555 -1.5186000000000002 31
47.1562 22.8281 1.8281 22
10.3594 5.0156 -1.4746000000000001 192
100.0 48.4062 6.4609000000000005 189
12.414100000000001 6.011699999999999 -1.4453 79
17.1562 8.3047 -1.5537 184
22.6875 10.9844 -1.4638999999999998 164
54.4688 26.375 -0.7070000000000001 189
7.953099999999999 3.8164 -1.5478999999999998 239
9.0156 4.3281 -1.5186000000000002 6
47.0 22.5625 1.8193000000000001 37
10.3906 4.9844 -1.4766 245
100.0 48.0 6.449199999999999 16
12.4297 5.9688 -1.4443000000000001 173
100.0 48.0 9.0547 146
17.25 8.2812 -1.5596 98
22.8438 10.960899999999999 -1.4716999999999998 230
7.957000000000001 3.7870999999999997 -1.5469 95
9.0312 4.3008 -1.5186000000000002 153
55.125 26.2344 2.1309 134
10.414100000000001 4.957 -1.4775 132
100.0625 47.625 6.4453 122
12.4531 5.925800000000001 -1.4453 82
99.875 47.5312 9.0312 62
17.2969 8.2266 -1.5605000000000002 55
22.8594 10.8828 -1.4707 30
7.9765999999999995 3.7617000000000003 -1.5478999999999998 149
9.0391 4.2656 -1.5175999999999998 17
55.5 26.1719 2.1406 175
10.4375 4.9219 -1.4794999999999998 42
100.25 47.2812 6.4453 214
12.476600000000001 5.886699999999999 -1.4453 233
99.875 47.125 9.0234 42
17.3906 8.2031 -1.5663999999999998 33
23.1094 10.898399999999999 -1.4834 92
46.3125 21.8438 -1.7861000000000002 245
8.0 3.7401999999999997 -1.5497999999999998 249
9.0469 4.2305 -1.5156 99
55.8438 26.1094 2.1504 71
10.460899999999999 4.8906 -1.4805000000000001 14
12.5 5.8477 -1.4463 112
99.875 46.7188 9.0078 246
17.4688 8.1641 -1.5713 225
23.1875 10.843800000000002 -1.4872999999999998 224
46.2188 21.6094 -1.7793 124
56.4688 26.4062 -0.728 196
8.0078 3.7051 -1.5478999999999998 90
9.1016 4.2148 -1.5234 45
56.4062 26.1094 2.168 162
10.4844 4.8555 -1.4813999999999998 59
12.531199999999998 5.800800000000001 -1.4472999999999998 125
17.5469 8.1172 -1.5752000000000002 180
23.3125 10.789100000000001 -1.4912 175
46.2188 21.3906 -1.7763999999999998 251
57.0 26.375 -0.7334 137
8.0156 3.6776999999999997 -1.5478999999999998 149
9.1172 4.1797 -1.5225 119
56.9375 26.125 2.1855 162
10.5078 4.8203 -1.4813999999999998 253
12.5625 5.761699999999999 -1.4472999999999998 150
99.9375 45.8438 8.9766 41
17.6406 8.0859 -1.5811000000000002 113
23.4688 10.7656 -1.5 204
46.25 21.2188 -1.7753999999999999 100
57.6562 26.4375 -0.7406999999999999 63
8.0312 3.6523000000000003 -1.5488 217
57.7812 26.2656 0.7412000000000001 183
9.125 4.1523 -1.5225 18
10.531199999999998 4.7891 -1.4834 23
12.5703 5.7148 -1.4472999999999998 146
99.9375 45.4375 8.9688 122
17.75 8.0703 -1.5888999999999998 8
19.4219 8.8281 -1.2383 106
45.125 20.5156 -1.7285 99
8.0547 3.6289 -1.5497999999999998 239
9.1328 4.1172 -1.5205000000000002 86
10.5547 4.7578 -1.4844 182
12.593800000000002 5.675800000000001 -1.4472999999999998 158
99.9375 45.0312 8.9531 124
17.7812 8.0156 -1.5897999999999999 160
46.375 20.8906 -1.7744 1
44.7812 20.1875 -0.5732 68
8.0781 3.6035000000000004 -1.5527000000000002 7
9.1719 4.0898 -1.5244 13
10.5781 4.7188 -1.4844 79
99.9375 44.5625 6.363300000000001 177
12.6328 5.636699999999999 -1.4491999999999998 156
99.8125 44.5312 8.9297 173
14.960899999999999 6.675800000000001 -1.335 94
15.0078 6.6953 -0.9536 133
44.9688 20.0469 -0.5747 194
8.0859 3.5742000000000003 -1.5518 194
9.1797 4.0586 -1.5244 201
10.593800000000002 4.6836 -1.4844 61
99.875 44.125 6.3515999999999995 132
12.6719 5.5977 -1.4512 214
99.8125 44.125 8.9141 164
14.906199999999998 6.5859000000000005 -1.3271000000000002 150
14.9375 6.6015999999999995 -0.9478 171
14.968800000000002 6.613300000000001 -0.5698 124
45.1562 19.9531 -0.5767 253
8.0938 3.5449 -1.5508000000000002 60
9.2031 4.0312 -1.5253999999999999 232
10.6094 4.6484 -1.4844 227
99.875 43.7188 6.3398 176
12.6719 5.546900000000001 -1.4491999999999998 17
99.875 43.7188 8.8984 32
14.914100000000001 6.5312 -1.3262 213
14.8828 6.515599999999999 -0.9423999999999999 163
14.9531 6.546900000000001 -0.5684 232
60.125 26.3281 -0.7666 16
8.125 3.5254000000000003 -1.5547 118
9.2031 3.9961 -1.5234 68
55.5625 24.1094 2.1133 65
10.6406 4.6172 -1.4863 122
12.7031 5.511699999999999 -1.4512 132
99.8125 43.3125 8.8828 252
14.9375 6.484400000000001 -1.3262 6
14.8828 6.4609000000000005 -0.9414 85
14.8828 6.4609000000000005 -0.5649000000000001 110
61.4375 26.6719 -0.7822 123
8.1406 3.498 -1.5556999999999999 138
9.2188 3.9608999999999996 -1.5234 111
10.6719 4.5859 -1.4883000000000002 38
12.726600000000001 5.4688 -1.4512 220
99.875 42.9062 8.875 233
14.875 6.390599999999999 -1.3184 141
14.8828 6.394500000000001 -0.9399 168
14.843800000000002 6.375 -0.5625 238
61.375 26.375 -0.7803 9
8.1719 3.4785000000000004 -1.5596 228
61.4375 26.1406 0.7803 22
9.2422 3.9336 -1.5253999999999999 199
55.8125 23.75 2.1172 189
10.6797 4.543 -1.4872999999999998 39
12.789100000000001 5.4414 -1.4561000000000002 112
99.8125 42.4688 8.8594 142
14.875 6.328099999999999 -1.3163999999999998 91
14.906199999999998 6.3438 -0.9399 81
14.8594 6.324199999999999 -0.562 213
61.625 26.2188 -0.7822 60
8.1719 3.4433999999999996 -1.5556999999999999 255
9.2656 3.9023000000000003 -1.5263999999999998 234
56.9375 24.0 2.1562 67
10.6797 4.5 -1.4853999999999998 122
12.8203 5.4023 -1.4580000000000002 90
99.75 42.0312 8.8359 60
14.9297 6.2890999999999995 -1.3193000000000001 103
14.914100000000001 6.2852 -0.9390000000000001 186
14.906199999999998 6.2812 -0.563 0
8.1875 3.418 -1.5575999999999999 208
9.2734 3.8691000000000004 -1.5253999999999999 217
10.7031 4.4648 -1.4863 27
12.835899999999999 5.355499999999999 -1.4569999999999999 13
99.75 41.625 8.8281 66
14.976600000000001 6.25 -1.3222999999999998 111
15.0078 6.265599999999999 -0.5664 237
8.2109 3.3945 -1.5596 77
9.2812 3.8379000000000003 -1.5253999999999999 205
10.7422 4.4375 -1.4893 49
12.851600000000001 5.3125 -1.4569999999999999 146
99.8125 41.2812 8.8203 163
14.9922 6.199199999999999 -1.3213 137
15.031199999999998 6.2148 -0.5664 46
8.2266 3.3691000000000004 -1.5596 207
9.2891 3.8047000000000004 -1.5244 70
10.7422 4.3984 -1.4883000000000002 141
12.8672 5.269500000000001 -1.4569999999999999 244
99.6875 40.8125 8.7969 80
15.0703 6.171900000000001 -1.3262 209
15.1797 6.2188 -0.9517 147
65.125 26.6719 -0.8223 47
8.2578 3.3438 -1.5635 164
9.3125 3.7714999999999996 -1.5253999999999999 229
10.7656 4.3594 -1.4883000000000002 61
12.906199999999998 5.2265999999999995 -1.459 79
99.75 40.4062 8.7891 111
15.164100000000001 6.140599999999999 -1.3319999999999999 69
15.2969 6.1953 -0.9575 89
16.1094 6.5273 -0.2024 184
8.2578 3.3105 -1.5605000000000002 0
16.1406 6.4765999999999995 0.2025 229
9.3516 3.752 -1.5303 113
16.1406 6.4688 0.6054999999999999 89
10.781199999999998 4.3242 -1.4893 8
16.1719 6.484400000000001 1.0107 151
12.9375 5.1875 -1.4609 162
16.2031 6.4961 1.4228999999999998 185
16.0938 6.453099999999999 -1.4121000000000001 93
16.0938 6.453099999999999 -1.0059 48
16.125 6.4648 -0.6045 165
16.0938 6.453099999999999 -0.20190000000000002 82
8.25 3.2773000000000003 -1.5575999999999999 52
16.125 6.4062 0.20199999999999999 151
9.3594 3.7207 -1.5293 236
16.1094 6.4023 0.604 168
10.8047 4.293 -1.4902000000000002 137
16.1094 6.4023 1.0068000000000001 112
12.976600000000001 5.1562 -1.4628999999999999 202
16.125 6.4102 1.4141 31
16.1094 6.4023 -1.4131 186
16.125 6.4062 1.8184 73
16.1094 6.3984000000000005 -1.0059 243
16.125 6.4062 2.2266 138
16.1406 6.4140999999999995 -0.6045 84
16.125 6.4062 2.6387 24
16.1094 6.3984000000000005 -0.2018 217
16.1094 6.4023 3.0507999999999997 27
8.2734 3.2558999999999996 -1.5605000000000002 216
16.125 6.3438 0.2018 81
9.3594 3.6836 -1.5272999999999999 150
16.125 6.3438 0.603 229
10.835899999999999 4.2656 -1.4922 183
16.1094 6.3398 1.0049 194
12.9922 5.1133 -1.4628999999999999 54
16.125 6.3438 1.4111000000000002 88
16.1562 6.355499999999999 -1.4141 30
16.125 6.3438 1.8163999999999998 92
16.1406 6.3515999999999995 -1.0068000000000001 40
16.0938 6.332000000000001 2.2188 178
16.1406 6.355499999999999 -0.604 7
16.125 6.3438 2.6348000000000003 221
16.1094 6.3398 -0.20149999999999998 44
16.125 6.3477 3.0488 14
8.2969 3.2266000000000004 -1.5625 18
16.1562 6.2890999999999995 0.20190000000000002 188
9.375 3.6483999999999996 -1.5272999999999999 139
16.1406 6.2773 0.603 215
10.851600000000001 4.2227 -1.4922 178
16.125 6.2773 1.0049 75
13.039100000000001 5.0742 -1.4658000000000002 158
16.125 6.269500000000001 1.4091999999999998 41
16.2031 6.300800000000001 -1.416 108
16.1406 6.2812 1.8154 161
16.2188 6.3086 -1.0098 103
16.125 6.269500000000001 2.2188 7
16.1875 6.300800000000001 -0.605 81
16.1406 6.2773 2.6348000000000003 50
16.1875 6.296900000000001 -0.2021 12
16.1406 6.2812 3.0469 106
8.3203 3.2031 -1.5644999999999998 220
16.2031 6.238300000000001 0.2021 123
9.3906 3.6172000000000004 -1.5283000000000002 163
16.1719 6.230499999999999 0.6035 24
10.8594 4.1797 -1.4912 100
16.1719 6.230499999999999 1.0059 38
13.085899999999999 5.0391 -1.4687999999999999 109
16.1562 6.2227 1.4111000000000002 125
16.2812 6.269500000000001 -1.4219 74
16.1875 6.230499999999999 1.8184 146
19.2656 7.417999999999999 -1.1982 180
16.1719 6.2227 2.2227 169
16.3125 6.2812 -0.6089 150
16.1875 6.230499999999999 2.6387 26
16.25 6.2578 -0.2028 134
16.1875 6.234400000000001 3.0507999999999997 23
8.3359 3.1757999999999997 -1.5654 40
16.3594 6.234400000000001 0.2039 62
9.4297 3.5938 -1.5322 74
16.2344 6.1875 0.605 134
10.8672 4.1406 -1.4902000000000002 207
16.25 6.1914 1.0088 92
13.125 5.0039 -1.4716999999999998 85
16.25 6.1914 1.4169999999999998 147
17.7188 6.75 -1.5449000000000002 34
16.2656 6.1953 1.8241999999999998 213
19.2812 7.3515999999999995 -1.1982 3
16.2344 6.1836 2.2285 110
16.2656 6.1953 2.6464999999999996 112
8.3281 3.1406 -1.5625 152
9.4375 3.5586 -1.5312000000000001 200
10.898399999999999 4.1094 -1.4922 110
57.8125 21.7969 3.5918 134
13.156199999999998 4.9609 -1.4727000000000001 103
99.9375 37.6875 8.7188 216
17.75 6.6914 -1.5459 109
19.3125 7.2812 -1.1982 161
8.3516 3.1191000000000004 -1.5644999999999998 68
9.4531 3.5312 -1.5322 50
10.906199999999998 4.0742 -1.4922 189
17.9375 6.699199999999999 1.1113 177
13.1719 4.9219 -1.4736000000000002 129
17.7812 6.640599999999999 -1.5469 118
17.8125 6.6523 -0.6620999999999999 28
17.8281 6.6602 -0.2217 80
8.375 3.0976999999999997 -1.5674000000000001 159
17.8906 6.6172 0.22219999999999998 62
9.4609 3.4961 -1.5312000000000001 187
17.8594 6.6015999999999995 0.6631 120
10.9375 4.043 -1.4941 127
17.9375 6.6289 1.1094 28
13.210899999999999 4.8867 -1.4766 182
99.9375 36.9375 8.7031 115
17.8906 6.613300000000001 -1.5547 255
19.4688 7.1953 -1.2051 216
17.8594 6.6015999999999995 -0.2217 135
8.4062 3.0683999999999996 -1.5703 193
9.4922 3.4648000000000003 -1.5341999999999998 221
10.9375 3.9961 -1.4931999999999999 199
17.9531 6.5547 1.1094 176
13.25 4.8398 -1.4785 64
100.0 36.5 8.6875 96
17.9531 6.5586 -1.5575999999999999 45
19.5938 7.1562 -1.2109 173
8.3984 3.0312 -1.5663999999999998 36
9.5156 3.4355 -1.5361000000000002 225
10.9531 3.9551 -1.4931999999999999 110
17.9531 6.480499999999999 1.1074 217
13.2969 4.8008 -1.4813999999999998 223
100.0 36.0938 8.6797 78
18.0156 6.5039 -1.5605000000000002 144
19.8438 7.1640999999999995 -1.2246 75
21.7969 7.8672 -0.27 151
8.4062 3.0058999999999996 -1.5663999999999998 199
9.5234 3.4043 -1.5352000000000001 145
10.976600000000001 3.9238 -1.4931999999999999 207
13.3281 4.7656 -1.4824000000000002 23
99.9375 35.75 8.6641 71
18.0469 6.453099999999999 -1.5615 80
19.9844 7.1484000000000005 -1.2324 77
21.8125 7.800800000000001 -0.27 174
8.4219 2.9805 -1.5684 66
9.5391 3.375 -1.5361000000000002 44
68.8125 24.3438 2.5469 56
10.9844 3.8887 -1.4931999999999999 193
13.343800000000002 4.7227 -1.4824000000000002 183
99.875 35.3438 8.6484 168
18.125 6.4140999999999995 -1.5663999999999998 190
20.1875 7.1484000000000005 -1.2441 145
8.4297 2.9473000000000003 -1.5674000000000001 92
9.5469 3.3358999999999996 -1.5352000000000001 68
11.0156 3.8495999999999997 -1.4950999999999999 17
71.0625 24.8281 4.375 31
13.398399999999999 4.6836 -1.4872999999999998 177
99.875 34.9062 8.6406 129
18.1719 6.3515999999999995 -1.5693000000000001 40
8.4531 2.918 -1.5693000000000001 176
9.5625 3.3007999999999997 -1.5361000000000002 37
11.023399999999999 3.8066000000000004 -1.4941 239
71.3125 24.625 4.3867 191
13.4297 4.6367 -1.4883000000000002 36
99.875 34.5 8.625 230
18.2031 6.2890999999999995 -1.5703 231
20.6875 7.144500000000001 -0.7626999999999999 142
8.4688 2.8926 -1.5703 23
9.5781 3.2733999999999996 -1.5361000000000002 129
11.031199999999998 3.7714999999999996 -1.4941 135
13.460899999999999 4.6016 -1.4912 190
99.8125 34.125 8.6172 8
18.2812 6.25 -1.5752000000000002 107
20.6875 7.0703 -0.7617 2
8.4609 2.8594 -1.5663999999999998 121
9.5781 3.2363 -1.5352000000000001 80
11.0547 3.7363 -1.4950999999999999 21
68.375 23.125 4.1992 234
13.476600000000001 4.5586 -1.4912 224
99.875 33.7812 8.6094 206
18.3438 6.203099999999999 -1.5791 131
15.1719 5.1289 -0.9292 215
20.7344 7.0078 -0.7622 200
8.4844 2.8358999999999996 -1.5703 19
9.5938 3.207 -1.5361000000000002 168
67.8125 22.6562 2.4941 124
11.085899999999999 3.7051 -1.4980000000000002 106
70.6875 23.625 4.3359 127
13.5078 4.5156 -1.4922 43
99.8125 33.3438 8.5938 195
18.375 6.140599999999999 -1.5791 118
15.1797 5.0742 -0.9281999999999999 221
20.7656 6.9414 -0.7626999999999999 135
8.5156 2.8145 -1.5732 27
9.5938 3.1719 -1.5352000000000001 210
11.101600000000001 3.6699 -1.499 156
68.3125 22.5781 4.1836 73
13.5469 4.4766 -1.4950999999999999 241
99.875 33.0 8.5859 153
18.4531 6.1015999999999995 -1.584 120
15.0469 4.9727 -0.9194 92
15.1094 4.9922 -0.5537 144
8.5312 2.7851999999999997 -1.5752000000000002 6
9.6172 3.1406 -1.5361000000000002 113
67.8125 22.1406 2.4902 154
11.1172 3.6289 -1.499 38
68.375 22.3281 4.1836 128
13.585899999999999 4.4336 -1.4971 247
99.75 32.5625 8.5703 255
15.125 4.9375 -1.2959 123
15.0703 4.918 -0.9194 118
15.1172 4.9336 -0.5532 186
15.210899999999999 4.9688 -0.1863 123
8.5391 2.7539 -1.5741999999999998 13
9.6406 3.1094 -1.5381 65
11.1328 3.5918 -1.499 145
69.75 22.5 4.2617 186
13.625 4.3945 -1.5 140
14.9453 4.8203 -1.2793 244
15.039100000000001 4.8516 -0.9165000000000001 229
15.0625 4.8594 -0.5508 2
15.164100000000001 4.8906 -0.18539999999999998 144
8.5469 2.7266000000000004 -1.5752000000000002 188
9.6484 3.0781 -1.5381 130
11.148399999999999 3.5566000000000004 -1.5 253
13.6328 4.3477 -1.499 116
101.0 32.2188 8.6562 11
14.9922 4.7812 -1.2822 169
15.039100000000001 4.7969 -0.9155 67
14.960899999999999 4.7734 -0.5468999999999999 126
15.1406 4.8281 -0.18489999999999998 121
8.5625 2.7012 -1.5762 246
9.6719 3.0488 -1.5391 87
11.1797 3.5254000000000003 -1.5029 69
69.4375 21.9062 4.2344 124
13.6719 4.3125 -1.5019999999999998 81
18.6094 5.8711 -1.5908000000000002 81
15.0781 4.7539 -0.9175 191
15.0547 4.7461 -0.5493 220
15.1875 4.7891 -0.18530000000000002 183
8.6016 2.6757999999999997 -1.5800999999999998 142
9.6719 3.0077999999999996 -1.5381 90
68.0 21.1406 2.4844 224
11.2031 3.4844 -1.5038999999999998 172
101.0 31.4219 6.1523 179
13.6953 4.2617 -1.5029 3
100.9375 31.3906 8.6328 97
18.6562 5.800800000000001 -1.5918 58
15.039100000000001 4.6797 -0.9136 134
15.093800000000002 4.6953 -0.5503 244
15.1953 4.7266 -0.1852 184
8.6172 2.6483999999999996 -1.5819999999999999 255
9.6953 2.9785000000000004 -1.54 109
67.9375 20.875 2.4805 223
11.226600000000001 3.4492000000000003 -1.5049000000000001 132
13.726600000000001 4.2188 -1.5049000000000001 172
18.6875 5.7422 -1.5937999999999999 187
15.1094 4.6406 -0.917 91
15.210899999999999 4.6719 -0.5537 214
8.625 2.6191000000000004 -1.5819999999999999 133
9.7109 2.9473000000000003 -1.541 31
11.2344 3.4120999999999997 -1.5049000000000001 10
71.625 21.75 4.3555 114
13.7656 4.1797 -1.5078 219
18.75 5.6914 -1.5966999999999998 209
8.6328 2.5898000000000003 -1.5811000000000002 217
9.7344 2.9199 -1.5430000000000001 248
11.2578 3.377 -1.5068000000000001 146
13.781199999999998 4.1367 -1.5078 186
18.7969 5.640599999999999 -1.5996000000000001 88
25.5625 7.667999999999999 -1.5497999999999998 254
8.6484 2.5586 -1.5830000000000002 107
9.7422 2.8827999999999996 -1.5430000000000001 6
11.281199999999998 3.3398000000000003 -1.5078 11
13.781199999999998 4.082 -1.5059 147
18.8438 5.578099999999999 -1.6016 249
8.6719 2.5352 -1.5859 250
9.7422 2.8457 -1.541 54
11.3125 3.3047000000000004 -1.5097999999999998 197
13.851600000000001 4.0469 -1.5116999999999998 168
18.9062 5.5273 -1.6055000000000001 193
14.6328 4.2734 -0.17739999999999997 72
8.6875 2.5039 -1.5859 201
9.7656 2.8145 -1.5430000000000001 86
11.3203 3.2637 -1.5097999999999998 40
107.6875 31.0469 6.519500000000001 176
13.8906 4.0039 -1.5146000000000002 164
18.9375 5.4609000000000005 -1.6063999999999998 30
14.5469 4.1914 -0.1761 163
8.6875 2.4707 -1.585 215
9.7891 2.7851999999999997 -1.5459 100
11.3203 3.2207 -1.5088 61
13.914100000000001 3.9589999999999996 -1.5156 171
18.9844 5.4023 -1.6094 189
14.625 4.1602 -0.8818 122
14.601600000000001 4.1562 -0.5283 72
14.531199999999998 4.1328 -0.17579999999999998 68
8.6953 2.4414 -1.585 183
9.8047 2.7539 -1.5469 129
11.343800000000002 3.1855 -1.5097999999999998 223
13.9297 3.9141000000000004 -1.5166 224
14.656199999999998 4.1172 -1.2402 234
14.6172 4.1055 -0.8809 17
14.531199999999998 4.082 -0.5254 91
14.5078 4.0742 -0.1753 153
8.7031 2.4141 -1.5859 91
9.8203 2.7226999999999997 -1.5469 249
11.3672 3.1523000000000003 -1.5116999999999998 192
13.960899999999999 3.8711 -1.5175999999999998 207
14.664100000000001 4.0664 -1.2393 12
14.6172 4.0547 -0.8798999999999999 161
14.5 4.0234 -0.5239 125
14.5 4.0234 -0.175 75
8.7266 2.3848 -1.5878999999999999 128
9.8438 2.6895 -1.5488 174
11.3672 3.1074 -1.5097999999999998 220
13.9844 3.8223000000000003 -1.5186000000000002 59
14.6875 4.0156 -1.2402 55
14.664100000000001 4.0078 -0.8818 230
14.5078 3.9648000000000003 -0.5234000000000001 183
14.5156 3.9688 -0.175 97
8.7422 2.3574 -1.5888999999999998 110
14.781199999999998 3.9863 0.1782 82
9.8594 2.6582 -1.5508000000000002 115
11.3672 3.0645 -1.5088 111
14.031199999999998 3.7832 -1.5225 114
14.4844 3.9043 -1.2217 206
14.664100000000001 3.9531 -0.8809 188
14.5078 3.9120999999999997 -0.5229 44
14.4922 3.9082 -0.1747 164
8.7344 2.3242 -1.5869 151
9.8828 2.6289 -1.5527000000000002 93
11.3672 3.0254000000000003 -1.5078 147
14.0625 3.7422000000000004 -1.5253999999999999 56
14.6094 3.8887 -1.2314 93
14.6719 3.9043 -0.8809 203
14.531199999999998 3.8672000000000004 -0.5234000000000001 94
14.4922 3.8555 -0.1744 206
8.7422 2.2949 -1.5859 36
9.8906 2.5976999999999997 -1.5537 84
11.406199999999998 2.9961 -1.5116999999999998 203
14.0703 3.6952999999999996 -1.5244 0
19.25 5.0547 -1.6221 32
14.6719 3.8535000000000004 -0.8798999999999999 248
14.4844 3.8026999999999997 -0.5215 167
14.4453 3.7910000000000004 -0.17370000000000002 102
8.75 2.2637 -1.5869 130
9.8906 2.5566 -1.5508000000000002 22
11.414100000000001 2.9512 -1.5107 227
14.093800000000002 3.6445 -1.5253999999999999 67
19.3281 5.0 -1.6279 132
14.6953 3.8007999999999997 -0.8804000000000001 107
14.5 3.75 -0.521 151
14.4922 3.748 -0.1741 34
8.7812 2.2383 -1.5897999999999999 149
9.8906 2.5215 -1.5508000000000002 184
11.414100000000001 2.9101999999999997 -1.5097999999999998 22
14.1328 3.6035000000000004 -1.5283000000000002 186
19.3906 4.9414 -1.6309 31
14.7422 3.7577999999999996 -0.8823000000000001 120
14.4844 3.6933999999999996 -0.5205 97
14.531199999999998 3.7051 -0.1746 119
8.7969 2.209 -1.5918 60
9.8906 2.4824 -1.5488 123
11.4219 2.8672000000000004 -1.5097999999999998 168
14.156199999999998 3.5547000000000004 -1.5293 197
19.4375 4.8789 -1.6338 231
14.789100000000001 3.7129000000000003 -0.8848 125
14.5703 3.6582 -0.5229 38
14.593800000000002 3.6641000000000004 -0.175 156
8.8125 2.1797 -1.5937999999999999 55
9.9062 2.4492 -1.5497999999999998 176
11.4297 2.8281 -1.5097999999999998 63
14.1953 3.5098000000000003 -1.5322 226
19.4844 4.8164 -1.6357 164
25.2969 6.2578 -1.5137 183
25.3281 6.265599999999999 -0.9097 35
25.2969 6.2539 -0.3037 6
8.8125 2.1484 -1.5928 161
25.3281 6.175800000000001 0.304 0
9.9531 2.4258 -1.5556999999999999 85
25.3125 6.167999999999999 0.9077 81
11.4531 2.7910000000000004 -1.5107 252
25.375 6.1836 1.5166 193
14.2031 3.4629000000000003 -1.5322 226
25.375 6.1875 2.1309 228
19.5312 4.7617 -1.6387 218
25.2969 6.1640999999999995 -1.5116999999999998 34
25.3125 6.171900000000001 3.3457 201
25.3125 6.171900000000001 -0.9081999999999999 185
25.3281 6.175800000000001 3.9688 106
25.2656 6.1602 -0.3032 90
25.3125 6.171900000000001 4.5859 108
8.8281 2.1211 -1.5937999999999999 254
25.2969 6.078099999999999 0.3032 91
9.9453 2.3887 -1.5527000000000002 13
25.2969 6.078099999999999 0.9067000000000001 124
11.468800000000002 2.7558999999999996 -1.5127000000000002 183
25.2969 6.078099999999999 1.5116999999999998 27
14.218800000000002 3.4160000000000004 -1.5322 86
25.3125 6.082000000000001 2.123 133
19.6406 4.7188 -1.6465 68
25.3125 6.082000000000001 2.7305 125
25.375 6.0938 -1.5156 233
25.2656 6.0703 3.3379000000000003 114
25.3594 6.0938 -0.9092 255
25.2969 6.078099999999999 3.9608999999999996 80
25.2969 6.078099999999999 -0.3035 61
25.2812 6.074199999999999 4.5781 114
8.8594 2.0938 -1.5977000000000001 110
25.3594 5.9961 0.304 191
9.9531 2.3535 -1.5537 89
25.2969 5.980499999999999 0.9062 173
11.4844 2.7148000000000003 -1.5127000000000002 87
25.3125 5.984400000000001 1.5107 239
14.25 3.3691000000000004 -1.5341999999999998 248
25.3125 5.984400000000001 2.1211 189
19.6719 4.6484 -1.6475 227
25.3125 5.984400000000001 2.7305 130
25.2969 5.980499999999999 3.3379000000000003 14
25.5469 6.0390999999999995 -0.915 113
25.3281 5.988300000000001 3.9629000000000003 199
25.375 6.0 -0.304 38
25.3125 5.980499999999999 4.5781 27
8.8828 2.0664 -1.6006 106
9.9688 2.3203 -1.5537 239
25.375 5.9062 0.9081999999999999 30
11.5 2.6757999999999997 -1.5137 60
25.4219 5.9140999999999995 1.5156 124
12.6875 2.9531 -1.3643 217
25.3906 5.9062 2.125 133
12.6719 2.9492000000000003 -1.0595999999999999 186
12.601600000000001 2.9316000000000004 1.3544999999999998 232
12.6719 2.9492000000000003 -0.7544 89
12.5703 2.9257999999999997 1.6553 136
12.7031 2.9551 -0.4536 104
8.8828 2.0332 -1.5986000000000002 111
10.0 2.2891 -1.5575999999999999 211
11.5 2.6348000000000003 -1.5127000000000002 155
12.6875 2.9062 -1.3633000000000002 234
12.6797 2.9043 -1.0595999999999999 221
12.601600000000001 2.8867000000000003 1.3544999999999998 50
12.6875 2.9062 -0.7544 71
12.585899999999999 2.8827999999999996 1.6553 61
12.6875 2.9062 -0.4526 10
12.6719 2.9023000000000003 -0.15109999999999998 143
8.8828 2.002 -1.5986000000000002 12
12.6797 2.8574 0.15109999999999998 210
10.0156 2.2578 -1.5596 52
12.6875 2.8594 0.4524 125
11.531199999999998 2.5976999999999997 -1.5146000000000002 20
12.6719 2.8555 0.7529 189
12.6875 2.8594 -1.3622999999999998 16
12.6719 2.8555 1.0576 158
12.6875 2.8594 -1.0586 127
12.601600000000001 2.8398000000000003 1.3535 139
12.664100000000001 2.8535000000000004 -0.7524 127
12.593800000000002 2.8379000000000003 1.6543 48
12.6953 2.8613 -0.4526 117
12.656199999999998 2.8516000000000004 -0.1509 53
8.8906 1.9746000000000001 -1.5986000000000002 128
12.6719 2.8145 0.1509 66
10.0156 2.2227 -1.5575999999999999 231
12.6797 2.8164 0.45189999999999997 48
11.5469 2.5645 -1.5156 241
12.6797 2.8164 0.7529 78
12.6797 2.8164 -1.3603999999999998 40
12.6719 2.8145 1.0566 131
12.6797 2.8164 -1.0576 53
12.625 2.8026999999999997 1.3544999999999998 32
12.664100000000001 2.8125 -0.752 26
12.5625 2.7891000000000004 1.6494 10
12.6719 2.8145 -0.4517 99
12.6797 2.8145 1.9736000000000002 90
12.6797 2.8145 -0.151 155
12.6406 2.8066000000000004 2.2754 98
8.9062 1.9472999999999998 -1.6006 34
12.6719 2.7695 0.1508 97
10.0312 2.1914 -1.5586000000000002 199
12.6719 2.7714999999999996 0.4512 137
11.5469 2.5254 -1.5156 178
12.6875 2.7733999999999996 0.7529 212
12.6797 2.7714999999999996 -1.3603999999999998 222
12.6719 2.7695 1.0556999999999999 104
12.6719 2.7695 -1.0556999999999999 181
12.6094 2.7558999999999996 1.3516 49
12.664100000000001 2.7695 -0.752 157
12.5781 2.748 1.6503999999999999 118
12.6719 2.7695 -0.4512 191
12.656199999999998 2.7656 1.9687999999999999 117
12.6719 2.7695 -0.1508 198
12.656199999999998 2.7676 2.2773 212
8.9297 1.916 -1.6025 77
12.6797 2.7207 0.1508 125
10.0469 2.1543 -1.5596 235
12.6719 2.7188 0.4507 241
11.5547 2.4785 -1.5146000000000002 225
12.6875 2.7226999999999997 0.7524 6
12.6875 2.7226999999999997 -1.3594 13
12.6719 2.7188 1.0547 149
12.664100000000001 2.7168 -1.0537 107
12.593800000000002 2.7031 1.3496000000000001 227
12.6719 2.7188 -0.7515000000000001 5
12.5781 2.6992000000000003 1.6494 96
12.6719 2.7207 -0.4509 193
12.648399999999999 2.7148000000000003 1.9668 82
12.664100000000001 2.7168 -0.1506 94
12.6797 2.7207 2.2793 131
8.9297 1.8838 -1.6025 139
12.6875 2.6757999999999997 0.1508 88
10.0625 2.123 -1.5615 124
12.6719 2.6738 0.45039999999999997 104
11.5781 2.4414 -1.5166 31
12.6719 2.6738 0.7509999999999999 196
12.6875 2.6757999999999997 -1.3584 56
12.6875 2.6757999999999997 1.0556999999999999 76
12.664100000000001 2.6719 -1.0537 18
12.593800000000002 2.6562 1.3477000000000001 219
12.656199999999998 2.6699 -0.75 59
12.585899999999999 2.6543 1.6484 160
12.6719 2.6738 -0.45039999999999997 170
12.648399999999999 2.668 1.9647999999999999 205
12.656199999999998 2.6699 -0.15039999999999998 63
12.656199999999998 2.6699 2.2734 193
8.9375 1.8535 -1.6016 254
12.6797 2.6308999999999996 0.1505 207
10.0781 2.0898 -1.5635 50
12.6797 2.6289 0.45020000000000004 116
11.593800000000002 2.4043 -1.5175999999999998 43
12.6719 2.6289 0.75 219
12.6875 2.6327999999999996 -1.3574000000000002 201
12.6875 2.6327999999999996 1.0547 254
12.6797 2.6308999999999996 -1.0537 43
12.601600000000001 2.6132999999999997 1.3477000000000001 204
12.656199999999998 2.625 -0.7490000000000001 63
12.5703 2.6074 1.6455000000000002 192
12.6875 2.6308999999999996 -0.4507 247
12.664100000000001 2.627 1.9647999999999999 44
12.664100000000001 2.627 -0.15039999999999998 106
12.648399999999999 2.625 2.2715 144
8.9531 1.8271000000000002 -1.6044999999999998 192
12.664100000000001 2.5839999999999996 0.1503 134
10.0625 2.0527 -1.5596 228
12.6797 2.5858999999999996 0.45020000000000004 233
11.601600000000001 2.3672 -1.5175999999999998 149
12.664100000000001 2.5839999999999996 0.7495 28
12.6719 2.5839999999999996 -1.3544999999999998 149
12.6719 2.5839999999999996 1.0527 9
12.6797 2.5858999999999996 -1.0527 18
12.601600000000001 2.5702999999999996 1.3466999999999998 92
12.656199999999998 2.582 -0.7484999999999999 86
12.5625 2.5625 1.6436000000000002 94
12.6719 2.5839999999999996 -0.4497 247
12.6719 2.5839999999999996 1.9647999999999999 208
12.664100000000001 2.5839999999999996 -0.1503 79
12.6406 2.5781 2.2676 228
8.9766 1.7969 -1.6063999999999998 50
12.664100000000001 2.5352 0.1501 113
10.0938 2.0195 -1.5635 152
12.6719 2.5352 0.4495 215
11.6094 2.3242 -1.5175999999999998 160
12.6797 2.5391 0.75 241
12.6797 2.5371 -1.3544999999999998 22
12.656199999999998 2.5332 1.0508 113
12.664100000000001 2.5352 -1.0518 246
12.6094 2.5234 1.3466999999999998 105
12.656199999999998 2.5332 -0.7484999999999999 209
12.5625 2.5137 1.6425999999999998 162
12.664100000000001 2.5352 -0.44920000000000004 129
12.648399999999999 2.5332 1.9609 65
12.6719 2.5371 -0.1503 93
12.656199999999998 2.5332 2.2676 235
8.9922 1.7675999999999998 -1.6094 238
12.6875 2.4941 0.1503 153
10.1094 1.9872999999999998 -1.5644999999999998 177
12.656199999999998 2.4883 0.4487 198
11.625 2.2852 -1.5186000000000002 241
12.6797 2.4922 0.7490000000000001 121
12.6797 2.4922 -1.3535 121
12.6719 2.4922 1.0518 143
12.656199999999998 2.4883 -1.0498 11
12.593800000000002 2.4746 1.3437999999999999 28
12.664100000000001 2.4883 -0.748 227
12.5703 2.4707 1.6425999999999998 56
12.656199999999998 2.4883 -0.4487 83
12.648399999999999 2.4863 1.959 108
12.656199999999998 2.4883 -0.1499 202
12.656199999999998 2.4863 2.2656 14
9.0 1.7353999999999998 -1.6084 83
12.6875 2.4473 0.1503 31
10.125 1.9531 -1.5654 233
12.664100000000001 2.4434 0.4485 118
11.625 2.2441 -1.5175999999999998 81
12.664100000000001 2.4434 0.7476 103
12.6875 2.4473 -1.3535 125
12.6797 2.4473 1.0518 144
12.6719 2.4434 -1.0508 200
12.5781 2.4277 1.3418 192
12.664100000000001 2.4434 -0.7476 209
12.5703 2.4258 1.6416 226
12.6719 2.4453 -0.4487 206
12.648399999999999 2.4414 1.9580000000000002 229
12.648399999999999 2.4414 -0.14980000000000002 19
12.6406 2.4395 2.2637 86
8.9922 1.7021000000000002 -1.6063999999999998 18
12.6719 2.3984 0.1499 237
10.1406 1.9199000000000002 -1.5674000000000001 66
12.6719 2.3984 0.4485 89
11.648399999999999 2.2051 -1.5194999999999999 93
12.656199999999998 2.3965 0.7471 232
12.6719 2.3984 -1.3506 180
12.6719 2.3984 1.0498 101
12.6719 2.3984 -1.0498 235
12.593800000000002 2.3848 1.3428 78
12.656199999999998 2.3965 -0.7465999999999999 166
12.5625 2.3789 1.6396000000000002 231
12.6719 2.4004 -0.4487 220
12.656199999999998 2.3965 1.9569999999999999 11
12.656199999999998 2.3965 -0.14980000000000002 203
12.6328 2.3926 2.2598 250
9.0 1.6709 -1.6063999999999998 66
12.664100000000001 2.3516 0.1497 231
10.1328 1.8818000000000001 -1.5644999999999998 116
12.6719 2.3535 0.4482 24
11.664100000000001 2.166 -1.5205000000000002 57
12.6719 2.3535 0.7471 187
12.664100000000001 2.3516 -1.3496000000000001 10
12.664100000000001 2.3516 1.0479 193
12.6719 2.3535 -1.0488 247
12.585899999999999 2.3359 1.3408000000000002 155
12.648399999999999 2.3496 -0.7461 161
12.5469 2.3301 1.6366999999999998 204
12.664100000000001 2.3516 -0.44799999999999995 215
12.656199999999998 2.3516 1.9569999999999999 134
12.664100000000001 2.3516 -0.1497 57
12.6406 2.3477 2.2598 208
9.0 1.6396000000000002 -1.6063999999999998 240
12.6719 2.3066 0.1497 252
10.1484 1.8486000000000002 -1.5663999999999998 76
12.664100000000001 2.3066 0.44780000000000003 252
11.6875 2.127 -1.5225 182
12.6797 2.3086 0.7471 31
12.656199999999998 2.3047 -1.3477000000000001 186
12.6406 2.3027 1.0459 49
12.6719 2.3066 -1.0488 169
12.593800000000002 2.293 1.3408000000000002 155
12.656199999999998 2.3047 -0.7461 143
12.5547 2.2871 1.6366999999999998 123
12.656199999999998 2.3047 -0.4475 227
12.656199999999998 2.3047 1.9550999999999998 187
12.656199999999998 2.3047 -0.1495 141
12.6406 2.3008 2.2578 209
9.0312 1.6133000000000002 -1.6103999999999998 139
12.6719 2.2637 0.1497 51
10.1641 1.8163999999999998 -1.5684 167
12.6406 2.2578 0.4468 220
11.6875 2.0879 -1.5215 123
12.6797 2.2656 0.7471 80
12.6719 2.2637 -1.3486000000000002 87
12.656199999999998 2.2598 1.0459 91
12.656199999999998 2.2617 -1.0469 211
12.5781 2.248 1.3388999999999998 18
12.664100000000001 2.2617 -0.7456 49
12.5625 2.2441 1.6366999999999998 156
12.656199999999998 2.2617 -0.4473 81
12.6406 2.2598 1.9521000000000002 29
12.648399999999999 2.2598 -0.1493 144
12.6406 2.2598 2.2578 49
9.0312 1.5830000000000002 -1.6094 95
12.6875 2.2227 0.1497 74
10.1875 1.7852000000000001 -1.5713 5
12.656199999999998 2.2168 0.4468 35
11.710899999999999 2.0527 -1.5234 92
12.656199999999998 2.2188 0.7451000000000001 39
12.6719 2.2207 -1.3477000000000001 89
12.656199999999998 2.2188 1.0459 157
12.6719 2.2207 -1.0469 111
12.5703 2.2031 1.3369 213
12.656199999999998 2.2188 -0.7451000000000001 28
12.5703 2.2031 1.6357 206
12.6719 2.2207 -0.4475 149
12.6406 2.2148 1.9512 225
12.625 2.2129 -0.149 166
12.6406 2.2148 2.2559 252
9.0312 1.5488 -1.6084 31
12.656199999999998 2.1699 0.1493 91
10.1953 1.7480000000000002 -1.5713 90
12.664100000000001 2.1719 0.447 188
11.718800000000002 2.0098 -1.5234 187
12.656199999999998 2.1699 0.7441 82
12.664100000000001 2.1719 -1.3457 110
12.664100000000001 2.1719 1.0459 234
12.6719 2.1719 -1.0469 142
12.585899999999999 2.1582 1.3378999999999999 15
12.648399999999999 2.1699 -0.7441 9
12.5625 2.1543 1.6338 179
12.6719 2.1738 -0.4473 110
