# .PCD v0.7 - Point Cloud Data file format
VERSION 0.7
FIELDS x y z intensity
SIZE 4 4 4 4
TYPE F F F F
COUNT 1 1 1 1
WIDTH 1237
HEIGHT 1
VIEWPOINT 0 0 0 1 0 0 0
POINTS 1237
DATA ascii
10.8281 -3.8145 -1.7441 77
12.4297 -4.3789 0.4585 198
12.5 -4.4023 -1.6991999999999998 47
12.4375 -4.3828 0.7646 225
12.5 -4.4023 -1.3877000000000002 240
12.4297 -4.3789 1.0732 109
12.4219 -4.375 -1.0723 255
12.5156 -4.4062 1.3906 7
12.3672 -4.3555 -0.7603 209
12.4922 -4.3984 1.6982 54
12.406199999999998 -4.3672 -0.4575 235
12.5703 -4.4258 2.0254 91
12.398399999999999 -4.3633 -0.1528 73
12.5781 -4.4297 2.3438 131
3.8183999999999996 -1.3594 -0.7075 243
12.3906 -4.4102 0.153 146
3.8555 -1.3721 -0.6177 221
12.414100000000001 -4.418 0.4585 31
3.8848000000000003 -1.3828 -0.5249 39
12.406199999999998 -4.418 0.7637 252
12.4219 -4.4219 1.0732 96
12.5078 -4.4531 -1.0811 230
12.4297 -4.4219 1.3818000000000001 218
12.4844 -4.4453 -0.7686 69
12.476600000000001 -4.4414 1.6972999999999998 28
12.4453 -4.4297 -0.4595 125
12.5 -4.4492 2.0176 148
12.406199999999998 -4.4141 -0.1531 191
12.4922 -4.4453 2.3301 252
3.8164 -1.3721 -0.7075 177
12.4219 -4.4648 0.1534 67
3.8262 -1.376 -0.6138 170
12.414100000000001 -4.4648 0.45899999999999996 223
12.4219 -4.4688 0.7656000000000001 255
3.8418 -1.3818000000000001 -0.42460000000000003 166
12.414100000000001 -4.4648 1.0742 148
12.4297 -4.4688 1.3838 148
12.5078 -4.4961 -0.7705 129
12.468800000000002 -4.4844 1.6991999999999998 248
12.4922 -4.4922 -0.4619 177
12.4922 -4.4922 2.0176 245
12.5156 -4.5 -0.1545 124
12.4922 -4.4922 2.334 154
3.7656 -1.3691 -0.6992 90
12.4844 -4.5391 0.15439999999999998 232
3.7891000000000004 -1.3779 -0.6084 167
12.460899999999999 -4.5352 0.46140000000000003 66
3.7910000000000004 -1.3788999999999998 -0.5136999999999999 225
12.476600000000001 -4.5391 0.77 245
3.8379000000000003 -1.3955000000000002 -0.42460000000000003 246
12.4219 -4.5195 1.0762 245
12.4297 -4.5195 1.3857 149
3.8398000000000003 -1.3965 -0.235 130
12.476600000000001 -4.5391 1.7021000000000002 119
12.4922 -4.543 -0.46240000000000003 82
12.5078 -4.5469 2.0234 93
12.4922 -4.5469 -0.1545 91
12.5 -4.5469 2.3379 234
3.7051 -1.3622999999999998 -0.6884999999999999 189
12.5 -4.5938 0.1548 181
3.7461 -1.3779 -0.6021 9
12.4922 -4.5938 0.4629 60
3.75 -1.3788999999999998 -0.5083 160
12.4922 -4.5938 0.772 37
3.7988 -1.3975 -0.42090000000000005 206
12.4219 -4.5703 1.0781 62
3.8125 -1.4022999999999999 -0.3281 215
12.5625 -4.6211 1.4022999999999999 182
12.5547 -4.6172 1.7158000000000002 18
12.5703 -4.625 2.0371 227
12.4844 -4.5938 -0.1547 103
12.5703 -4.6211 2.3535 124
3.6582 -1.3603999999999998 -0.6812 195
12.4844 -4.6406 0.1549 67
3.7148000000000003 -1.3809 -0.5977 104
12.5 -4.6445 0.4639 236
3.7031 -1.3769999999999998 -0.5029 160
12.476600000000001 -4.6367 0.772 91
3.7617000000000003 -1.3984 -0.4172 88
12.4297 -4.6211 1.0791 58
3.7714999999999996 -1.4013999999999998 -0.325 45
12.5703 -4.6719 1.4043 157
3.793 -1.4102000000000001 -0.2328 95
12.5547 -4.668 1.7178 130
3.8789 -1.4413999999999998 -0.1427 183
12.585899999999999 -4.6758 2.041 88
12.4922 -4.6406 -0.1549 55
12.5703 -4.6719 2.3574 184
3.6211 -1.3603999999999998 -0.6748000000000001 44
12.476600000000001 -4.6875 0.155 146
3.6504000000000003 -1.3711000000000002 -0.5879 11
12.5 -4.6953 0.4646 46
3.6797000000000004 -1.3828 -0.5 61
12.4922 -4.6914 0.7739 160
3.6973000000000003 -1.3896000000000002 -0.4106 242
12.414100000000001 -4.6641 1.0791 44
3.7324 -1.4022999999999999 -0.322 103
12.5781 -4.7266 1.4082 61
3.7577999999999996 -1.4111000000000002 -0.23079999999999998 146
12.5547 -4.7148 1.7187999999999999 181
3.8183999999999996 -1.4346 -0.1406 104
12.5781 -4.7227 2.041 191
12.5 -4.6953 -0.1552 95
12.5625 -4.7188 2.3574 38
12.476600000000001 -4.7383 0.1552 219
3.6074 -1.3700999999999999 -0.5820000000000001 207
12.4844 -4.7422 0.4646 186
3.625 -1.3769999999999998 -0.49340000000000006 199
12.4922 -4.7422 0.7748999999999999 161
3.6483999999999996 -1.3847999999999998 -0.40549999999999997 193
12.406199999999998 -4.7109 1.0801 46
3.6875 -1.4003999999999999 -0.3186 81
12.5781 -4.7734 1.4091999999999998 26
3.7089999999999996 -1.4082 -0.2281 221
12.5547 -4.7656 1.7227000000000001 50
3.7714999999999996 -1.4316 -0.139 189
12.5703 -4.7734 2.0449 183
12.5 -4.7461 -0.15539999999999998 166
12.5625 -4.7695 2.3633 128
3.5391000000000004 -1.3584 -0.6611 69
12.5 -4.793 0.15560000000000002 168
3.5702999999999996 -1.3700999999999999 -0.5767 99
12.4844 -4.7891 0.46509999999999996 31
3.5858999999999996 -1.376 -0.4885 35
12.5 -4.793 0.7764 136
3.6191000000000004 -1.3887 -0.4028 141
12.406199999999998 -4.7578 1.082 202
3.6191000000000004 -1.3887 -0.313 255
12.5625 -4.8203 1.4102000000000001 206
3.6641000000000004 -1.4062000000000001 -0.2257 125
12.5625 -4.8203 1.7256 97
3.7168 -1.4258000000000002 -0.13720000000000002 206
12.5547 -4.8164 2.0449 154
12.4922 -4.793 -0.1555 106
12.5703 -4.8203 2.3652 113
3.5058999999999996 -1.3594 -0.6557999999999999 101
12.4844 -4.8398 0.1558 208
3.5488 -1.376 -0.5737 64
12.476600000000001 -4.8359 0.4656 217
3.543 -1.374 -0.48340000000000005 26
12.4844 -4.8398 0.7764 254
3.5839999999999996 -1.3896000000000002 -0.3994 114
12.4219 -4.8164 1.084 211
3.582 -1.3887 -0.31010000000000004 235
12.5625 -4.8672 1.4111000000000002 242
3.6327999999999996 -1.4082 -0.22399999999999998 174
12.5703 -4.8711 1.7285 91
3.6973000000000003 -1.4336000000000002 -0.1367 251
12.5625 -4.8711 2.0469 128
12.476600000000001 -4.8359 -0.15560000000000002 11
12.5625 -4.8711 2.3691 15
3.457 -1.3544999999999998 -0.6475 74
12.476600000000001 -4.8867 0.1558 12
3.502 -1.3711000000000002 -0.5669 214
12.4844 -4.8867 0.46630000000000005 106
3.4941000000000004 -1.3691 -0.47729999999999995 111
12.4844 -4.8906 0.7773 199
3.5547000000000004 -1.3925999999999998 -0.39649999999999996 181
12.4219 -4.8672 1.0859 139
3.5526999999999997 -1.3916 -0.3079 231
12.5703 -4.9258 1.4141 117
3.5723000000000003 -1.3984 -0.2205 162
12.5547 -4.918 1.7294999999999998 24
3.6660000000000004 -1.4365 -0.13570000000000002 89
12.5625 -4.9219 2.0508 106
12.4844 -4.8906 -0.1559 228
12.5547 -4.918 2.3711 68
3.4219 -1.3535 -0.6411 224
12.460899999999999 -4.9336 0.1559 42
12.4844 -4.9414 0.4673 28
3.4668 -1.3721 -0.47409999999999997 28
12.4922 -4.9414 0.7787999999999999 31
3.502 -1.3857 -0.3911 15
12.406199999999998 -4.9102 1.0859 137
3.502 -1.3857 -0.304 30
12.5625 -4.9727 1.416 164
3.5370999999999997 -1.3994 -0.2186 51
12.5469 -4.9648 1.7294999999999998 45
3.6132999999999997 -1.4297 -0.13390000000000002 130
12.5703 -4.9727 2.0547 125
12.476600000000001 -4.9375 -0.156 237
12.5547 -4.9688 2.373 211
3.4023000000000003 -1.3603999999999998 -0.6386999999999999 249
12.4922 -4.9961 0.1565 1
3.3964999999999996 -1.3574000000000002 -0.5513 169
12.476600000000001 -4.9883 0.4675 74
3.4395 -1.375 -0.47090000000000004 57
12.4922 -4.9961 0.7803 189
3.4551 -1.3818000000000001 -0.3865 37
12.414100000000001 -4.9609 1.0879 203
3.4707 -1.3877000000000002 -0.3015 42
12.5703 -5.0273 1.4188999999999998 233
3.5058999999999996 -1.4013999999999998 -0.217 250
12.5469 -5.0156 1.7334 201
3.6074 -1.4424000000000001 -0.13390000000000002 21
12.5625 -5.0234 2.0566 223
3.8398000000000003 -1.5352000000000001 -0.0475 144
12.5625 -5.0234 2.3789 138
3.3613 -1.3563999999999998 -0.6318 86
12.531199999999998 -5.0586 0.15710000000000002 225
3.3887 -1.3672 -0.5508 174
12.468800000000002 -5.0352 0.4678 245
3.3906 -1.3681999999999999 -0.4648 120
12.4922 -5.043 0.7812 69
3.4257999999999997 -1.3828 -0.3835 115
12.406199999999998 -5.0078 1.0898 244
3.4336 -1.3857 -0.2988 128
12.5547 -5.0664 1.4180000000000001 39
3.4551 -1.3944999999999999 -0.2141 182
12.5547 -5.0664 1.7363 247
3.5566000000000004 -1.4355000000000002 -0.1322 181
12.5547 -5.0664 2.0566 108
3.7577999999999996 -1.5166 -0.04650000000000001 163
12.5703 -5.0742 2.3828 220
3.3202999999999996 -1.3525 -0.6245 89
3.3516000000000004 -1.3662 -0.5454 68
12.4375 -5.0703 0.4673 204
12.4453 -5.0703 0.7793000000000001 51
3.3945 -1.3838 -0.38060000000000005 133
12.414100000000001 -5.0586 1.0908 104
3.4004000000000003 -1.3857 -0.2961 19
12.460899999999999 -5.0781 1.4102000000000001 167
3.4257999999999997 -1.3965 -0.2125 136
12.4844 -5.0859 1.7285 65
3.5995999999999997 -1.4668 -0.13390000000000002 71
12.5156 -5.1016 2.0547 208
3.6543 -1.4893 -0.0453 72
12.531199999999998 -5.1055 2.3789 46
3.2812 -1.3516 -0.6187 24
3.3242000000000003 -1.3681999999999999 -0.5415 172
12.3125 -5.0703 0.4631 111
3.332 -1.3721 -0.4583 89
12.3047 -5.0664 0.7715000000000001 92
3.3555 -1.3818000000000001 -0.37670000000000003 8
12.351600000000001 -5.0859 1.0869 59
3.373 -1.3887 -0.2942 194
12.351600000000001 -5.0859 1.3994 118
3.3789 -1.3916 -0.20980000000000001 215
12.351600000000001 -5.0859 1.7128999999999999 255
3.5273000000000003 -1.4531 -0.1315 195
12.398399999999999 -5.1055 2.0371 135
3.5898000000000003 -1.4775 -0.044500000000000005 199
12.398399999999999 -5.1055 2.3574 166
3.2461 -1.3496000000000001 -0.6123 123
3.2754000000000003 -1.3622999999999998 -0.5342 149
3.2988 -1.3721 -0.45409999999999995 98
12.164100000000001 -5.0586 0.7642 52
3.3047000000000004 -1.374 -0.3716 89
12.210899999999999 -5.0781 1.0762 103
3.3379000000000003 -1.3877000000000002 -0.2915 126
12.226600000000001 -5.082 1.3866999999999998 111
3.3516000000000004 -1.3936000000000002 -0.20850000000000002 168
12.2344 -5.0898 1.6991999999999998 251
3.4707 -1.4434 -0.1295 72
12.281199999999998 -5.1094 2.0215 118
3.5507999999999997 -1.4766 -0.0441 213
12.289100000000001 -5.1133 2.3398 46
3.2168 -1.3506 -0.6074 150
3.2324 -1.3574000000000002 -0.5278 172
3.2382999999999997 -1.3603999999999998 -0.44630000000000003 99
12.039100000000001 -5.0547 0.7568 249
3.2949 -1.3838 -0.3711 39
12.0703 -5.0703 1.0654000000000001 42
3.2891000000000004 -1.3818000000000001 -0.2878 104
12.093800000000002 -5.0781 1.374 162
3.3242000000000003 -1.3965 -0.2072 168
12.1094 -5.082 1.6836000000000002 237
12.1328 -5.0977 2.0 100
3.4863 -1.4638999999999998 -0.0433 57
12.1719 -5.1133 2.3203 103
3.1855 -1.3506 -0.603 219
11.9297 -5.0586 0.1506 122
3.207 -1.3603999999999998 -0.5249 139
4.3047 -1.8252000000000002 0.16149999999999998 50
11.9219 -5.0547 0.7505 140
3.2441000000000004 -1.376 -0.366 121
11.9375 -5.0625 1.0556999999999999 131
3.2558999999999996 -1.3809 -0.2852 157
11.9531 -5.0703 1.3603999999999998 65
3.2949 -1.3965 -0.2054 111
11.9844 -5.082 1.6688999999999998 23
3.3281 -1.4121000000000001 -0.1245 129
12.0156 -5.0938 1.9834 3
3.4336 -1.4561000000000002 -0.042699999999999995 251
12.0469 -5.1055 2.2988 16
3.1464999999999996 -1.3477000000000001 -0.5962 185
11.906199999999998 -5.0977 0.1505 106
3.1757999999999997 -1.3594 -0.52 255
11.8828 -5.0859 0.4495 255
3.1776999999999997 -1.3613 -0.43920000000000003 215
11.8828 -5.0898 0.7495 176
3.2266000000000004 -1.3818000000000001 -0.36450000000000005 135
11.906199999999998 -5.0977 1.0547 249
3.2305 -1.3828 -0.2834 35
11.898399999999999 -5.0938 1.3555000000000001 91
3.2401999999999997 -1.3866999999999998 -0.2024 252
11.898399999999999 -5.0938 1.6591999999999998 212
11.898399999999999 -5.0977 1.9678 32
3.3789 -1.4472999999999998 -0.0421 216
11.9297 -5.1094 2.2812 193
3.1094 -1.3447 -0.5898 51
11.8906 -5.140599999999999 0.1506 223
3.1543 -1.3633000000000002 -0.5176 216
11.8828 -5.136699999999999 0.45039999999999997 95
3.1601999999999997 -1.3662 -0.4375 33
11.8906 -5.140599999999999 0.7509999999999999 27
3.1660000000000004 -1.3691 -0.3579 245
11.906199999999998 -5.1484000000000005 1.0566 220
3.207 -1.3866999999999998 -0.2817 197
11.898399999999999 -5.144500000000001 1.3574000000000002 253
3.2129000000000003 -1.3887 -0.2009 166
11.875 -5.1328 1.6591999999999998 235
11.898399999999999 -5.144500000000001 1.9697 97
3.3281 -1.4385 -0.0415 79
11.8828 -5.136699999999999 2.2754 1
3.0858999999999996 -1.3477000000000001 -0.5864 34
11.875 -5.1797 0.1506 98
3.1151999999999997 -1.3594 -0.5117 213
11.8828 -5.1875 0.4512 115
3.1426 -1.3721 -0.43579999999999997 185
11.8906 -5.1914 0.752 153
3.1327999999999996 -1.3681999999999999 -0.3547 189
11.898399999999999 -5.1914 1.0566 192
3.1797000000000004 -1.3877000000000002 -0.27949999999999997 68
11.906199999999998 -5.199199999999999 1.3613 26
3.1933999999999996 -1.3936000000000002 -0.20010000000000003 20
11.875 -5.1836 1.6611000000000002 156
11.898399999999999 -5.1914 1.9727000000000001 45
3.293 -1.4375 -0.041100000000000005 229
11.8828 -5.1875 2.2793 235
3.0702999999999996 -1.3535 -0.5845 244
11.875 -5.234400000000001 0.1509 58
3.0762 -1.3555000000000001 -0.5059 7
11.875 -5.234400000000001 0.4514 173
3.0995999999999997 -1.3662 -0.4304 96
11.8906 -5.2422 0.7534000000000001 127
3.1151999999999997 -1.3730000000000002 -0.3533 134
11.8828 -5.238300000000001 1.0576 106
3.127 -1.3779 -0.2754 200
11.906199999999998 -5.2461 1.3633000000000002 217
3.1582 -1.3916 -0.198 110
11.8828 -5.234400000000001 1.665 238
3.2577999999999996 -1.4355000000000002 -0.1225 108
11.8906 -5.238300000000001 1.9746000000000001 211
3.2714999999999996 -1.4413999999999998 -0.0409 234
11.8906 -5.238300000000001 2.2832 155
3.0293 -1.3477000000000001 -0.5771000000000001 132
11.8828 -5.2852 0.15109999999999998 74
3.0469 -1.3555000000000001 -0.502 56
11.8672 -5.2773 0.4517 238
3.0645 -1.3633000000000002 -0.426 103
11.8906 -5.2890999999999995 0.7544 98
3.1074 -1.3828 -0.3528 30
11.8906 -5.2890999999999995 1.0595999999999999 162
3.1094 -1.3828 -0.2742 249
11.8906 -5.2890999999999995 1.3633000000000002 250
3.1308999999999996 -1.3925999999999998 -0.1967 192
11.8828 -5.2852 1.6680000000000001 199
3.1426 -1.3984 -0.1183 111
11.8828 -5.2852 1.9766 96
3.2441000000000004 -1.4424000000000001 -0.0406 170
11.8906 -5.2890999999999995 2.2871 243
2.9961 -1.3447 -0.5718 153
11.898399999999999 -5.3398 0.1516 141
3.0254000000000003 -1.3584 -0.499 215
11.8672 -5.328099999999999 0.4526 5
3.0351999999999997 -1.3622999999999998 -0.4224 111
11.8906 -5.3359000000000005 0.7554000000000001 44
3.0742000000000003 -1.3799000000000001 -0.3496 40
11.8906 -5.3398 1.0615 144
11.8906 -5.3398 1.3652000000000002 237
3.0898000000000003 -1.3866999999999998 -0.1943 207
11.8906 -5.3398 1.6709 144
3.1816000000000004 -1.4287 -0.12 53
11.8828 -5.3359000000000005 1.9794999999999998 135
3.2012 -1.4375 -0.0401 10
11.8828 -5.3359000000000005 2.2891 225
2.9589999999999996 -1.3397999999999999 -0.5654 23
11.875 -5.3789 0.1516 135
2.9941000000000004 -1.3563999999999998 -0.4949 175
11.8828 -5.3828 0.4536 186
3.0117000000000003 -1.3643 -0.4199 87
11.8828 -5.3828 0.7563 167
3.0273000000000003 -1.3711000000000002 -0.3447 31
11.8906 -5.386699999999999 1.0625 149
3.0312 -1.3730000000000002 -0.2681 83
11.8906 -5.386699999999999 1.3672 69
3.0526999999999997 -1.3828 -0.1924 57
11.8828 -5.3828 1.6728999999999998 235
3.1445 -1.4247999999999998 -0.11869999999999999 57
11.8906 -5.386699999999999 1.9844 45
3.1660000000000004 -1.4346 -0.0397 250
11.875 -5.3789 2.291 211
2.9473000000000003 -1.3466999999999998 -0.564 46
11.8828 -5.4297 0.1519 104
2.9608999999999996 -1.3535 -0.49 162
11.8906 -5.4336 0.4548 163
2.9922000000000004 -1.3672 -0.4175 224
11.8828 -5.4297 0.7573000000000001 141
2.9941000000000004 -1.3681999999999999 -0.34130000000000005 196
11.875 -5.4297 1.0635 213
3.0351999999999997 -1.3866999999999998 -0.2688 200
11.898399999999999 -5.4375 1.3700999999999999 195
3.0370999999999997 -1.3877000000000002 -0.19149999999999998 185
11.875 -5.425800000000001 1.6738 90
3.0488 -1.3936000000000002 -0.1152 154
11.906199999999998 -5.4375 1.9893 184
3.1367000000000003 -1.4325999999999999 -0.0394 134
11.8828 -5.4297 2.2969 209
2.9120999999999997 -1.3437999999999999 -0.5581 148
11.875 -5.480499999999999 0.1521 254
2.9395 -1.3563999999999998 -0.48710000000000003 24
11.8906 -5.484400000000001 0.45530000000000004 251
2.9688 -1.3700999999999999 -0.415 130
11.8906 -5.484400000000001 0.7593000000000001 208
2.9688 -1.3700999999999999 -0.33909999999999996 132
11.8672 -5.4765999999999995 1.0645 56
2.998 -1.3828 -0.2659 131
11.898399999999999 -5.488300000000001 1.3730000000000002 230
3.002 -1.3857 -0.18969999999999998 156
11.875 -5.480499999999999 1.6777000000000002 146
3.0938 -1.4277000000000002 -0.11720000000000001 203
11.898399999999999 -5.488300000000001 1.9912 43
3.1094 -1.4346 -0.0391 159
11.8828 -5.484400000000001 2.3008 111
2.8867000000000003 -1.3447 -0.5542 201
11.906199999999998 -5.542999999999999 0.1527 166
2.9082 -1.3544999999999998 -0.4829 114
11.8672 -5.5273 0.45530000000000004 100
2.918 -1.3594 -0.40869999999999995 162
11.8906 -5.5352 0.7603 179
2.9492000000000003 -1.374 -0.33740000000000003 169
11.8828 -5.5352 1.0674 74
2.9589999999999996 -1.3779 -0.26289999999999997 76
11.8906 -5.5390999999999995 1.374 210
3.0 -1.3975 -0.18989999999999999 63
11.8828 -5.5352 1.6816 92
3.0742000000000003 -1.4316 -0.1166 56
11.8828 -5.5352 1.9922 106
3.0702999999999996 -1.4297 -0.0387 76
11.8906 -5.5352 2.3047 84
2.8495999999999997 -1.3397999999999999 -0.5478999999999999 8
3.748 -1.7616999999999998 0.0475 201
2.8945 -1.3603999999999998 -0.48119999999999996 59
11.8672 -5.578099999999999 0.45630000000000004 32
2.8964999999999996 -1.3603999999999998 -0.406 181
11.875 -5.582000000000001 0.7606999999999999 169
2.9199 -1.3721 -0.3345 173
11.898399999999999 -5.5898 1.0703 141
2.9395 -1.3809 -0.2615 69
11.8828 -5.5859000000000005 1.376 121
2.9551 -1.3887 -0.1873 148
11.875 -5.582000000000001 1.6825999999999999 208
3.0156 -1.4169999999999998 -0.11460000000000001 90
11.8906 -5.5859000000000005 1.9961000000000002 33
3.0449 -1.4306999999999999 -0.0384 171
11.8906 -5.5859000000000005 2.3086 117
2.8164 -1.3359 -0.5425 98
3.5801 -1.6972999999999998 0.0454 0
2.8672000000000004 -1.3594 -0.47729999999999995 63
11.8828 -5.6328 0.4573 88
2.8632999999999997 -1.3584 -0.4023 154
11.875 -5.6328 0.7622 178
2.9101999999999997 -1.3799000000000001 -0.33399999999999996 6
11.898399999999999 -5.644500000000001 1.0723 193
2.9062 -1.3788999999999998 -0.259 67
11.8906 -5.640599999999999 1.3788999999999998 76
2.9004000000000003 -1.376 -0.1841 17
11.875 -5.6289 1.6846 46
3.0176 -1.4306999999999999 -0.1148 228
11.8828 -5.636699999999999 1.999 1
3.0233999999999996 -1.4336000000000002 -0.0382 102
11.8828 -5.6328 2.3105 107
2.8202999999999996 -1.3496000000000001 -0.5439 50
3.4766000000000004 -1.6631 0.044199999999999996 90
2.8339999999999996 -1.3563999999999998 -0.4727 178
11.875 -5.6836 0.45799999999999996 146
2.8358999999999996 -1.3574000000000002 -0.39890000000000003 170
11.875 -5.6836 0.7631999999999999 167
2.8672000000000004 -1.3721 -0.3296 214
11.8828 -5.6875 1.0723 110
2.8808999999999996 -1.3779 -0.2571 243
11.8906 -5.6875 1.3809 162
2.9120999999999997 -1.3936000000000002 -0.1852 192
11.8594 -5.675800000000001 1.6855000000000002 165
2.9433999999999996 -1.4091999999999998 -0.11220000000000001 33
11.8906 -5.6875 2.002 1
2.9922000000000004 -1.4316 -0.0379 15
11.875 -5.6836 2.3145 251
2.7969 -1.3506 -0.5405 245
3.4004000000000003 -1.6416 0.0432 24
2.8066000000000004 -1.3544999999999998 -0.46880000000000005 143
11.8594 -5.7265999999999995 0.4583 177
2.8223000000000003 -1.3622999999999998 -0.39770000000000005 57
11.875 -5.734400000000001 0.7646 149
2.8418 -1.3711000000000002 -0.32689999999999997 156
11.875 -5.734400000000001 1.0732 56
2.8476999999999997 -1.374 -0.2546 109
11.8906 -5.7422 1.3828 19
2.8789 -1.3896000000000002 -0.1833 61
11.8672 -5.7265999999999995 1.6894999999999998 43
2.9648000000000003 -1.4316 -0.11320000000000001 68
11.8828 -5.734400000000001 2.0059 33
2.9745999999999997 -1.4365 -0.0378 90
11.8828 -5.738300000000001 2.3203 213
2.7676 -1.3477000000000001 -0.5356000000000001 115
3.4004000000000003 -1.6562000000000001 0.0433 205
2.7773000000000003 -1.3525 -0.4644 131
11.8594 -5.7734000000000005 0.4587 230
2.7969 -1.3622999999999998 -0.3945 8
11.8828 -5.7890999999999995 0.7666 94
2.8183999999999996 -1.3730000000000002 -0.325 142
11.8828 -5.7852 1.0762 33
2.8105 -1.3691 -0.25170000000000003 150
11.8828 -5.7890999999999995 1.3847999999999998 28
2.8516000000000004 -1.3896000000000002 -0.1819 209
11.8828 -5.7852 1.6943000000000001 69
2.877 -1.4013999999999998 -0.1099 142
11.875 -5.7852 2.0078 220
2.9414 -1.4325999999999999 -0.0374 34
11.8828 -5.7890999999999995 2.3223 136
2.7382999999999997 -1.3457 -0.5307999999999999 8
3.3632999999999997 -1.6533000000000002 0.0429 95
2.7637 -1.3574000000000002 -0.4629 240
11.875 -5.8359000000000005 0.46020000000000005 21
2.7695 -1.3613 -0.39159999999999995 73
11.8828 -5.8398 0.7676000000000001 173
2.793 -1.3730000000000002 -0.3225 218
11.8828 -5.8359000000000005 1.0771 255
2.793 -1.3721 -0.2505 98
11.875 -5.832000000000001 1.3857 180
2.8202999999999996 -1.3857 -0.1802 168
11.875 -5.8359000000000005 1.6963 83
2.8711 -1.4111000000000002 -0.1099 206
11.875 -5.8359000000000005 2.0117 142
2.9004000000000003 -1.4258000000000002 -0.0369 40
11.8672 -5.832000000000001 2.3242 167
3.2969 -1.6338 0.0421 133
2.7305 -1.3525 -0.45799999999999996 100
11.875 -5.8828 0.46090000000000003 8
2.748 -1.3613 -0.3889 185
11.875 -5.8828 0.7681 196
2.7617000000000003 -1.3691 -0.3193 209
11.8828 -5.886699999999999 1.0791 184
2.7812 -1.3779 -0.24989999999999998 191
11.8828 -5.890599999999999 1.3896000000000002 176
2.7812 -1.3788999999999998 -0.17800000000000002 249
11.875 -5.8828 1.6991999999999998 151
2.8418 -1.4082 -0.10890000000000001 82
11.8828 -5.890599999999999 2.0156 163
2.8711 -1.4228999999999998 -0.0366 189
11.8672 -5.8789 2.3281 67
2.6543 -1.3262 -0.5156000000000001 222
3.2598000000000003 -1.6288999999999998 0.0417 184
2.6875 -1.3437999999999999 -0.4517 218
11.8828 -5.9375 0.4622 185
2.7129000000000003 -1.3555000000000001 -0.3848 45
11.875 -5.9336 0.7695000000000001 201
2.7108999999999996 -1.3544999999999998 -0.314 48
11.875 -5.9336 1.0801 64
2.7754000000000003 -1.3877000000000002 -0.24989999999999998 51
11.875 -5.9336 1.3906 75
2.7733999999999996 -1.3857 -0.1777 153
11.8594 -5.925800000000001 1.7002000000000002 78
2.8202999999999996 -1.4091999999999998 -0.10830000000000001 29
11.898399999999999 -5.9453 2.0215 201
2.8613 -1.4297 -0.0365 209
11.875 -5.9336 2.334 216
2.6660000000000004 -1.3447 -0.519 233
3.2266000000000004 -1.6269999999999998 0.0414 167
2.6836 -1.3535 -0.4517 135
11.875 -5.988300000000001 0.46259999999999996 180
2.6895 -1.3555000000000001 -0.3818 140
11.875 -5.988300000000001 0.7709999999999999 178
11.8672 -5.984400000000001 1.082 114
11.8828 -5.9922 1.3936000000000002 207
2.7637 -1.3936000000000002 -0.17739999999999997 166
11.8594 -5.980499999999999 1.7031 246
2.7891000000000004 -1.4062000000000001 -0.1073 168
11.8672 -5.984400000000001 2.0215 4
2.8438 -1.4336000000000002 -0.0363 10
11.8828 -5.9922 2.3398 47
2.6620999999999997 -1.3535 -0.519 126
3.1776999999999997 -1.6162 0.0408 68
2.6660000000000004 -1.3563999999999998 -0.4497 216
11.8672 -6.0352 0.4629 253
2.6699 -1.3584 -0.3799 142
11.8828 -6.042999999999999 0.7729 211
2.6992000000000003 -1.3721 -0.3135 70
11.8672 -6.0390999999999995 1.084 204
2.6895 -1.3681999999999999 -0.24280000000000002 186
11.8828 -6.042999999999999 1.3965 183
2.7129000000000003 -1.3799000000000001 -0.1743 7
11.8594 -6.0352 1.7061000000000002 153
2.7577999999999996 -1.4022999999999999 -0.1063 92
11.875 -6.0390999999999995 2.0254 17
2.8242000000000003 -1.4365 -0.0361 243
11.8828 -6.042999999999999 2.3438 86
2.6289 -1.3486000000000002 -0.5136999999999999 38
3.1327999999999996 -1.6074000000000002 0.0403 13
2.6562 -1.3633000000000002 -0.4487 159
11.8672 -6.0859000000000005 0.4639 88
2.6445 -1.3563999999999998 -0.37670000000000003 151
11.8594 -6.0859000000000005 0.7729 0
2.6914 -1.3809 -0.3135 131
11.875 -6.0938 1.0869 83
2.6855 -1.3779 -0.24280000000000002 180
11.8672 -6.0859000000000005 1.3965 175
2.7129000000000003 -1.3916 -0.1747 56
11.8672 -6.0859000000000005 1.71 236
2.7422000000000004 -1.4072 -0.1058 255
11.8672 -6.0898 2.0273 213
2.7870999999999997 -1.4297 -0.035699999999999996 168
11.8672 -6.0898 2.3457 184
2.6113 -1.3516 -0.5112 204
3.0781 -1.5928 0.039599999999999996 163
2.6523000000000003 -1.3730000000000002 -0.449 221
11.8594 -6.136699999999999 0.4646 240
2.6367000000000003 -1.3643 -0.3765 241
11.851600000000001 -6.1328 0.7734000000000001 86
2.6660000000000004 -1.3799000000000001 -0.31079999999999997 21
11.8906 -6.1523 1.0898 219
2.668 -1.3809 -0.24170000000000003 16
11.8672 -6.140599999999999 1.3994 16
2.6757999999999997 -1.3847999999999998 -0.1726 36
11.851600000000001 -6.1328 1.7109 136
2.7245999999999997 -1.4102000000000001 -0.10529999999999999 211
11.8672 -6.140599999999999 2.0312 29
2.7812 -1.4394999999999998 -0.035699999999999996 186
11.8672 -6.140599999999999 2.3496 95
2.6113 -1.3622999999999998 -0.5117 144
3.0625 -1.5977000000000001 0.0395 98
2.6406 -1.3779 -0.4475 173
11.8594 -6.1914 0.4653 138
2.6289 -1.3721 -0.376 195
11.8594 -6.1875 0.7759 225
2.6562 -1.3857 -0.3103 97
11.875 -6.1953 1.0898 0
2.6641000000000004 -1.3896000000000002 -0.24170000000000003 253
11.8594 -6.1914 1.4013999999999998 71
2.6641000000000004 -1.3906 -0.1721 115
11.843800000000002 -6.1797 1.7128999999999999 111
2.6992000000000003 -1.4082 -0.1045 12
11.875 -6.1953 2.0352 73
2.7539 -1.4365 -0.0354 90
11.8672 -6.1953 2.3535 9
2.6113 -1.374 -0.5127 145
3.0351999999999997 -1.5977000000000001 0.0392 242
2.6172000000000004 -1.3779 -0.4446 55
11.851600000000001 -6.238300000000001 0.4658 137
2.6308999999999996 -1.3847999999999998 -0.377 236
11.8672 -6.2461 0.7778 180
2.6504000000000003 -1.3955000000000002 -0.3103 59
11.8594 -6.2422 1.0908 11
2.6445 -1.3916 -0.2404 171
11.8672 -6.2461 1.4043 24
2.6582 -1.3994 -0.1721 71
11.8594 -6.238300000000001 1.7178 169
2.6836 -1.4121000000000001 -0.1041 200
11.8672 -6.2461 2.0391 88
2.7363 -1.4404 -0.0352 216
11.875 -6.25 2.3594 169
2.6094 -1.3847999999999998 -0.5136999999999999 208
3.0117000000000003 -1.5986000000000002 0.039 19
2.623 -1.3925999999999998 -0.44630000000000003 82
11.843800000000002 -6.2890999999999995 0.46659999999999996 140
2.6151999999999997 -1.3887 -0.37549999999999994 107
11.8672 -6.300800000000001 0.7787999999999999 101
2.6523000000000003 -1.4082 -0.311 175
11.8594 -6.292999999999999 1.0928 248
2.625 -1.3936000000000002 -0.2391 146
11.8594 -6.296900000000001 1.4072 6
2.6504000000000003 -1.4072 -0.17190000000000003 46
11.8672 -6.296900000000001 1.7227000000000001 43
2.6738 -1.4199000000000002 -0.1039 104
11.851600000000001 -6.292999999999999 2.0391 69
2.7129000000000003 -1.4404 -0.035 64
11.875 -6.300800000000001 2.3633 0
2.5938 -1.3887 -0.5112 68
2.9941000000000004 -1.6025 0.0388 15
2.6211 -1.4033000000000002 -0.447 249
11.8594 -6.3477 0.4678 25
2.6035000000000004 -1.3936000000000002 -0.37450000000000006 180
11.8594 -6.3477 0.7803 235
2.6483999999999996 -1.4169999999999998 -0.311 173
11.8594 -6.3477 1.0957 224
2.6211 -1.4022999999999999 -0.2391 25
11.851600000000001 -6.3438 1.4082 131
2.6308999999999996 -1.4091999999999998 -0.171 203
11.8594 -6.3477 1.7246000000000001 254
2.6719 -1.4297 -0.10400000000000001 165
11.8594 -6.3477 2.0449 146
2.6914 -1.4413999999999998 -0.0348 211
11.875 -6.355499999999999 2.3672 69
2.582 -1.3936000000000002 -0.5103 104
2.9492000000000003 -1.5918 0.0383 179
2.6132999999999997 -1.4102000000000001 -0.44630000000000003 159
11.8594 -6.4023 0.46880000000000005 7
2.6035000000000004 -1.4053 -0.375 111
11.851600000000001 -6.394500000000001 0.7807999999999999 172
2.625 -1.4169999999999998 -0.3091 251
11.8594 -6.3984000000000005 1.0967 53
2.623 -1.416 -0.2397 214
11.8594 -6.4023 1.4121000000000001 182
2.6191000000000004 -1.4141 -0.1705 21
11.843800000000002 -6.394500000000001 1.7256 27
2.6620999999999997 -1.4365 -0.1038 151
11.8672 -6.4062 2.0508 175
2.6757999999999997 -1.4453 -0.0347 248
11.8672 -6.4023 2.3691 253
2.5879000000000003 -1.4082 -0.5122 165
2.9257999999999997 -1.5928 0.0381 132
2.6055 -1.4180000000000001 -0.4458 232
11.8594 -6.453099999999999 0.4697 246
2.6016000000000004 -1.416 -0.37549999999999994 18
11.851600000000001 -6.449199999999999 0.7822 94
2.6132999999999997 -1.4228999999999998 -0.3081 70
11.851600000000001 -6.453099999999999 1.0986 216
2.625 -1.4287 -0.2404 35
11.8594 -6.457000000000001 1.415 60
2.6151999999999997 -1.4228999999999998 -0.1705 199
11.7969 -6.421900000000001 1.7227000000000001 42
2.6483999999999996 -1.4424000000000001 -0.1035 105
11.875 -6.4609000000000005 2.0547 45
2.6719 -1.4541 -0.0347 115
11.8594 -6.457000000000001 2.373 79
2.5742000000000003 -1.4121000000000001 -0.5103 112
2.9062 -1.5947 0.0379 77
2.5898000000000003 -1.4209 -0.44380000000000003 217
11.8281 -6.4922 0.46950000000000003 33
2.6035000000000004 -1.4287 -0.3765 159
11.851600000000001 -6.5 0.7837000000000001 144
2.6172000000000004 -1.4355000000000002 -0.3091 249
11.851600000000001 -6.5039 1.1006 245
2.6016000000000004 -1.4277000000000002 -0.23879999999999998 25
11.8672 -6.511699999999999 1.4180000000000001 161
2.6151999999999997 -1.4346 -0.1709 118
11.8203 -6.484400000000001 1.7285 143
2.6367000000000003 -1.4472999999999998 -0.1033 250
11.875 -6.511699999999999 2.0586 61
2.6719 -1.4658000000000002 -0.0347 186
11.8672 -6.5078 2.3789 235
2.5742000000000003 -1.4228999999999998 -0.5112 227
2.8887 -1.5966999999999998 0.0377 152
2.5918 -1.4336000000000002 -0.4451 93
11.8281 -6.542999999999999 0.4702 38
2.5839999999999996 -1.4297 -0.37450000000000006 29
11.8594 -6.5547 0.7856000000000001 173
2.627 -1.4521000000000002 -0.31079999999999997 184
11.851600000000001 -6.5547 1.1025 72
2.5898000000000003 -1.4325999999999999 -0.2382 199
11.8594 -6.5547 1.4188999999999998 100
2.623 -1.4502000000000002 -0.1716 16
11.8203 -6.5390999999999995 1.7324000000000002 40
2.6367000000000003 -1.4580000000000002 -0.10339999999999999 20
12.1953 -6.7422 2.1191 172
2.6387 -1.459 -0.0344 50
12.1719 -6.730499999999999 2.4453 188
2.5683999999999996 -1.4325999999999999 -0.5112 69
2.8651999999999997 -1.5977000000000001 0.0374 144
2.5918 -1.4453 -0.446 204
11.851600000000001 -6.613300000000001 0.4722 100
2.5742000000000003 -1.4355000000000002 -0.3738 123
11.843800000000002 -6.605499999999999 0.7861 45
2.6094 -1.4550999999999998 -0.3093 98
11.8672 -6.6172 1.1064 6
2.5918 -1.4453 -0.23879999999999998 67
11.851600000000001 -6.609400000000001 1.4219 174
2.6113 -1.4561000000000002 -0.17129999999999998 35
11.8203 -6.5938 1.7353999999999998 121
2.6308999999999996 -1.4668 -0.10339999999999999 57
12.1953 -6.800800000000001 2.123 48
2.6289 -1.4658000000000002 -0.034300000000000004 209
12.226600000000001 -6.8164 2.4609 188
2.543 -1.4297 -0.5068 102
2.8555 -1.6055000000000001 0.0374 116
2.5938 -1.4580000000000002 -0.4473 68
3.5254000000000003 -1.9813999999999998 0.1394 29
2.5801 -1.4502000000000002 -0.37520000000000003 20
11.835899999999999 -6.6562 0.7876000000000001 171
2.5918 -1.4569999999999999 -0.3079 66
11.8672 -6.671900000000001 1.1084 63
2.5938 -1.459 -0.2394 95
11.851600000000001 -6.6640999999999995 1.4247999999999998 139
2.5918 -1.4569999999999999 -0.1703 128
11.7969 -6.636699999999999 1.7363 12
2.6348000000000003 -1.4813999999999998 -0.1038 36
12.210899999999999 -6.8672 2.1289 74
2.623 -1.4756 -0.034300000000000004 65
12.210899999999999 -6.8672 2.4629 9
2.5508 -1.4463 -0.5097999999999999 57
2.7910000000000004 -1.5819999999999999 0.0366 165
2.5762 -1.4609 -0.4451 5
3.4433999999999996 -1.9521000000000002 0.1364 65
2.5683999999999996 -1.4561000000000002 -0.3743 189
11.843800000000002 -6.7148 0.7896 195
2.5801 -1.4628999999999999 -0.3071 68
11.8594 -6.7227 1.1094 31
2.5898000000000003 -1.4678 -0.2394 203
11.851600000000001 -6.7188 1.4277000000000002 142
2.5976999999999997 -1.4716999999999998 -0.171 252
11.8125 -6.6953 1.7412 142
2.6211 -1.4853999999999998 -0.10339999999999999 74
12.1172 -6.8711 2.1172 106
2.6289 -1.4902000000000002 -0.0344 110
12.218800000000002 -6.9297 2.4707 5
2.5352 -1.4491999999999998 -0.5078 69
2.7891000000000004 -1.5937999999999999 0.036699999999999997 218
2.5683999999999996 -1.4678 -0.4446 95
3.3358999999999996 -1.9062000000000001 0.1323 220
2.5702999999999996 -1.4697 -0.37549999999999994 202
11.851600000000001 -6.7734000000000005 0.7915000000000001 208
11.843800000000002 -6.769500000000001 1.1104 253
2.5742000000000003 -1.4707 -0.2384 187
11.8594 -6.7773 1.4306999999999999 79
2.5957 -1.4834 -0.17129999999999998 229
11.8125 -6.7539 1.7450999999999999 48
2.6094 -1.4922 -0.10310000000000001 253
12.164100000000001 -6.949199999999999 2.1289 101
2.6191000000000004 -1.4961000000000002 -0.0344 203
12.218800000000002 -6.980499999999999 2.4746 4
2.5312 -1.4580000000000002 -0.5078 103
2.7733999999999996 -1.5977000000000001 0.0365 221
2.5723000000000003 -1.4813999999999998 -0.446 240
3.2733999999999996 -1.8857 0.1301 250
2.5625 -1.4766 -0.375 152
11.851600000000001 -6.828099999999999 0.7929999999999999 245
2.5879000000000003 -1.4912 -0.3093 56
11.835899999999999 -6.8203 1.1123 30
2.5645 -1.4775 -0.2382 9
11.8594 -6.832000000000001 1.4336000000000002 229
2.5976999999999997 -1.4961000000000002 -0.1716 229
11.8125 -6.8047 1.7480000000000002 22
2.6074 -1.5019999999999998 -0.1033 48
12.1406 -6.9961 2.1309 175
2.6055 -1.5019999999999998 -0.034300000000000004 11
12.2344 -7.050800000000001 2.4824 87
2.5078 -1.4569999999999999 -0.5044 4
2.7577999999999996 -1.6025 0.0364 19
2.5664 -1.4902000000000002 -0.446 55
3.2266000000000004 -1.874 0.1285 34
2.5469 -1.4794999999999998 -0.3735 125
11.843800000000002 -6.8789 0.7939 5
2.5839999999999996 -1.501 -0.3093 173
11.851600000000001 -6.8828 1.1162 55
2.5664 -1.4912 -0.23879999999999998 208
11.843800000000002 -6.8789 1.4355000000000002 243
2.5781 -1.4971 -0.17079999999999998 214
11.8125 -6.863300000000001 1.7519999999999998 249
2.6074 -1.5146000000000002 -0.1035 252
12.148399999999999 -7.0547 2.1348 230
2.5898000000000003 -1.5049000000000001 -0.0341 124
12.218800000000002 -7.0977 2.4844 219
2.498 -1.4609 -0.5029 163
2.7226999999999997 -1.5928 0.036000000000000004 91
2.5664 -1.5019999999999998 -0.447 232
3.207 -1.876 0.12789999999999999 133
2.5527 -1.4931999999999999 -0.375 34
11.835899999999999 -6.921900000000001 0.7948999999999999 31
2.582 -1.5107 -0.3098 27
11.8594 -6.9375 1.1181999999999999 126
2.5683999999999996 -1.5029 -0.2394 216
11.851600000000001 -6.9375 1.4385 95
2.5664 -1.501 -0.1703 6
11.8047 -6.9062 1.7538999999999998 124
2.6035000000000004 -1.5234 -0.1035 174
12.1172 -7.0898 2.1348 16
2.5918 -1.5166 -0.0342 231
12.210899999999999 -7.144500000000001 2.4863 192
2.4883 -1.4678 -0.502 113
2.707 -1.5957 0.0358 231
2.5586 -1.5078 -0.44630000000000003 6
3.1464999999999996 -1.8544999999999998 0.1257 131
2.5547 -1.5059 -0.376 155
11.835899999999999 -6.9765999999999995 0.7964 206
2.5702999999999996 -1.5156 -0.3091 59
11.851600000000001 -6.984400000000001 1.1201 164
2.5664 -1.5127000000000002 -0.2396 140
11.8594 -6.9922 1.4424000000000001 37
2.5683999999999996 -1.5137 -0.17079999999999998 122
11.8047 -6.9609000000000005 1.7578 95
2.5957 -1.5293 -0.10339999999999999 169
12.093800000000002 -7.1289 2.1328 126
2.5898000000000003 -1.5263999999999998 -0.0342 4
12.1875 -7.1836 2.4863 189
2.4844 -1.4766 -0.502 50
2.6757999999999997 -1.5897999999999999 0.0355 216
2.543 -1.5116999999999998 -0.4446 5
3.1289 -1.8603999999999998 0.1252 78
2.5566 -1.5194999999999999 -0.377 98
11.835899999999999 -7.0352 0.7983 155
2.5645 -1.5244 -0.3091 32
11.843800000000002 -7.0390999999999995 1.1211 111
2.5586 -1.5205000000000002 -0.2394 183
11.8594 -7.050800000000001 1.4463 6
2.5762 -1.5312000000000001 -0.1716 149
11.8047 -7.015599999999999 1.7607 77
2.582 -1.5352000000000001 -0.10310000000000001 172
12.1875 -7.2461 2.1562 62
2.5879000000000003 -1.5381 -0.034300000000000004 76
12.226600000000001 -7.265599999999999 2.5 8
2.4727 -1.4824000000000002 -0.501 53
2.668 -1.5986000000000002 0.0355 67
2.5449 -1.5244 -0.4458 126
3.0645 -1.8359 0.1229 208
2.5469 -1.5263999999999998 -0.3765 141
11.843800000000002 -7.0938 0.8003 69
2.5702999999999996 -1.541 -0.3105 188
11.843800000000002 -7.0977 1.124 111
2.5469 -1.5263999999999998 -0.2389 193
11.851600000000001 -7.1015999999999995 1.4472999999999998 240
2.5742000000000003 -1.5419999999999998 -0.17190000000000003 71
11.8125 -7.078099999999999 1.7656 186
2.5801 -1.5459 -0.1033 171
12.1797 -7.296900000000001 2.1582 39
2.5742000000000003 -1.5430000000000001 -0.0342 124
12.218800000000002 -7.3203 2.5039 130
2.4453 -1.4775 -0.4966 90
2.6523000000000003 -1.6025 0.0353 209
2.541 -1.5361000000000002 -0.44630000000000003 193
3.0547000000000004 -1.8447 0.12279999999999999 240
2.5312 -1.5293 -0.375 106
11.835899999999999 -7.1484000000000005 0.8018000000000001 110
2.5664 -1.5497999999999998 -0.3105 137
11.843800000000002 -7.1562 1.127 119
2.5391 -1.5341999999999998 -0.2386 191
11.835899999999999 -7.1523 1.4491999999999998 121
2.5586 -1.5459 -0.17129999999999998 3
11.8203 -7.140599999999999 1.7705000000000002 19
2.5879000000000003 -1.5635 -0.1038 255
12.0781 -7.300800000000001 2.1465 56
2.5664 -1.5497999999999998 -0.0341 193
12.0781 -7.296900000000001 2.4805 114
2.4316 -1.4805000000000001 -0.49439999999999995 240
2.6289 -1.6006 0.0351 121
2.5312 -1.541 -0.44530000000000003 193
3.0137 -1.835 0.12140000000000001 71
2.5293 -1.54 -0.37549999999999994 21
11.835899999999999 -7.207000000000001 0.8031999999999999 121
2.5508 -1.5527000000000002 -0.3091 200
11.843800000000002 -7.2109000000000005 1.1289 205
2.5488 -1.5518 -0.2401 113
11.843800000000002 -7.2109000000000005 1.4531 68
2.5469 -1.5508000000000002 -0.17079999999999998 249
11.7969 -7.1836 1.7715 3
2.5898000000000003 -1.5771000000000002 -0.1041 249
12.0156 -7.3203 2.1387 102
2.5664 -1.5635 -0.0342 70
12.0156 -7.3164 2.4727 84
2.4219 -1.4863 -0.49369999999999997 104
2.625 -1.6103999999999998 0.0351 2
2.5176 -1.5449000000000002 -0.44380000000000003 205
3.0214999999999996 -1.8535 0.1219 18
2.541 -1.5596 -0.3779 158
11.8281 -7.2578 0.8051999999999999 41
2.543 -1.5605000000000002 -0.3091 221
11.835899999999999 -7.261699999999999 1.1309 128
2.5508 -1.5644999999999998 -0.2407 29
11.851600000000001 -7.269500000000001 1.4569999999999999 136
2.5547 -1.5674000000000001 -0.1716 108
11.8047 -7.2422 1.7763999999999998 135
2.5683999999999996 -1.5762 -0.1035 136
11.960899999999999 -7.3359000000000005 2.1328 196
2.5723000000000003 -1.5781 -0.0344 132
11.968800000000002 -7.3438 2.4688 3
2.4141 -1.4922 -0.4932 182
2.6211 -1.6200999999999999 0.0351 118
2.5098 -1.5508000000000002 -0.4434 64
2.9433999999999996 -1.8193000000000001 0.11900000000000001 21
2.5332 -1.5654 -0.3774 208
11.835899999999999 -7.3164 0.8066 4
2.541 -1.5703 -0.3093 107
11.835899999999999 -7.3164 1.1328 108
2.5391 -1.5703 -0.2402 37
11.8594 -7.328099999999999 1.4609 212
2.5527 -1.5781 -0.17190000000000003 234
11.8047 -7.296900000000001 1.7803 210
2.5625 -1.584 -0.10339999999999999 251
11.914100000000001 -7.363300000000001 2.1289 230
2.5702999999999996 -1.5888999999999998 -0.0344 58
11.9219 -7.3711 2.4648 67
2.4121 -1.5038999999999998 -0.49369999999999997 91
2.623 -1.6357 0.0352 49
2.5059 -1.5625 -0.44380000000000003 169
2.9297000000000004 -1.8262 0.11869999999999999 217
2.5195 -1.5713 -0.3765 169
11.8281 -7.375 0.8086 150
2.541 -1.585 -0.3103 133
11.843800000000002 -7.3828 1.1367 7
2.5215 -1.5722999999999998 -0.2391 214
11.843800000000002 -7.386699999999999 1.4628999999999999 157
2.5469 -1.5878999999999999 -0.17190000000000003 240
11.8125 -7.363300000000001 1.7852000000000001 147
2.5605 -1.5966999999999998 -0.1036 60
11.835899999999999 -7.3789 2.1211 80
2.5508 -1.5897999999999999 -0.0342 157
11.875 -7.4062 2.4609 187
2.3906 -1.5019999999999998 -0.4902 104
2.6151999999999997 -1.6425999999999998 0.0352 153
2.502 -1.5722999999999998 -0.4443 233
2.9101999999999997 -1.8281 0.1182 55
2.498 -1.5693000000000001 -0.374 46
11.8281 -7.4297 0.8101 246
2.5469 -1.5996000000000001 -0.3115 211
11.843800000000002 -7.4414 1.1387 61
2.5234 -1.585 -0.2397 168
11.835899999999999 -7.4375 1.4647999999999999 9
2.5312 -1.5897999999999999 -0.17129999999999998 198
11.8281 -7.4297 1.791 160
2.5683999999999996 -1.6133000000000002 -0.1041 6
11.8281 -7.4336 2.125 170
2.5449 -1.5986000000000002 -0.0342 134
11.843800000000002 -7.4414 2.459 12
2.3711 -1.501 -0.4875 21
2.5918 -1.6406 0.035 140
2.4961 -1.5791 -0.44380000000000003 47
2.8906 -1.8281 0.1176 123
2.502 -1.5819999999999999 -0.37520000000000003 192
11.8203 -7.480499999999999 0.8109999999999999 43
2.5312 -1.6016 -0.3103 72
11.835899999999999 -7.488300000000001 1.1406 243
2.5391 -1.6063999999999998 -0.24170000000000003 77
11.835899999999999 -7.488300000000001 1.4678 216
2.5254 -1.5977000000000001 -0.17129999999999998 96
11.835899999999999 -7.488300000000001 1.7969 242
2.5605 -1.6200999999999999 -0.10400000000000001 10
11.851600000000001 -7.4961 2.1309 171
2.5488 -1.6122999999999998 -0.0344 135
11.8281 -7.484400000000001 2.4609 239
2.3594 -1.5038999999999998 -0.4861 150
2.5879000000000003 -1.6494 0.035 162
2.4844 -1.5830000000000002 -0.4426 63
2.8613 -1.8241999999999998 0.1167 99
2.5117 -1.6006 -0.3774 130
11.8281 -7.5390999999999995 0.8134999999999999 60
2.5234 -1.6074000000000002 -0.3098 150
11.835899999999999 -7.542999999999999 1.1426 108
2.5273 -1.6103999999999998 -0.24109999999999998 89
11.851600000000001 -7.550800000000001 1.4727000000000001 140
2.5332 -1.6152000000000002 -0.1721 86
11.8203 -7.5352 1.7978999999999998 174
2.5488 -1.624 -0.1038 155
11.851600000000001 -7.550800000000001 2.1367 194
2.541 -1.6200999999999999 -0.034300000000000004 58
11.835899999999999 -7.542999999999999 2.4688 174
2.3613 -1.5175999999999998 -0.4875 244
2.5762 -1.6562000000000001 0.0349 64
2.4707 -1.5888999999999998 -0.4414 198
2.8339999999999996 -1.8222999999999998 0.1159 93
2.5078 -1.6122999999999998 -0.3779 19
11.8203 -7.6015999999999995 0.8149 126
2.5234 -1.6221 -0.3105 116
11.8125 -7.5938 1.1436 106
2.5137 -1.6162 -0.2404 105
11.843800000000002 -7.613300000000001 1.4746000000000001 248
2.5352 -1.6299000000000001 -0.1726 59
11.8281 -7.605499999999999 1.8037 181
2.5371 -1.6309 -0.1035 6
11.843800000000002 -7.613300000000001 2.1406 7
2.541 -1.6338 -0.0344 45
11.835899999999999 -7.613300000000001 2.4746 13
2.3516 -1.5244 -0.4868 145
2.5702999999999996 -1.666 0.0349 143
2.4609 -1.5947 -0.4407 151
2.793 -1.8105000000000002 0.1144 29
2.498 -1.6191 -0.3774 200
11.8281 -7.667999999999999 0.8173999999999999 58
2.5176 -1.6318000000000001 -0.3105 125
11.8203 -7.6602 1.1465 176
2.5 -1.6211000000000002 -0.2397 141
11.835899999999999 -7.671900000000001 1.4785 174
2.5273 -1.6387 -0.1726 241
11.8281 -7.667999999999999 1.8075999999999999 143
2.5352 -1.6436000000000002 -0.1038 111
11.835899999999999 -7.671900000000001 2.1445 190
2.5254 -1.6366999999999998 -0.034300000000000004 63
11.843800000000002 -7.675800000000001 2.4805 52
2.334 -1.5234 -0.4841 57
2.5781 -1.6836000000000002 0.0351 197
2.457 -1.6044999999999998 -0.4409 88
2.7793 -1.8154 0.11410000000000001 242
2.4824 -1.6211000000000002 -0.376 1
2.5156 -1.6416 -0.311 65
11.8281 -7.7227 1.1504 67
2.5078 -1.6377000000000002 -0.24109999999999998 124
11.8203 -7.7188 1.4794999999999998 189
2.5098 -1.6387 -0.1716 82
11.8203 -7.7188 1.8105000000000002 126
2.5449 -1.6611000000000002 -0.1043 3
11.8281 -7.7227 2.1484 150
2.5176 -1.6436000000000002 -0.0342 59
11.8281 -7.7265999999999995 2.4844 70
2.3125 -1.5205000000000002 -0.4805 34
2.5645 -1.6875 0.035 217
2.4473 -1.6103999999999998 -0.44020000000000004 238
2.7598000000000003 -1.8154 0.11359999999999999 241
2.4902 -1.6387 -0.3779 122
3.9375 -2.5918 0.27149999999999996 186
2.5117 -1.6533000000000002 -0.3115 109
2.5098 -1.6513999999999998 -0.24170000000000003 63
2.4961 -1.6425999999999998 -0.17129999999999998 63
2.5371 -1.6688999999999998 -0.1042 113
2.5215 -1.6582 -0.0344 74
11.8203 -7.7734000000000005 2.4863 61
2.3105 -1.5303 -0.48119999999999996 15
2.5508 -1.6894999999999998 0.0349 180
2.4395 -1.6162 -0.4397 18
2.7461 -1.8193000000000001 0.11320000000000001 28
2.4844 -1.6455000000000002 -0.37770000000000004 26
3.9082 -2.5898000000000003 0.27 209
2.5 -1.6562000000000001 -0.3105 205
2.5039 -1.6591999999999998 -0.24170000000000003 76
2.5059 -1.6591999999999998 -0.1721 178
2.5312 -1.6768 -0.1042 49
4.6172 -3.0586 0.8384 165
2.5234 -1.6719 -0.0345 93
12.148399999999999 -8.0469 2.5625 208
2.3047 -1.5381 -0.48119999999999996 74
2.5508 -1.7012 0.0349 205
2.4141 -1.6103999999999998 -0.436 123
2.7168 -1.8125 0.11220000000000001 66
2.4941 -1.6631 -0.3801 142
3.8574 -2.5742000000000003 0.2671 36
2.502 -1.6688999999999998 -0.3115 32
4.6094 -3.0762 0.449 240
2.502 -1.6688999999999998 -0.2421 36
4.582 -3.0586 0.5747 17
2.5098 -1.6747999999999998 -0.1729 83
4.5469 -3.0332 0.6973 181
2.5195 -1.6806999999999999 -0.1039 31
12.2422 -8.1719 2.2383 159
2.5234 -1.6836000000000002 -0.0346 254
12.1797 -8.125 2.5742000000000003 108
2.2988 -1.5469 -0.48119999999999996 30
2.5508 -1.7147999999999999 0.035 66
2.4141 -1.6230000000000002 -0.43700000000000006 131
2.6836 -1.8047 0.11109999999999999 49
2.4805 -1.6680000000000001 -0.37920000000000004 95
3.7949 -2.5508 0.2634 42
2.502 -1.6825999999999999 -0.3123 91
4.5508 -3.0586 0.44409999999999994 24
2.4863 -1.6719 -0.24109999999999998 160
4.5508 -3.0586 0.5718 29
2.5039 -1.6836000000000002 -0.1729 41
4.5469 -3.0586 0.6997 190
2.5195 -1.6943000000000001 -0.1042 88
12.039100000000001 -8.0938 2.2051 206
2.5117 -1.6885 -0.0345 84
12.1797 -8.1875 2.5801 234
2.2773 -1.5430000000000001 -0.4778 13
2.5449 -1.7246000000000001 0.035 183
2.4082 -1.6318000000000001 -0.43700000000000006 137
2.6836 -1.8184 0.1114 159
2.4648 -1.6699000000000002 -0.3774 191
3.707 -2.5117 0.25780000000000003 204
2.502 -1.6963 -0.3132 230
4.457 -3.0214999999999996 0.4363 181
2.4805 -1.6806999999999999 -0.24109999999999998 139
4.6016 -3.1172000000000004 0.5796 223
2.4941 -1.6904 -0.1726 121
4.6055 -3.1211 0.7104 178
2.5234 -1.71 -0.10460000000000001 53
12.085899999999999 -8.1875 2.2188 191
2.5039 -1.6963 -0.0345 55
12.1797 -8.25 2.5858999999999996 44
2.2656 -1.5469 -0.4763 219
2.5312 -1.7285 0.0349 25
2.4004 -1.6387 -0.4368 181
2.6641000000000004 -1.8193000000000001 0.1108 177
2.4727 -1.6885 -0.3796 20
3.5566000000000004 -2.4297 0.24789999999999998 219
2.4902 -1.7002000000000002 -0.3123 16
4.3047 -2.9395 0.4219 140
2.4902 -1.7012 -0.2427 107
2.4863 -1.6982 -0.1725 173
2.5156 -1.7178 -0.10460000000000001 140
12.101600000000001 -8.2656 2.2285 213
2.498 -1.7061000000000002 -0.0345 250
12.1719 -8.3125 2.5918 139
2.2578 -1.5527000000000002 -0.4756 96
2.5215 -1.7353999999999998 0.0349 1
2.3789 -1.6366999999999998 -0.4336 163
2.6464999999999996 -1.8203 0.1104 129
2.4688 -1.6991999999999998 -0.3801 52
3.4219 -2.3535 0.2389 185
2.4844 -1.709 -0.3123 112
2.4844 -1.71 -0.2427 187
4.3984 -3.0254000000000003 0.5566 147
2.4922 -1.7147999999999999 -0.17329999999999998 189
12.0078 -8.2656 1.8700999999999999 215
2.502 -1.7216999999999998 -0.1043 216
12.101600000000001 -8.3281 2.2344 28
2.5039 -1.7227000000000001 -0.0346 100
12.1719 -8.375 2.5976999999999997 200
2.248 -1.5586000000000002 -0.47509999999999997 99
2.5176 -1.7441 0.0349 43
2.3594 -1.6347999999999998 -0.43119999999999997 38
2.6211 -1.8174000000000001 0.1096 142
2.4668 -1.709 -0.38060000000000005 160
3.2851999999999997 -2.2773 0.2299 150
2.4785 -1.7178 -0.3123 153
2.4785 -1.7178 -0.2427 80
2.4824 -1.7207 -0.17309999999999998 133
12.0703 -8.3594 1.8828 117
2.502 -1.7334 -0.1045 116
12.101600000000001 -8.3828 2.2383 43
2.498 -1.7313999999999998 -0.0346 30
12.1797 -8.4453 2.6055 142
2.2461 -1.5684 -0.4756 8
2.5234 -1.7616999999999998 0.0351 243
2.3633 -1.6484 -0.4329 185
2.6016000000000004 -1.8154 0.10890000000000001 209
2.4551 -1.7128999999999999 -0.3796 105
3.2188 -2.2461 0.2257 191
2.4766 -1.7275 -0.3127 35
2.4629 -1.7187999999999999 -0.24170000000000003 40
2.4805 -1.7313999999999998 -0.17329999999999998 33
2.502 -1.7450999999999999 -0.1047 2
12.0547 -8.4141 2.2363 75
2.4902 -1.7372999999999998 -0.0346 180
12.1719 -8.4922 2.6094 207
2.2324 -1.5693000000000001 -0.4736 40
2.5215 -1.7725 0.0351 164
2.3574 -1.6582 -0.43310000000000004 10
2.5683999999999996 -1.8056999999999999 0.10779999999999999 92
2.4453 -1.7197 -0.37920000000000004 194
3.1757999999999997 -2.2324 0.2231 151
2.4766 -1.7412 -0.3135 184
2.4707 -1.7372999999999998 -0.243 232
2.4746 -1.7402000000000002 -0.17329999999999998 251
4.2812 -3.0117000000000003 0.6679999999999999 0
2.498 -1.7568000000000001 -0.10490000000000001 189
12.125 -8.5234 2.2539 124
2.4766 -1.7412 -0.0345 124
12.1797 -8.5625 2.6172000000000004 183
2.2207 -1.5722999999999998 -0.4722 95
2.5059 -1.7734 0.035 61
