# .PCD v0.7 - Point Cloud Data file format
VERSION 0.7
FIELDS x y z intensity
SIZE 4 4 4 4
TYPE F F F F
COUNT 1 1 1 1
WIDTH 1292
HEIGHT 1
VIEWPOINT 0 0 0 1 0 0 0
POINTS 1292
DATA ascii
1.0303 -9.7188 -0.3394 76
1.5878999999999999 -14.9844 -0.1753 211
1.0703 -10.4453 -1.8437999999999999 194
1.2783 -12.476600000000001 -1.9062000000000001 11
1.5322 -14.9531 -1.9277000000000002 153
1.6063999999999998 -15.6797 0.9146 4
0.981 -9.5781 -1.0068000000000001 169
1.6211000000000002 -15.8203 1.2949000000000002 60
0.9839 -9.6016 -0.7847 175
0.9854 -9.6172 -0.5600999999999999 201
1.5752000000000002 -15.3672 -0.17980000000000002 91
1.0332 -10.4453 -1.8428 210
1.5663999999999998 -15.8281 0.1852 172
1.2334 -12.468800000000002 -1.9043 86
1.5644999999999998 -15.8203 0.5532 86
1.5537 -15.710899999999999 -2.0254 150
1.585 -16.0156 0.9340999999999999 248
0.9506999999999999 -9.6094 -1.0098 242
0.9506999999999999 -9.6094 -0.7852 75
1.5527000000000002 -15.6875 -0.9146 194
1.5518 -15.6875 -0.5483 138
1.5605000000000002 -15.773399999999999 -0.1844 126
0.9956 -10.4375 -1.8408000000000002 77
1.1914 -12.4844 -1.9062000000000001 134
1.5605000000000002 -16.3594 0.5718 118
1.4980000000000002 -15.6953 -2.0234 15
1.5830000000000002 -16.5938 0.9673 36
1.5644999999999998 -16.4062 -1.7266 228
1.6562000000000001 -17.3594 1.8281 124
1.5419999999999998 -16.1562 -0.9419 14
1.5391 -16.125 -0.564 33
1.5497999999999998 -16.25 -0.18989999999999999 251
0.96 -10.4453 -1.8428 172
1.1475 -12.4844 -1.9053 200
1.5547 -16.9219 0.5913 30
1.4424000000000001 -15.6953 -2.0215 74
1.5722999999999998 -17.1094 0.9976 208
1.9453 -21.1719 -2.2305 45
1.5332 -16.6875 -0.9722 236
1.5303 -16.6562 -0.5820000000000001 31
1.5449000000000002 -16.8125 -0.19649999999999998 54
0.9233 -10.4531 -1.8428 248
1.1035 -12.4844 -1.9043 157
1.3828 -15.648399999999999 -2.0156 128
1.8700999999999999 -21.1562 -2.2285 43
1.5293 -17.3125 -1.0088 142
1.5146000000000002 -17.1406 -0.5991 241
1.5205000000000002 -17.2031 -0.20120000000000002 154
0.8881999999999999 -10.468800000000002 -1.8457 57
1.0625 -12.523399999999999 -1.9102000000000001 13
1.3271000000000002 -15.6406 -2.0137 195
1.7891 -21.0781 -2.2188 198
1.4971 -17.6406 -1.0273 232
0.8511 -10.460899999999999 -1.8437999999999999 83
1.0186 -12.531199999999998 -1.9102000000000001 43
1.2725 -15.6406 -2.0137 121
1.7197 -21.1406 -2.2246 24
0.8184 -10.468800000000002 -1.8437999999999999 194
0.9795 -12.531199999999998 -1.9102000000000001 199
1.2217 -15.6328 -2.0117 30
1.6494 -21.0938 -2.2188 240
0.7822 -10.4531 -1.8408000000000002 254
0.9351 -12.4922 -1.9043 229
1.1689 -15.6172 -2.0098 208
1.5791 -21.0938 -2.2188 147
0.7451000000000001 -10.476600000000001 -1.8437999999999999 77
0.8876999999999999 -12.476600000000001 -1.9003999999999999 124
1.1094 -15.593800000000002 -2.0059 202
4.8672 -68.375 3.9863 148
1.5019999999999998 -21.1094 -2.2188 185
0.7090000000000001 -10.476600000000001 -1.8447 132
0.8462000000000001 -12.5078 -1.9053 130
1.0537 -15.5781 -2.0039 7
1.4277000000000002 -21.1094 -2.2188 97
0.6714 -10.468800000000002 -1.8428 75
0.8018000000000001 -12.5 -1.9043 83
0.9976 -15.5547 -2.0 148
1.3477000000000001 -21.0156 -2.209 190
0.6343 -10.460899999999999 -1.8408000000000002 174
0.7587999999999999 -12.5078 -1.9043 227
0.9423999999999999 -15.5469 -1.9980000000000002 75
1.2734 -21.0 -2.2051 101
0.5981000000000001 -10.476600000000001 -1.8428 80
0.7148 -12.5078 -1.9043 89
0.8892 -15.5625 -2.0 247
1.1953 -20.9219 -2.1992 154
0.562 -10.476600000000001 -1.8428 43
0.6709 -12.5078 -1.9043 165
0.8345 -15.5547 -1.999 202
1.123 -20.9375 -2.1992 172
0.5259 -10.4922 -1.8447 130
0.627 -12.5078 -1.9022999999999999 192
0.7787999999999999 -15.531199999999998 -1.9950999999999999 247
1.0391 -20.7188 -2.1758 97
0.4888 -10.4844 -1.8428 132
0.585 -12.539100000000001 -1.9072 166
0.7251000000000001 -15.5547 -1.9971 145
0.9673 -20.7344 -2.1777 30
0.4521 -10.4844 -1.8428 108
0.5415 -12.5547 -1.9091999999999998 14
3.5702999999999996 -82.8125 2.8926 172
0.6685 -15.5 -1.9902000000000002 43
0.8945000000000001 -20.75 -2.1777 165
0.4158 -10.4922 -1.8437999999999999 96
0.49729999999999996 -12.5469 -1.9072 153
0.6143 -15.4922 -1.9893 226
0.8247 -20.8125 -2.1836 81
0.37939999999999996 -10.5 -1.8447 242
0.4526 -12.523399999999999 -1.9043 16
0.5600999999999999 -15.5 -1.9893 43
0.75 -20.75 -2.1777 40
0.3433 -10.5078 -1.8466999999999998 66
0.4092 -12.531199999999998 -1.9062000000000001 167
0.5049 -15.468800000000002 -1.9853999999999998 32
0.6768000000000001 -20.7344 -2.1758 212
0.3079 -10.4922 -1.8437999999999999 125
0.3669 -12.5078 -1.9013999999999998 232
0.6064 -20.6719 -2.168 2
0.3276 -12.601600000000001 -1.915 124
0.1411 -5.425800000000001 -0.6929000000000001 8
0.5361 -20.625 -2.1641 191
0.11869999999999999 -5.3984000000000005 -0.6890000000000001 197
0.098 -5.3438 -0.8086 63
0.0981 -5.3515999999999995 -0.6831 64
0.0803 -5.2265999999999995 -0.7905 222
0.0818 -5.324199999999999 -0.6792 67
0.0892 -5.8086 -0.606 51
0.061799999999999994 -5.1328 -0.7764 59
0.0634 -5.265599999999999 -0.6718999999999999 112
0.0682 -5.6602 -0.5903 99
0.0078000000000000005 -0.9355 -0.1576 152
0.042699999999999995 -5.0977 -0.7709999999999999 72
0.0429 -5.125 -0.6537999999999999 39
0.0045000000000000005 -0.9159999999999999 -0.15410000000000001 184
0.024700000000000003 -5.0664 -0.7661 191
0.025099999999999997 -5.144500000000001 -0.6562 234
0.0286 -5.8515999999999995 -0.4744 157
0.031200000000000002 -6.390599999999999 -0.3691 46
0.001 -0.9120999999999999 -0.1534 243
0.0053 -5.0547 -0.7642 196
0.0054 -5.1484000000000005 -0.6567000000000001 216
0.006 -5.734400000000001 -0.4646 202
-0.0024 -0.9159999999999999 -0.15410000000000001 187
-0.0132 -5.0547 -0.7642 86
-0.013500000000000002 -5.1602 -0.6581999999999999 186
-0.0148 -5.6602 -0.4587 24
-0.0052 -0.8998999999999999 -0.1514 169
-0.0291 -5.0508 -0.7637 203
-0.0292 -5.0703 -0.6465000000000001 107
-0.032400000000000005 -5.6328 -0.45649999999999996 219
-0.0359 -6.234400000000001 -0.3601 173
-0.008 -0.8765000000000001 -0.1471 238
-0.0458 -5.0469 -0.7631999999999999 31
-0.0466 -5.140599999999999 -0.6557999999999999 14
-0.0507 -5.5859000000000005 -0.4526 151
-0.056299999999999996 -6.207000000000001 -0.35840000000000005 106
-0.0113 -0.8881999999999999 -0.1492 185
-0.0642 -5.043 -0.7622 76
-0.0658 -5.1640999999999995 -0.6587000000000001 114
-0.0713 -5.5938 -0.4531 198
-0.0815 -6.394500000000001 -0.2214 67
-0.013999999999999999 -0.8608 -0.1444 206
-0.0815 -5.0195 -0.7593000000000001 198
-0.08349999999999999 -5.144500000000001 -0.6562 18
-0.0902 -5.5586 -0.45020000000000004 127
-0.0173 -0.8843000000000001 -0.14859999999999998 252
-0.098 -5.0117 -0.7578 180
-0.09949999999999999 -5.0938 -0.6498999999999999 53
-0.10880000000000001 -5.5625 -0.4509 188
-0.12380000000000001 -6.3359000000000005 -0.366 128
-0.1281 -6.546900000000001 -0.0757 38
-0.021400000000000002 -0.9355 -0.1576 119
-0.1151 -5.0352 -0.7612000000000001 171
-0.11560000000000001 -5.0547 -0.645 145
-0.1265 -5.5312 -0.4482 191
-0.1448 -6.332000000000001 -0.366 253
-0.1501 -6.5664 -0.0759 168
-0.0248 -0.9351 -0.1576 202
-0.1333 -5.0234 -0.7598 115
-0.135 -5.0898 -0.6494 8
-0.1476 -5.5625 -0.4509 182
-0.1681 -6.332000000000001 -0.366 16
-0.1954 -7.363300000000001 -0.2554 137
-0.0281 -0.9351 -0.1576 182
-0.1508 -5.0234 -0.7598 42
-0.1519 -5.0547 -0.645 190
-0.1661 -5.5312 -0.4482 40
-0.1902 -6.332000000000001 -0.366 43
-0.2217 -7.3828 -0.2561 0
-0.1998 -6.6562 -0.077 148
-0.0315 -0.9351 -0.1576 197
-0.1681 -4.9883 -0.7548999999999999 153
-0.171 -5.0742 -0.6479 31
-0.18530000000000002 -5.5 -0.4458 216
-0.20670000000000002 -6.1328 -0.3542 94
-0.0342 -0.9189 -0.1548 93
-0.1868 -5.0195 -0.7598 97
-0.19079999999999997 -5.1289 -0.6548 158
-0.2048 -5.5039 -0.44630000000000003 114
-0.0341 -0.8403 -0.1409 31
-0.2708 -6.6836 0.07730000000000001 56
-0.2028 -5.0078 -0.7573000000000001 234
-0.20829999999999999 -5.140599999999999 -0.6562 240
-0.22 -5.4297 -0.44020000000000004 15
-0.2959 -7.3047 -0.2534 5
-0.036000000000000004 -0.8203 -0.1375 251
-0.2915 -6.6523 0.077 112
-0.2192 -5.0 -0.7568 118
-0.22579999999999997 -5.1523 -0.6577 246
-0.2371 -5.4102 -0.4385 253
-0.3193 -7.2852 -0.2529 179
-0.0431 -0.9028 -0.152 74
-0.3186 -6.6836 0.07730000000000001 90
-0.23879999999999998 -5.0078 -0.7583 239
-0.2576 -5.4023 -0.4382 116
-0.3469 -7.2773 -0.2527 149
-0.0478 -0.9346 -0.1576 116
-0.34009999999999996 -6.644500000000001 0.07690000000000001 147
-0.2554 -4.9883 -0.7554000000000001 115
-0.2747 -5.3672 -0.4353 128
-0.3716 -7.261699999999999 -0.252 80
-0.0504 -0.9224 -0.1555 211
-0.3669 -6.7109000000000005 0.07769999999999999 237
-0.2734 -5.0 -0.7573000000000001 63
-0.2737 -5.0039 -0.6392 169
-0.29350000000000004 -5.3672 -0.4353 255
-0.39990000000000003 -7.3164 -0.2539 223
-0.053 -0.9102 -0.1534 195
-0.386 -6.6328 0.0768 186
-0.2891 -4.9688 -0.7524 171
-0.293 -5.0352 -0.6431 160
-0.311 -5.3438 -0.4336 172
-0.42579999999999996 -7.3164 -0.25420000000000004 31
-0.0565 -0.9218999999999999 -0.1555 147
-0.41159999999999997 -6.707000000000001 0.07769999999999999 232
-0.3057 -4.9844 -0.7548999999999999 155
-0.3091 -5.0391 -0.644 29
-0.3267 -5.324199999999999 -0.4321 152
-0.44780000000000003 -7.300800000000001 -0.25370000000000004 233
-0.0588 -0.9102 -0.1534 112
-0.428 -6.6211 0.0767 6
-0.3193 -4.9375 -0.748 6
-0.3264 -5.0469 -0.645 249
-0.34740000000000004 -5.3711 -0.436 185
-0.4729 -7.3125 -0.25420000000000004 217
-0.061399999999999996 -0.8959999999999999 -0.151 153
-0.4551 -6.640599999999999 0.077 244
-0.33740000000000003 -4.9219 -0.7461 174
-0.342 -4.9922 -0.6382 236
-0.34619999999999995 -5.0508 -0.5278 130
-0.3679 -5.3711 -0.436 238
-0.49950000000000006 -7.2890999999999995 -0.2534 134
-0.0643 -0.8920999999999999 -0.1503 200
-0.4768 -6.6211 0.0767 31
-0.3591 -4.9844 -0.7559 131
-0.35600000000000004 -4.9414 -0.6318 240
-0.3618 -5.0234 -0.5249 0
-0.38549999999999995 -5.3515999999999995 -0.4346 196
-0.5234000000000001 -7.265599999999999 -0.2527 170
-0.0669 -0.8876999999999999 -0.1495 232
-0.4976 -6.6015999999999995 0.0765 116
-0.3809 -5.0547 -0.7666 0
-0.3743 -4.9648 -0.6347999999999999 81
-0.37770000000000004 -5.0117 -0.5234000000000001 68
-0.4033 -5.3515999999999995 -0.4346 70
-0.5464 -7.2539 -0.2522 235
-0.0695 -0.8837999999999999 -0.1489 98
-0.5225 -6.640599999999999 0.077 163
-0.3943 -5.0078 -0.7598 193
-0.3962 -5.0352 -0.644 110
-0.3926 -4.9883 -0.5215 165
-0.418 -5.3086 -0.4314 96
-0.0732 -0.8892 -0.1499 173
-0.5435 -6.5938 0.0765 115
-0.4114 -4.9922 -0.7573000000000001 96
-0.41090000000000004 -4.9844 -0.6382 164
-0.4106 -4.9844 -0.521 128
-0.439 -5.328099999999999 -0.43310000000000004 247
-0.0755 -0.8789 -0.1482 111
-0.5718 -6.6562 0.07719999999999999 195
-0.4302 -5.0078 -0.7598 161
-0.4268 -4.9648 -0.6357 164
-0.4277 -4.9766 -0.5205 70
-0.45899999999999996 -5.3438 -0.4343 114
-0.0789 -0.8809 -0.14859999999999998 222
-0.5903 -6.5898 0.0765 235
-0.44780000000000003 -4.9961 -0.7587999999999999 51
-7.140599999999999 -79.6875 2.793 75
-0.44409999999999994 -4.957 -0.6343 101
-0.4468 -4.9883 -0.5215 216
-0.47090000000000004 -5.2578 -0.4275 17
-0.0867 -0.9316 -0.1576 109
-0.6157 -6.613300000000001 0.0768 23
-0.46409999999999996 -4.9844 -0.7568 207
-0.4619 -4.9609 -0.6353 231
-0.4946 -5.3125 -0.4321 171
-0.46659999999999996 -4.8359 -0.8495999999999999 136
-0.6338 -6.5703 0.07629999999999999 120
-0.4829 -5.0078 -0.7603 206
-0.4775 -4.9492 -0.6343 208
-0.5146000000000001 -5.332000000000001 -0.4341 86
-0.4814 -4.8242 -0.8472 86
-0.6577 -6.5898 0.0765 163
-0.4963 -4.9727 -0.7559 252
-0.4985 -4.9922 -0.6401 79
-0.4971 -4.9805 -0.5215 177
-0.5322 -5.332000000000001 -0.4341 170
-0.6093999999999999 -6.105499999999999 -0.3542 13
-0.5 -4.8203 -0.8472 36
-0.6831 -6.5859000000000005 0.0765 111
-0.5136999999999999 -4.957 -0.7534000000000001 131
-0.5195000000000001 -5.0117 -0.6426000000000001 255
-0.5161 -4.9766 -0.5215 52
-0.5532 -5.3359000000000005 -0.4346 191
-0.6328 -6.1015999999999995 -0.3542 160
-0.6859999999999999 -6.6172 -0.07690000000000001 198
-0.5142 -4.7969 -0.8432999999999999 46
-0.7051000000000001 -6.574199999999999 0.0764 177
-0.5312 -4.957 -0.7534000000000001 109
-5.3711 -50.0938 1.7568000000000001 12
-0.5332 -4.9727 -0.6377 191
-0.54 -5.0352 -0.5278 91
-0.564 -5.261699999999999 -0.4285 179
-0.6543000000000001 -6.1015999999999995 -0.3542 204
-0.7084999999999999 -6.605499999999999 -0.0768 60
-0.5303 -4.7891 -0.8423 102
-0.73 -6.5898 0.0766 246
-0.5542 -5.0039 -0.7612000000000001 234
-0.5547 -5.0117 -0.6431 160
-0.5586 -5.0469 -0.5288 211
-0.5859000000000001 -5.2890999999999995 -0.43119999999999997 247
-0.6753 -6.0977 -0.3542 130
-0.7295 -6.5859000000000005 -0.0766 53
-0.5478999999999999 -4.793 -0.8432999999999999 106
-0.7509999999999999 -6.5703 0.0764 57
-0.5693 -4.9805 -0.7583 90
-0.5732 -5.0156 -0.644 248
-0.5737 -5.0195 -0.5264 87
-0.6113000000000001 -5.3477 -0.436 239
-0.7509999999999999 -6.5703 -0.0764 218
-0.5649000000000001 -4.8008 -0.8452 110
-0.7768999999999999 -6.605499999999999 0.0768 35
-0.584 -4.9609 -0.7554000000000001 72
-0.5893999999999999 -5.0117 -0.6436 188
-5.984400000000001 -50.8438 2.9766000000000004 205
-0.5884 -5.0 -0.5249 155
-0.623 -5.296900000000001 -0.4321 79
-0.7729 -6.5703 -0.0765 40
-0.5806 -4.7969 -0.8447 118
-0.7959 -6.578099999999999 0.0766 52
-0.5996 -4.9531 -0.7544 21
-0.6079 -5.0234 -0.6455 35
-6.113300000000001 -50.5 2.957 67
-0.6113000000000001 -5.0508 -0.5303 172
-0.645 -5.332000000000001 -0.4351 97
-0.7974 -6.5859000000000005 -0.0767 219
-0.6006 -4.8086 -0.8472 74
-0.8262 -6.613300000000001 0.077 87
-0.6206 -4.9688 -0.7568 119
-6.1211 -49.0312 1.7236000000000002 68
-0.627 -5.0156 -0.645 178
-5.7109000000000005 -45.7188 2.6776999999999997 27
-0.6274000000000001 -5.0234 -0.5278 222
-0.6572 -5.261699999999999 -0.4294 26
-0.8193 -6.5625 -0.0764 179
-0.6245 -4.8594 -0.8564 169
-0.8472 -6.5938 0.0768 84
-0.6401 -4.9844 -0.7598 37
-6.203099999999999 -48.2812 1.6982 152
-0.644 -5.0156 -0.645 5
-6.550800000000001 -51.0 2.9882999999999997 126
-0.645 -5.0234 -0.5278 20
-0.6743000000000001 -5.25 -0.42869999999999997 74
-0.8389 -6.5312 -0.0761 211
-0.6572 -4.9844 -0.8794 167
-0.8682 -6.5859000000000005 0.0768 91
-0.6557999999999999 -4.9766 -0.7587999999999999 173
-0.6616 -5.0156 -0.6455 215
-5.9922 -45.4688 2.6660000000000004 226
-0.6587000000000001 -4.9961 -0.5254 57
-6.578099999999999 -49.875 4.1055 144
-0.6958 -5.2773 -0.43119999999999997 17
-0.8613 -6.5352 -0.0762 101
-0.6689 -4.9492 -0.873 223
-0.8887 -6.574199999999999 0.0767 94
-0.6709 -4.9648 -0.7573000000000001 139
-6.4336 -47.5938 1.6747999999999998 186
-0.6714 -4.9648 -0.6392 104
-6.2148 -45.9688 2.6973000000000003 105
-0.6787000000000001 -5.0195 -0.5278 148
-0.7182999999999999 -5.3125 -0.4343 129
-0.667 -4.8047 -0.8481000000000001 209
-0.9120999999999999 -6.574199999999999 0.0767 30
-0.6890000000000001 -4.9648 -0.7583 233
-6.5859000000000005 -47.4688 1.6719 228
-0.6884999999999999 -4.9609 -0.6386999999999999 156
-6.394500000000001 -46.0625 2.7031 105
-0.6958 -5.0156 -0.5278 238
-6.9922 -50.375 4.1523 28
-0.7387999999999999 -5.324199999999999 -0.4353 194
-1.001 -7.2148 -0.2527 145
-0.6820999999999999 -4.8008 -0.8472 67
-0.9355 -6.582000000000001 0.0768 240
-0.7036 -4.9492 -0.7559 230
-6.3203 -44.4688 1.5663999999999998 133
-0.7036 -4.9492 -0.6377 16
-6.519500000000001 -45.8438 2.6914 11
-0.7129000000000001 -5.0156 -0.5278 209
-0.7583 -5.3359000000000005 -0.4365 33
-1.0195 -7.167999999999999 -0.251 211
-0.6962999999999999 -4.7734 -0.8432999999999999 247
-0.9614 -6.5898 0.077 69
-0.7251000000000001 -4.9688 -0.7593000000000001 190
-0.7217 -4.9453 -0.6377 199
-6.636699999999999 -45.5 2.6719 195
-0.7368000000000001 -5.0508 -0.5317000000000001 122
-0.7768999999999999 -5.324199999999999 -0.436 202
-1.0225 -7.011699999999999 -0.24559999999999998 246
-0.7162999999999999 -4.793 -0.8472 240
-0.9849 -6.5898 0.077 164
-0.7456 -4.9922 -0.7626999999999999 167
-6.578099999999999 -44.0312 1.5527000000000002 148
-0.7422 -4.9688 -0.6406000000000001 49
-6.8086 -45.5625 2.6776999999999997 180
-0.7484999999999999 -5.0078 -0.5278 115
-0.7929999999999999 -5.3086 -0.4346 66
-1.0322 -6.9102 -0.2422 228
-0.7319 -4.7852 -0.8456999999999999 195
-1.0068000000000001 -6.578099999999999 0.07690000000000001 18
-0.7637 -4.9883 -0.7631999999999999 5
-6.7852 -44.3438 1.5644999999999998 47
-0.7626999999999999 -4.9844 -0.6431 49
-6.8672 -44.875 2.6387 199
-0.7661 -5.0039 -0.5278 65
-0.8109999999999999 -5.300800000000001 -0.4343 72
-1.0498 -6.859400000000001 -0.24050000000000002 179
-0.7505 -4.793 -0.8481000000000001 229
-1.0283 -6.5664 0.0768 59
-0.7739 -4.9414 -0.7563 171
-0.7876000000000001 -5.0273 -0.6494 87
-7.4297 -47.4375 2.7910000000000004 34
-0.7837000000000001 -5.0039 -0.5278 215
-7.546900000000001 -48.1875 3.9805 56
-0.8251999999999999 -5.269500000000001 -0.4321 97
-1.0723 -6.8515999999999995 -0.2404 132
-0.7709999999999999 -4.8086 -0.8515999999999999 103
-1.0537 -6.574199999999999 0.077 129
-0.7979 -4.9766 -0.7622 13
-0.8051999999999999 -5.0195 -0.6484000000000001 131
-7.394500000000001 -46.0938 2.7148000000000003 100
-0.8218000000000001 -5.125 -0.541 31
-7.7227 -48.1562 3.9805 20
-0.8472 -5.2812 -0.43329999999999996 133
-6.613300000000001 -41.25 5.3672 161
-1.0459 -6.5234000000000005 -0.2289 137
-0.7866 -4.8008 -0.8501000000000001 166
-1.0781 -6.578099999999999 0.077 169
-0.8198000000000001 -5.0 -0.7661 221
-7.3086 -44.5938 1.5762 213
-0.8251999999999999 -5.0352 -0.6509 118
-7.5664 -46.1562 2.7188 242
-0.8193 -4.9961 -0.5278 48
-7.4765999999999995 -45.5938 3.7714999999999996 25
-0.8676999999999999 -5.292999999999999 -0.4343 245
-6.703099999999999 -40.9062 5.324199999999999 7
-1.0586 -6.4609000000000005 -0.2268 28
-0.8018000000000001 -4.793 -0.8495999999999999 181
-1.1016 -6.5859000000000005 0.0771 180
-0.8389 -5.0117 -0.7686 152
-0.8438 -5.043 -0.6518999999999999 3
-7.699199999999999 -46.0 2.7108999999999996 76
-7.5938 -45.375 3.7539 16
-0.8881999999999999 -5.3086 -0.436 141
-1.0811 -6.4609000000000005 -0.22690000000000002 115
-0.8340000000000001 -4.8828 -0.8662000000000001 48
-1.125 -6.5859000000000005 0.07719999999999999 40
-0.8521 -4.9922 -0.7656000000000001 249
-0.8608 -5.0391 -0.6523 206
-7.6602 -44.875 2.6445 174
-0.9146 -5.355499999999999 -0.44020000000000004 18
-6.3789 -37.3438 3.9766000000000004 165
-1.125 -6.5898 -0.23170000000000002 46
-1.2871000000000001 -7.5390999999999995 -0.0885 14
-0.8442000000000001 -4.8359 -0.8584 197
-1.1475 -6.574199999999999 0.0771 27
-0.8676999999999999 -4.9727 -0.7631999999999999 153
-0.8784000000000001 -5.0312 -0.6514 237
-8.2266 -47.1562 2.7812 147
-0.8706 -4.9883 -0.5278 27
-7.0586 -40.4375 3.3495999999999997 19
-0.9204000000000001 -5.2734000000000005 -0.4336 6
-6.519500000000001 -37.375 3.9824 160
-0.8569 -4.8125 -0.8540000000000001 0
-1.1729 -6.582000000000001 0.07730000000000001 241
-0.8887 -4.9883 -0.7661 196
-7.0234000000000005 -39.4375 1.3965 153
-0.8936 -5.0156 -0.6498999999999999 167
-6.9375 -38.9375 2.2988 211
-6.1602 -34.5938 2.8672000000000004 244
-0.9473 -5.3164 -0.4375 77
-6.6328 -37.2188 3.9707 233
-1.375 -7.7188 -0.272 150
-1.3633000000000002 -7.6523 -0.09 154
-0.8887 -4.8906 -0.8687 147
-1.1982 -6.5938 0.0775 96
-0.9111 -5.0117 -0.7705 116
-7.1602 -39.375 1.3965 66
-0.9155 -5.0391 -0.6533 196
-7.074199999999999 -38.9375 2.2988 205
-6.261699999999999 -34.4375 2.8555 151
-0.9668000000000001 -5.3203 -0.43799999999999994 213
-6.7539 -37.1562 3.9648000000000003 188
-7.2890999999999995 -40.0938 5.238300000000001 35
-1.4121000000000001 -7.769500000000001 -0.27390000000000003 136
-1.3916 -7.6562 -0.0901 191
-0.9209 -4.9688 -0.8833 63
-1.2197 -6.582000000000001 0.0774 153
-0.9336 -5.0352 -0.7744 198
-7.2890999999999995 -39.3438 1.3955000000000002 102
-0.9375 -5.0586 -0.6562 167
-7.2539 -39.125 2.3125 40
-6.3828 -34.4375 2.8574 40
-0.981 -5.292999999999999 -0.436 133
-6.8828 -37.125 3.9648000000000003 62
-1.4365 -7.75 -0.2734 140
-1.3457 -7.261699999999999 -0.08539999999999999 64
-0.9072 -4.8008 -0.8540000000000001 125
-1.2441 -6.582000000000001 0.0775 92
-0.9468000000000001 -5.0117 -0.7709999999999999 61
-7.738300000000001 -40.9688 1.4541 55
-0.9521 -5.0391 -0.6543000000000001 50
-6.953099999999999 -36.7812 2.1758 204
-0.9404 -4.9766 -0.5278 127
-6.5078 -34.4375 2.8594 164
-1.0049 -5.3203 -0.4385 155
-6.9688 -36.875 3.9395 114
-0.9307 -4.832 -0.8604 75
-1.2705 -6.5977 0.0776 150
-0.9662999999999999 -5.0156 -0.7725 108
-0.9731000000000001 -5.0547 -0.6562 57
-6.734400000000001 -34.9688 2.9043 60
-1.0371 -5.386699999999999 -0.4443 193
-7.2148 -37.4688 4.0039 233
-1.415 -7.3515999999999995 -0.2595 238
-0.9443 -4.8164 -0.8579000000000001 224
-1.2959 -6.609400000000001 0.07780000000000001 141
-0.9849 -5.0195 -0.7734000000000001 92
-8.2266 -41.9375 1.4902000000000002 241
-0.9883 -5.0391 -0.6548 222
-7.082000000000001 -36.0938 2.1367 130
-0.9751000000000001 -4.9688 -0.5278 74
-1.0537 -5.3711 -0.4434 21
-7.1914 -36.6562 3.9219 44
-1.4413999999999998 -7.3438 -0.2595 165
-0.9653 -4.832 -0.8613 139
-1.0068000000000001 -5.0391 -0.7768999999999999 42
-8.3672 -41.8438 1.4883000000000002 80
-1.002 -5.0156 -0.6523 158
-8.1719 -40.9062 3.4023000000000003 94
-1.0645 -5.328099999999999 -0.44020000000000004 142
-7.7539 -38.8125 5.0859 184
-0.9790000000000001 -4.8203 -0.8599 208
-1.0215 -5.0312 -0.7764 68
-1.0166 -5.0039 -0.6514 227
-8.8125 -43.4062 2.5742000000000003 169
-1.085 -5.3398 -0.4414 125
-7.7265999999999995 -38.0312 4.0742 250
-7.4961 -36.9062 4.8398 210
-0.9917 -4.8008 -0.8569 243
-1.0391 -5.0312 -0.7768999999999999 141
-8.8984 -43.0625 1.5341999999999998 46
-1.0439 -5.0547 -0.6581999999999999 255
-7.0078 -33.9375 2.0137 76
-1.1084 -5.3672 -0.44409999999999994 102
-7.015599999999999 -33.9688 3.6426 96
-7.988300000000001 -38.6562 5.0742 102
-1.0137 -4.8086 -0.8589 41
-1.0674 -5.0625 -0.7827 30
-1.0713 -5.0859 -0.6631 177
-7.1523 -33.9375 2.0156 17
-7.7852 -36.9375 3.0801 86
-1.1406 -5.4140999999999995 -0.4482 132
-7.1562 -33.9688 3.6445 152
-7.9453 -37.7188 4.9531 23
-1.3799000000000001 -6.550800000000001 -0.0774 75
-1.041 -4.8516 -0.8676999999999999 21
-10.0859 -47.0 0.5615 116
-1.0889 -5.0742 -0.7847 56
-8.5938 -40.0625 1.4287 5
-1.0889 -5.0742 -0.6620999999999999 88
-7.261699999999999 -33.8438 2.0117 245
-7.2773 -33.9375 2.8301 147
-1.1504 -5.359400000000001 -0.44409999999999994 138
-8.0391 -37.4375 4.0195 233
-7.859400000000001 -36.625 4.8125 124
-1.4062000000000001 -6.550800000000001 -0.0775 227
-1.0459 -4.7969 -0.8584 24
-1.1035 -5.0625 -0.7837000000000001 150
-1.0713 -4.9102 -0.6411 221
-7.359400000000001 -33.75 2.0078 23
-7.386699999999999 -33.875 2.8281 209
-1.1699 -5.3672 -0.4451 155
-14.414100000000001 -66.0625 -0.79 228
-1.0684 -4.8164 -0.8628 144
-1.0947 -4.9414 -0.7651 1
-9.4688 -42.7188 1.5263999999999998 217
-1.0908 -4.918 -0.6426000000000001 141
-7.4609000000000005 -33.6562 2.002 69
-7.3828 -33.3125 2.7832 125
-1.2061 -5.4414 -0.4517 131
-7.8438 -35.375 3.8047000000000004 178
-7.5273 -33.9375 4.4688 170
-1.0801 -4.8008 -0.8604 46
-8.8672 -39.4062 0.4714 12
-1.1025 -4.8984 -0.7593000000000001 7
-9.5859 -42.625 1.5234 159
-1.1143 -4.9531 -0.6475 231
-7.5234000000000005 -33.4375 1.9912 75
-7.4648 -33.1875 2.7754000000000003 43
-1.2148 -5.3984000000000005 -0.4482 120
-7.605499999999999 -33.8125 4.4531 25
-1.4413999999999998 -6.4062 -0.2275 113
-1.1025 -4.8242 -0.8652 247
-1.1299 -4.9453 -0.7666 238
-7.6328 -33.4062 1.9912 251
-7.5859000000000005 -33.1875 2.7793 55
-9.0547 -39.6562 4.2695 93
-7.7422 -33.9062 4.4688 5
-3.2031 -14.0156 -0.1672 8
-1.1172 -4.8086 -0.8633 221
-1.165 -5.0117 -0.7783 203
-1.1553 -4.9727 -0.6509 57
-7.9688 -34.3125 2.0469 191
-1.2783 -5.5039 -0.4578 120
-7.859400000000001 -33.8125 3.6445 168
-7.8515999999999995 -33.7812 4.457 172
-3.2188 -13.851600000000001 -0.1654 168
-1.1318000000000001 -4.793 -0.8613 255
-1.1699 -4.957 -0.7705 125
-1.1806999999999999 -5.0039 -0.6557999999999999 41
-8.6094 -36.4688 2.1777 205
-7.886699999999999 -33.4062 2.8007999999999997 124
-1.3075999999999999 -5.5390999999999995 -0.46140000000000003 70
-1.4647999999999999 -6.203099999999999 -0.3682 60
-7.9609000000000005 -33.7188 4.4531 210
-3.2245999999999997 -13.664100000000001 -0.1632 81
-1.1494 -4.793 -0.8618000000000001 200
-9.4688 -39.5 0.4744 52
-1.1963 -4.9883 -0.7759 79
-1.1924 -4.9766 -0.6523 66
-8.4297 -35.1562 2.1016 198
-7.890599999999999 -32.9375 2.7617000000000003 228
-1.3359 -5.574199999999999 -0.4646 151
-8.9766 -37.4688 4.043 117
-2.9648000000000003 -12.3672 -0.7373000000000001 22
-8.2734 -34.5 4.5586 34
-3.2108999999999996 -13.398399999999999 -0.1602 31
-1.2139 -4.9883 -0.7764 19
-1.249 -5.1328 -0.6738 235
-10.523399999999999 -43.2188 2.5858999999999996 13
-7.9922 -32.8438 2.7558999999999996 46
-1.3555000000000001 -5.5703 -0.4646 16
-1.5488 -6.359400000000001 -0.3782 222
-8.4688 -34.8125 4.6016 201
-3.2012 -13.156199999999998 -0.1573 129
-14.2422 -57.625 0.6934 219
-1.2314 -4.9844 -0.7764 102
-8.9922 -36.4062 1.3075999999999999 173
-1.2676 -5.1289 -0.6738 164
-8.4844 -34.3438 2.0566 124
-8.1016 -32.7812 2.7558999999999996 35
-1.3828 -5.5977 -0.4673 213
-9.2656 -37.5 4.0547 92
-1.5615 -6.3203 -0.3762 170
-14.3203 -57.9375 7.671900000000001 211
-3.0351999999999997 -12.281199999999998 -0.4399 207
-3.1914 -12.914100000000001 -0.1547 161
-1.251 -4.9883 -0.7778 216
-11.2969 -45.0312 1.6200999999999999 177
-1.2832 -5.1172 -0.6733 142
-8.9766 -35.7812 2.1445 83
-8.2344 -32.8125 2.7598000000000003 56
-1.4121000000000001 -5.6289 -0.4705 185
-9.7656 -38.9375 4.2148 71
-9.0312 -36.0 4.7695 149
-3.0762 -12.2656 -0.4399 203
-13.976600000000001 -55.7188 8.75 50
-3.1933999999999996 -12.7344 -0.15259999999999999 153
-13.968800000000002 -55.6875 10.1172 229
-1.2734 -5.0039 -0.7807999999999999 61
-1.2881 -5.0586 -0.6659999999999999 163
-10.0 -39.3125 2.3574 131
-1.4385 -5.6523 -0.4727 57
-8.8984 -34.9688 4.6367 55
-13.976600000000001 -54.9062 8.6328 53
-3.2285000000000004 -12.6875 -0.1522 211
-13.9453 -54.7812 9.9609 32
-1.291 -5.0 -0.7807999999999999 168
-1.2997999999999998 -5.0352 -0.6631 83
-14.0078 -54.2188 3.2558999999999996 54
-1.4619 -5.6640999999999995 -0.47409999999999997 158
-8.6328 -33.4375 3.623 114
-9.2422 -35.7812 4.7461 234
-13.9219 -53.9062 8.4844 40
-3.2695 -12.656199999999998 -0.152 47
-13.906199999999998 -53.8438 9.7969 52
-1.3174000000000001 -5.0273 -0.9092 68
-1.3105000000000002 -5.0 -0.7817000000000001 146
-11.4531 -43.7188 1.5771000000000002 20
-13.9844 -53.4062 3.2089999999999996 14
-2.9336 -11.2031 -0.9419 224
-8.9219 -34.0625 3.6952999999999996 196
-9.3281 -35.5938 4.7305 25
-13.906199999999998 -53.0938 8.3594 231
-3.3086 -12.6328 -0.1519 52
-13.8828 -53.0 9.6484 180
-1.3496000000000001 -5.082 -0.9194 146
-9.7266 -36.5938 0.44189999999999996 147
-1.3241999999999998 -4.9844 -0.7803 236
-8.8828 -33.4375 1.207 140
-1.3466999999999998 -5.0703 -0.6689 103
-9.0078 -33.9062 2.0371 210
-2.9492000000000003 -11.101600000000001 -0.9346 113
-8.7031 -32.75 3.5586 244
-13.898399999999999 -52.3125 6.957000000000001 231
-13.875 -52.2188 8.2344 89
-3.3516000000000004 -12.6172 -0.1517 50
-13.8828 -52.25 9.5234 58
-1.3662 -5.0703 -0.9185 149
-13.9844 -51.9062 0.6274000000000001 104
-1.3447 -4.9922 -0.7817000000000001 79
-9.0234 -33.5 1.209 215
-1.3788999999999998 -5.1172 -0.6762999999999999 185
-14.0 -51.9688 3.1289 69
-2.9668 -11.0078 -0.9277 106
-8.8281 -32.7812 3.5625 43
-14.0469 -52.125 6.9375 67
-14.0703 -52.2188 8.2344 113
-3.3964999999999996 -12.6094 -0.1517 50
-14.0781 -52.25 9.5312 156
-1.3691 -5.0117 -0.7856000000000001 44
-9.1094 -33.3438 1.2051 172
-1.3936000000000002 -5.0977 -0.6743000000000001 14
-9.2344 -33.8125 2.0371 7
-2.9941000000000004 -10.960899999999999 -0.9243000000000001 218
-9.2422 -33.8438 3.6836 180
-9.8047 -35.9062 4.7812 46
-14.2578 -52.1875 8.2422 38
-3.4355 -12.5781 -0.1515 73
-14.273399999999999 -52.2188 9.5391 159
-1.3877000000000002 -5.0156 -0.7870999999999999 70
-9.2188 -33.3125 1.2051 18
-1.4072 -5.082 -0.6729 61
-10.593800000000002 -38.2812 2.3086 126
-3.0526999999999997 -11.031199999999998 -0.9312 90
-3.0879000000000003 -11.156199999999998 -0.6709 166
-14.4375 -52.1562 6.957000000000001 221
-14.4375 -52.1562 8.25 89
-3.4805 -12.5781 -0.1517 40
-14.4297 -52.125 9.5312 120
-10.7578 -38.375 0.46509999999999996 204
-1.4022999999999999 -5.0 -0.7856000000000001 230
-9.3281 -33.2812 1.2051 40
-1.4111000000000002 -5.0352 -0.667 61
-9.625 -34.3438 2.9101999999999997 177
-3.0839999999999996 -11.0 -0.9297 242
-3.123 -11.1406 -0.6704000000000001 244
-9.9922 -35.625 4.7539 63
-13.7969 -49.2188 7.7852 169
-3.5233999999999996 -12.5703 -0.1517 120
-13.7656 -49.0938 8.9844 94
-1.4141 -4.9766 -0.9048 239
-10.906199999999998 -38.375 0.4656 204
-1.4258000000000002 -5.0156 -0.7886 109
-10.8672 -38.2188 1.3857 115
-10.7422 -37.7812 2.2832 126
-3.127 -11.0 -0.9301999999999999 148
-10.625 -37.375 4.0781 4
-3.1582 -11.1094 -0.6694 71
-13.7344 -48.3125 6.453099999999999 130
-13.773399999999999 -48.4375 7.671900000000001 207
-3.5664 -12.5469 -0.1516 187
-13.7578 -48.4062 8.8672 65
-1.4375 -4.9922 -0.9081999999999999 8
-1.4472999999999998 -5.0234 -0.7905 221
-9.7422 -33.8125 1.2266 31
-1.4658000000000002 -5.0898 -0.6758 181
-13.8672 -48.125 2.9120999999999997 103
-3.0938 -10.7344 -1.1699 194
-3.1719 -11.0078 -0.9320999999999999 190
-3.1914 -11.0781 -0.6679999999999999 6
-13.75 -47.75 6.386699999999999 245
-13.7578 -47.75 7.5703 130
-3.6094 -12.531199999999998 -0.1516 139
-13.75 -47.7188 8.75 7
-1.4453 -4.9531 -0.9023 48
-1.4716999999999998 -5.0391 -0.7944 207
-10.335899999999999 -35.4062 1.2861000000000002 7
-1.4912 -5.1094 -0.6792 167
-3.1308999999999996 -10.726600000000001 -1.1699 194
-9.7891 -33.5312 3.668 237
-3.2207 -11.039100000000001 -0.6659999999999999 82
-10.343800000000002 -35.4375 4.7422 122
-3.6523000000000003 -12.5156 -0.1516 182
-13.718800000000002 -47.0312 8.625 128
-1.5019999999999998 -5.0781 -0.8012999999999999 178
-1.5352000000000001 -5.1914 -0.6909000000000001 80
-11.0469 -37.375 2.2656 108
-3.1660000000000004 -10.7031 -1.1689 113
-9.8359 -33.25 2.8301 106
-9.9062 -33.5 3.668 155
-3.2441000000000004 -10.976600000000001 -0.6631 32
-10.4922 -35.5 4.7539 142
-13.710899999999999 -46.375 7.3672 87
-3.6992000000000003 -12.5078 -0.1516 56
-13.7031 -46.375 8.5156 136
-11.2344 -37.4688 0.45649999999999996 9
-3.6055 -12.023399999999999 -1.9072 81
-3.2031 -10.6875 -1.4297 7
-3.2012 -10.6719 -1.167 98
-11.3906 -38.0 4.1641 178
-3.2773000000000003 -10.9375 -0.6616 100
-13.7344 -45.8125 6.1484000000000005 238
-13.718800000000002 -45.75 7.2773 166
-3.752 -12.5156 -0.1519 180
-13.710899999999999 -45.7188 8.4062 117
-3.6211 -11.914100000000001 -1.8925999999999998 102
-13.8047 -45.4375 1.6562000000000001 106
-3.2363 -10.648399999999999 -1.4258000000000002 16
-10.5625 -34.7812 2.1113 61
-3.2344 -10.648399999999999 -1.165 148
-10.523399999999999 -34.625 2.9531 113
-3.3145 -10.914100000000001 -0.6606000000000001 167
-13.4297 -44.1875 5.9375 128
-13.398399999999999 -44.0938 7.0234000000000005 195
-3.8026999999999997 -12.5156 -0.1521 246
-13.398399999999999 -44.0938 8.1172 137
-3.0566000000000004 -9.9531 -1.8281 74
-3.6562 -11.906199999999998 -1.8925999999999998 100
-11.148399999999999 -36.3125 1.3241999999999998 0
-3.2617000000000003 -10.6172 -1.4238 18
-10.664100000000001 -34.7188 2.1113 197
-3.2714999999999996 -10.648399999999999 -1.167 186
-10.664100000000001 -34.7188 2.9629000000000003 67
-3.2851999999999997 -10.6953 -0.9102 7
-13.460899999999999 -43.8125 4.8125 158
-3.3457 -10.898399999999999 -0.6606000000000001 96
-13.4297 -43.75 5.8789 145
-13.4219 -43.6875 6.9648 89
-3.8438 -12.5156 -0.1522 0
-13.406199999999998 -43.6562 8.0469 19
-3.0839999999999996 -9.9297 -1.8252000000000002 1
-3.7051 -11.9297 -1.8984 3
-11.3047 -36.375 1.3281 137
-3.2969 -10.6172 -1.4238 204
-13.4844 -43.4062 2.6426 31
-3.3007999999999997 -10.625 -1.165 171
-10.8125 -34.7812 2.9726999999999997 227
-3.3301 -10.718800000000002 -0.9136 129
-13.4297 -43.2188 4.7539 205
-3.3789 -10.875 -0.6597 165
-13.4219 -43.1875 5.8125 209
-13.3906 -43.0938 6.875 202
-3.8867000000000003 -12.5078 -0.1522 37
-13.3828 -43.0938 7.949199999999999 62
-3.1191000000000004 -9.9141 -1.8241999999999998 207
-3.75 -11.914100000000001 -1.8984 36
-13.476600000000001 -42.8125 1.5663999999999998 76
-3.3418 -10.6172 -1.4258000000000002 232
-13.5 -42.9062 2.6151999999999997 134
-3.3379000000000003 -10.601600000000001 -1.1641 22
-10.898399999999999 -34.625 2.9608999999999996 131
-3.373 -10.718800000000002 -0.9140999999999999 184
-13.4219 -42.6562 4.6953 162
-3.4199 -10.8672 -0.6602 105
-13.406199999999998 -42.5938 5.738300000000001 87
-13.3906 -42.5625 6.796900000000001 11
-3.9433999999999996 -12.531199999999998 -0.1527 141
-13.375 -42.5 7.8477 244
-3.1582 -9.9141 -1.8271000000000002 164
-3.7988 -11.9297 -1.9022999999999999 10
-13.468800000000002 -42.2812 1.5478999999999998 82
-3.377 -10.601600000000001 -1.4258000000000002 19
-13.468800000000002 -42.2812 2.5781 2
-3.377 -10.601600000000001 -1.1641 233
-11.0156 -34.5938 2.9608999999999996 70
-3.4375 -10.789100000000001 -0.9214 221
-3.4608999999999996 -10.8672 -0.6606000000000001 74
-13.3906 -42.0312 5.667999999999999 88
-13.375 -41.9688 6.7109000000000005 77
-3.9922000000000004 -12.531199999999998 -0.153 39
-13.3672 -41.9688 7.7578 49
-3.1973000000000003 -9.9219 -1.8300999999999998 209
-9.4922 -29.4375 0.3608 192
-3.8418 -11.914100000000001 -1.9022999999999999 237
-13.4531 -41.7188 1.5293 94
-3.4219 -10.6172 -1.4287 253
-13.460899999999999 -41.75 2.5488 180
-3.4120999999999997 -10.5781 -1.1641 38
-11.1172 -34.4688 2.9551 101
-3.4531 -10.710899999999999 -0.9155 186
-3.502 -10.8594 -0.6611 154
-13.3828 -41.5 5.605499999999999 23
-13.375 -41.4688 6.640599999999999 79
-4.0391 -12.531199999999998 -0.1531 68
-13.335899999999999 -41.375 7.6562 48
-3.2363 -9.9141 -1.8319999999999999 73
-9.6094 -29.4531 0.3613 73
-3.8945 -11.9375 -1.9072 170
-13.4219 -41.1562 1.5097999999999998 150
-3.4589999999999996 -10.601600000000001 -1.4287 91
-13.4375 -41.1875 2.5176 188
-3.4512 -10.5781 -1.165 217
-11.218800000000002 -34.375 2.9512 247
-3.5351999999999997 -10.835899999999999 -0.9272 151
-11.6953 -35.8438 3.9589999999999996 243
-3.5410000000000004 -10.8594 -0.6616 136
-13.335899999999999 -40.875 5.5234000000000005 189
-13.343800000000002 -40.9062 6.5547 184
-4.0859 -12.523399999999999 -0.1531 178
-13.3594 -40.9375 7.5898 193
-3.2598000000000003 -9.875 -1.8262 173
-3.9257999999999997 -11.8906 -1.9033000000000002 80
-13.414100000000001 -40.625 1.4922 175
-3.4882999999999997 -10.5625 -1.4258000000000002 49
-13.4453 -40.7188 2.4922 155
-3.4922000000000004 -10.5781 -1.166 225
-13.468800000000002 -40.7812 3.5058999999999996 54
-3.5547000000000004 -10.7656 -0.9224 161
-13.468800000000002 -40.8125 4.5117 188
-3.5801 -10.843800000000002 -0.6616 113
-13.4844 -40.8438 5.5273 82
-13.5 -40.875 6.5586 237
-4.1328 -12.5156 -0.1533 226
-13.5156 -40.9375 7.5938 142
-3.2988 -9.875 -1.8281 139
-3.9766000000000004 -11.906199999999998 -1.9072 149
-13.5625 -40.625 1.4931999999999999 194
-3.5332 -10.5781 -1.4287 217
-13.593800000000002 -40.6875 2.4941 193
-3.5254000000000003 -10.5547 -1.165 235
-13.6094 -40.75 3.5058999999999996 80
-3.5858999999999996 -10.7344 -0.9209 100
-13.6094 -40.75 4.5078 78
-3.6132999999999997 -10.8203 -0.6611 186
-13.5703 -40.625 5.5039 112
-13.5781 -40.6562 6.5312 25
-4.1836 -12.523399999999999 -0.1534 107
-13.6172 -40.75 7.5703 143
-3.332 -9.8594 -1.8281 45
-4.0195 -11.8906 -1.9072 25
-13.6797 -40.5 1.4912 159
-3.5742000000000003 -10.5781 -1.4306999999999999 34
-13.6953 -40.5312 2.4863 149
-3.5625 -10.5469 -1.165 193
-13.625 -40.3125 3.4726999999999997 213
-3.625 -10.726600000000001 -0.9214 8
-12.0703 -35.7188 3.957 31
-3.6582 -10.8281 -0.6626000000000001 204
-13.5703 -40.1562 6.457000000000001 237
-4.2344 -12.531199999999998 -0.15380000000000002 158
-13.710899999999999 -40.5625 7.542999999999999 165
-3.3691000000000004 -9.8594 -1.8291 96
-12.5781 -36.8125 0.4539 76
-4.0586 -11.875 -1.9072 76
-3.6074 -10.5547 -1.4297 15
-12.0156 -35.1562 2.1582 116
-3.6016000000000004 -10.539100000000001 -1.166 47
-13.585899999999999 -39.75 3.4276999999999997 50
-3.6855 -10.781199999999998 -0.9272 103
-3.7031 -10.835899999999999 -0.6636 45
-13.5469 -39.625 6.3828 76
-4.293 -12.5625 -0.1543 154
-13.5 -39.5 7.355499999999999 68
-3.4043 -9.8594 -1.8311000000000002 117
-4.1094 -11.8906 -1.9121000000000001 95
-13.5469 -39.2188 1.4472999999999998 229
-3.6426 -10.539100000000001 -1.4287 157
-12.0703 -34.9375 2.1484 10
-3.6406 -10.539100000000001 -1.167 113
-13.585899999999999 -39.3125 3.3945 89
-3.7344 -10.8047 -0.9301999999999999 48
-13.5703 -39.2812 4.3633 224
-3.7422000000000004 -10.8281 -0.6640999999999999 3
-13.5469 -39.2188 5.332000000000001 4
-13.531199999999998 -39.1562 6.3125 79
-4.3359 -12.5547 -0.15439999999999998 196
-13.5156 -39.125 7.2890999999999995 35
-3.4355 -9.8359 -1.8300999999999998 58
-12.7578 -36.5312 0.4514 109
-4.1406 -11.8594 -1.9091999999999998 5
-13.5469 -38.7812 1.4336000000000002 192
-3.6719 -10.5156 -1.4277000000000002 104
-13.601600000000001 -38.9375 2.3965 170
-3.6776999999999997 -10.531199999999998 -1.168 89
-13.5703 -38.875 3.3594 236
-3.7558999999999996 -10.75 -0.9268000000000001 100
-13.5156 -38.7188 4.3047 3
-3.7773000000000003 -10.8125 -0.6636 10
-13.531199999999998 -38.75 5.2734000000000005 240
-13.5156 -38.6875 6.2422 104
-4.3945 -12.585899999999999 -0.155 133
-13.4922 -38.6562 7.2109000000000005 4
-3.4707 -9.8125 -1.8281 223
-12.843800000000002 -36.3438 0.4497 69
-4.1953 -11.8672 -1.9121000000000001 94
-13.5547 -38.3438 1.4188999999999998 2
-13.6094 -38.5 2.373 185
-3.7207 -10.523399999999999 -1.168 122
-13.5703 -38.4062 3.3223000000000003 52
-3.7598000000000003 -10.6406 -0.9179999999999999 9
-13.5156 -38.2188 4.2578 53
-3.8281 -10.8281 -0.6655 73
-13.648399999999999 -38.5938 5.261699999999999 218
-13.523399999999999 -38.25 6.1797 83
-4.457 -12.601600000000001 -0.15539999999999998 78
-13.468800000000002 -38.0938 7.1172 208
-3.5058999999999996 -9.8047 -1.8291 180
-12.968800000000002 -36.2812 0.4497 45
-4.2344 -11.843800000000002 -1.9121000000000001 43
-13.539100000000001 -37.875 1.4033000000000002 255
-13.6953 -38.3125 2.3633 188
-3.7558999999999996 -10.5078 -1.168 102
-13.5547 -37.9062 3.2851999999999997 225
-3.7910000000000004 -10.601600000000001 -0.9165000000000001 77
-13.5078 -37.7812 4.2148 107
-3.8632999999999997 -10.8125 -0.665 71
-13.5156 -37.8125 6.1172 171
-4.5195 -12.648399999999999 -0.1561 222
-13.460899999999999 -37.6562 7.042999999999999 93
-3.5488 -9.8281 -1.835 163
-13.0781 -36.1875 0.44920000000000004 15
-4.2734 -11.8281 -1.9111000000000002 32
-13.523399999999999 -37.4375 1.3877000000000002 226
-3.7891000000000004 -10.4922 -1.4297 185
-3.7988 -10.5156 -1.1709 155
-13.531199999999998 -37.4688 3.25 4
-3.8379000000000003 -10.625 -0.9194 111
-13.4844 -37.3125 4.168 131
-3.9082 -10.8203 -0.6665000000000001 210
-13.4844 -37.3125 5.0977 234
-13.585899999999999 -37.625 6.0938 1
-4.6055 -12.75 -0.1577 19
-13.4375 -37.2188 6.9688 186
-3.5781 -9.8047 -1.8330000000000002 19
-13.1953 -36.1562 0.44920000000000004 250
-4.3281 -11.8594 -1.9188999999999998 237
-13.4922 -36.9688 1.3721 90
-3.8242000000000003 -10.476600000000001 -1.4297 134
-13.539100000000001 -37.0938 2.2949 103
-3.8398000000000003 -10.523399999999999 -1.1729 76
-13.5156 -37.0312 3.2168 194
-3.8632999999999997 -10.585899999999999 -0.9165000000000001 229
-13.4531 -36.875 4.1211 80
-3.9512 -10.8281 -0.6679999999999999 56
-13.5156 -37.0312 5.0664 140
-13.476600000000001 -36.9062 -0.4587 182
-13.5 -37.0 6.9375 100
-3.6151999999999997 -9.7969 -1.834 156
-13.3125 -36.0625 0.4487 169
-4.3711 -11.843800000000002 -1.9188999999999998 93
-13.4844 -36.5312 1.3584 42
-3.8691000000000004 -10.4844 -1.4316 116
-13.531199999999998 -36.6562 2.2715 188
-3.8827999999999996 -10.5156 -1.1738 184
-13.5078 -36.5938 3.1836 157
-3.9160000000000004 -10.6094 -0.9204000000000001 87
-13.4453 -36.4375 4.0781 231
-3.9922000000000004 -10.8203 -0.6679999999999999 133
-9.2734 -25.1094 3.4375 208
-13.476600000000001 -36.5 -0.4543 178
-13.4453 -36.4375 6.8398 202
-3.6483999999999996 -9.7734 -1.8330000000000002 146
-13.4531 -36.0625 0.44920000000000004 120
-4.4062 -11.8125 -1.916 152
-13.4844 -36.125 1.3447 43
-3.9082 -10.476600000000001 -1.4325999999999999 188
-13.5156 -36.25 2.248 30
-3.9219 -10.5156 -1.1748 247
-13.5 -36.1875 3.1504000000000003 48
-3.9608999999999996 -10.6172 -0.9218999999999999 19
-13.476600000000001 -36.125 4.0469 149
-4.0312 -10.8047 -0.6685 129
-13.468800000000002 -36.0938 4.9492 245
-13.468800000000002 -36.0938 -0.4495 210
-13.4375 -36.0312 6.7734000000000005 94
-3.6875 -9.7812 -1.8359 83
-13.531199999999998 -35.875 0.4475 61
-4.4609 -11.8281 -1.9209 21
-13.4844 -35.7812 1.3330000000000002 195
-3.9492000000000003 -10.468800000000002 -1.4346 127
-13.5078 -35.8438 2.2246 133
-3.9608999999999996 -10.5078 -1.1758 188
-13.476600000000001 -35.75 3.1172000000000004 186
-4.0469 -10.7344 -0.9331 101
-13.4922 -35.7812 4.0156 246
-4.0781 -10.8125 -0.6698999999999999 233
-9.4297 -25.0156 3.4336 158
-13.5078 -35.8125 5.832000000000001 14
-13.468800000000002 -35.7188 -0.44530000000000003 242
-13.4844 -35.7812 6.734400000000001 139
-3.7207 -9.7656 -1.835 189
-13.5703 -35.625 0.4448 194
-4.4883 -11.781199999999998 -1.915 98
-13.539100000000001 -35.5312 1.3262 202
-3.9882999999999997 -10.468800000000002 -1.4355000000000002 185
-13.5781 -35.625 2.2168 28
-4.0039 -10.5078 -1.1768 245
-13.593800000000002 -35.6562 3.1132999999999997 203
-4.125 -10.8203 -0.9423999999999999 128
-13.539100000000001 -35.5312 3.9922000000000004 43
-4.1328 -10.843800000000002 -0.6729 249
-9.5312 -25.0156 3.4375 37
-13.6406 -35.7812 5.8359000000000005 70
-13.523399999999999 -35.5 -0.44310000000000005 33
-13.4922 -35.4062 6.671900000000001 244
-3.7617000000000003 -9.7734 -1.8388999999999998 244
-9.625 -24.9844 0.3123 38
-4.5469 -11.8047 -1.9228999999999998 88
-13.718800000000002 -35.625 2.2188 249
-4.0508 -10.523399999999999 -1.1806999999999999 241
-4.1719 -10.8281 -0.9443 135
-4.1758 -10.843800000000002 -0.6733 66
-9.6328 -25.0156 3.4414 61
-4.7227 -12.2578 -0.457 73
-9.6875 -25.1562 4.1055 99
-13.6719 -35.5 -0.44380000000000003 142
-13.460899999999999 -34.9688 6.5977 104
-3.7949 -9.7578 -1.8388999999999998 199
-9.6797 -24.8906 0.31129999999999997 236
-4.5938 -11.8047 -1.9247999999999998 16
-9.6875 -24.8906 0.9312 66
-9.6797 -24.875 1.5508000000000002 223
-4.0977 -10.523399999999999 -1.1826 157
-4.1992 -10.789100000000001 -0.9419 143
-4.2148 -10.835899999999999 -0.6738 109
-9.7031 -24.9531 3.4375 136
-4.7656 -12.25 -0.4573 243
-13.9375 -35.8125 5.8515999999999995 143
-9.6328 -24.7656 -0.3098 95
-13.4531 -34.5938 6.5352 132
-3.8301 -9.7422 -1.8388999999999998 2
-4.6211 -11.75 -1.9188999999999998 219
-9.7891 -24.9062 0.9326000000000001 215
-4.1367 -10.523399999999999 -1.4491999999999998 253
-14.0156 -35.6562 2.2266 241
-4.1367 -10.523399999999999 -1.1836 35
-14.039100000000001 -35.7188 3.1308999999999996 216
-4.2461 -10.8047 -0.9443 41
-4.2656 -10.851600000000001 -0.6758 56
-9.8203 -24.9688 3.4473000000000003 12
-9.7422 -24.7812 -0.9277 150
-14.023399999999999 -35.6875 5.8398 215
-9.7422 -24.7812 -0.3105 11
-13.4297 -34.1562 6.4648 218
-3.8574 -9.7109 -1.835 188
-4.6211 -11.6406 -1.9033000000000002 243
-4.1836 -10.531199999999998 -1.4521000000000002 156
-14.093800000000002 -35.5 2.2188 7
-4.1836 -10.539100000000001 -1.1875 91
-14.0625 -35.4062 3.1094 111
-4.2852 -10.7969 -0.9448000000000001 98
-4.3164 -10.8672 -0.6777 20
-9.9141 -24.9688 3.4512 230
-9.4062 -23.6719 -0.8876999999999999 43
-14.031199999999998 -35.3438 -0.44380000000000003 49
-13.4375 -33.8438 6.4140999999999995 174
-3.8964999999999996 -9.7109 -1.8378999999999999 107
-4.5742 -11.398399999999999 -1.8662 3
-13.5625 -33.8125 1.2695 30
-4.2188 -10.5156 -1.4521000000000002 43
-14.0781 -35.0938 2.1973 95
-4.2305 -10.5469 -1.1895 244
-14.0469 -35.0312 3.0781 55
-4.3125 -10.7422 -0.9419 20
-13.4922 -33.625 3.8047000000000004 55
-4.3672 -10.8828 -0.6797 103
-9.5 -23.6719 -0.8887 215
-14.023399999999999 -34.9688 -0.4397 73
-10.0859 -25.1406 4.7695 22
-3.9375 -9.7188 -1.8408000000000002 141
-14.0781 -34.7188 0.43729999999999997 89
-4.5898 -11.3281 -1.8574000000000002 37
-13.5156 -33.375 1.2549 183
-4.2656 -10.531199999999998 -1.4561000000000002 192
-14.101600000000001 -34.8125 2.1816 190
-4.2773 -10.5547 -1.1924 7
-14.0469 -34.6562 3.0507999999999997 12
-4.3555 -10.7422 -0.9434 17
-13.460899999999999 -33.2188 3.7617000000000003 222
-4.4219 -10.914100000000001 -0.6826000000000001 111
-14.0781 -34.75 -1.3075999999999999 158
-14.0547 -34.6875 -0.4368 25
-13.3594 -32.9688 6.265599999999999 226
-3.9668 -9.6953 -1.8388999999999998 19
-14.0625 -34.3438 0.43310000000000004 25
-4.6055 -11.25 -1.8477000000000001 47
-13.4844 -32.9375 1.2412 65
-4.3164 -10.5469 -1.4609 149
-13.414100000000001 -32.75 2.0566 168
-4.3203 -10.5625 -1.1943000000000001 231
-13.406199999999998 -32.75 2.8867000000000003 41
-4.375 -10.6875 -0.9399 185
-13.3828 -32.6875 3.707 81
-4.4961 -10.9922 -0.688 35
-13.335899999999999 -32.5625 4.5234 27
-13.375 -32.6562 5.375 227
-13.3672 -32.6562 -0.4119 150
-13.343800000000002 -32.5938 6.203099999999999 186
-4.0039 -9.6875 -1.8408000000000002 145
-13.4297 -32.4688 0.4102 165
-4.6562 -11.2656 -1.8525 67
-13.4219 -32.4688 1.2246 215
-4.3594 -10.539100000000001 -1.4619 224
-13.414100000000001 -32.4375 2.0391 4
-4.3672 -10.5625 -1.1973 28
-13.414100000000001 -32.4375 2.8632999999999997 241
-4.418 -10.6875 -0.9409000000000001 136
-13.375 -32.375 3.6757999999999997 72
-4.6055 -11.1406 -0.6987000000000001 215
-13.335899999999999 -32.25 4.4844 26
-13.398399999999999 -32.4062 -1.2227 90
-13.3672 -32.3438 5.328099999999999 154
-13.3594 -32.3125 -0.408 65
-13.343800000000002 -32.2812 6.1523 122
-4.0352 -9.6641 -1.8388999999999998 119
-13.4219 -32.125 0.40619999999999995 48
-4.6992 -11.25 -1.8525 209
-13.406199999999998 -32.0938 1.2129 46
-4.4258 -10.593800000000002 -1.4716999999999998 201
-13.414100000000001 -32.0938 2.0215 24
-4.4141 -10.5703 -1.1992 21
-13.398399999999999 -32.0938 2.8358999999999996 237
-4.4727 -10.710899999999999 -0.9443 41
-13.375 -32.0312 3.6426 107
-4.6758 -11.1953 -0.7031000000000001 211
-13.3203 -31.8906 4.4414 191
-13.3828 -32.0312 -1.2109 191
-13.351600000000001 -31.9688 5.2773 91
-13.3672 -32.0 -0.4045 16
-13.343800000000002 -31.9531 6.0977 249
-4.0781 -9.6641 -1.8428 36
-13.4219 -31.8281 0.4031 159
-4.7422 -11.2422 -1.8544999999999998 121
-13.3906 -31.75 1.2021 79
-4.4727 -10.601600000000001 -1.4746000000000001 12
-13.414100000000001 -31.7969 2.0059 139
-4.4727 -10.601600000000001 -1.2051 72
-13.375 -31.7031 2.8066000000000004 90
-4.6055 -10.914100000000001 -0.9643999999999999 50
-13.375 -31.7188 3.6132999999999997 13
-13.3672 -31.7031 -1.999 226
-13.3125 -31.5625 4.4023 175
-13.3672 -31.6875 -1.1992 70
-13.335899999999999 -31.625 5.2265999999999995 138
-13.351600000000001 -31.6562 -0.40090000000000003 146
-13.343800000000002 -31.625 6.046900000000001 62
-4.1133 -9.6641 -1.8447 77
-13.406199999999998 -31.5 0.3994 222
-4.8008 -11.273399999999999 -1.8622999999999998 60
-13.3828 -31.4375 1.1914 89
-13.3828 -31.4531 1.9863 71
-4.5273 -10.6328 -1.21 20
-13.351600000000001 -31.3594 2.7812 226
-4.6523 -10.9219 -0.9662999999999999 135
-13.3594 -31.375 3.5801 187
-13.3594 -31.3906 -1.9813999999999998 183
-13.3125 -31.2656 4.3672 147
-13.3672 -31.3906 -1.1895 30
-13.3281 -31.2969 5.1797 3
-13.343800000000002 -31.3438 -0.3975 52
-13.3125 -31.2656 5.984400000000001 128
-4.1367 -9.6328 -1.8408000000000002 251
-13.3906 -31.1719 0.3958 218
-4.9805 -11.593800000000002 -1.9169999999999998 52
-13.375 -31.125 1.1816 53
-13.3906 -31.1562 1.9707 40
-4.5859 -10.6797 -1.2168 233
-13.3672 -31.1094 2.7617000000000003 98
-4.7188 -10.976600000000001 -0.9727 133
-13.343800000000002 -31.0469 3.5469 220
-13.335899999999999 -31.0469 -1.9628999999999999 89
-13.289100000000001 -30.9375 4.3281 91
-13.335899999999999 -31.0469 -1.1777 133
-13.3203 -31.0156 5.140599999999999 24
-13.3281 -31.0156 -0.39399999999999996 10
-13.3047 -30.9688 5.9375 150
-4.1719 -9.625 -1.8418 200
-13.3828 -30.8594 0.3923 140
-5.0273 -11.585899999999999 -1.9199000000000002 64
-13.3672 -30.8281 1.1709 86
-13.3672 -30.8125 1.9521000000000002 227
