# .PCD v0.7 - Point Cloud Data file format
VERSION 0.7
FIELDS x y z intensity
SIZE 4 4 4 4
TYPE F F F F
COUNT 1 1 1 1
WIDTH 1365
HEIGHT 1
VIEWPOINT 0 0 0 1 0 0 0
POINTS 1365
DATA ascii
-4.9609 5.265599999999999 -0.4182 200
-24.8281 26.375 4.6562 78
-0.5879 0.6289 -0.1444 124
-4.8711 5.2109000000000005 -1.0811 55
-55.9375 59.8125 2.8574 65
-4.918 5.2578 -0.9209 131
-55.8438 59.7188 4.7539 27
-4.9219 5.265599999999999 -0.7529 238
-26.4219 28.25 3.1562 96
-4.9062 5.2461 -0.583 116
-25.5 27.2656 3.9199 82
-4.9414 5.2852 -0.4182 226
-24.8125 26.5312 4.668 147
-0.5562 0.5986 -0.1367 38
-4.8477 5.2188 -1.0791 236
-55.5938 59.8438 2.8495999999999997 218
-4.8789 5.2539 -0.9165000000000001 122
-55.4375 59.6875 4.7383 102
-4.8906 5.265599999999999 -0.7505 68
-26.4062 28.4375 3.1660000000000004 214
-4.8828 5.2578 -0.5825 68
-25.1875 27.1094 3.8848000000000003 170
-4.9062 5.2812 -0.4167 146
-0.5488000000000001 0.5947 -0.1354 52
-4.8242 5.2265999999999995 -1.0781 217
-55.1562 59.75 2.8379000000000003 23
-4.8672 5.2734000000000005 -0.9175 203
-55.0625 59.6875 4.7227 193
-4.8516 5.2578 -0.7471 231
-4.8594 5.269500000000001 -0.5820000000000001 111
-25.125 27.2344 3.8887 21
-4.8711 5.2773 -0.4153 15
-0.584 0.6377 -0.145 150
-4.7891 5.2265999999999995 -1.0742 246
-4.8477 5.2890999999999995 -0.917 132
-54.6875 59.6562 4.707 106
-4.8281 5.269500000000001 -0.7465999999999999 244
-4.832 5.2734000000000005 -0.5806 180
-25.7969 28.1562 4.0117 42
-4.8516 5.296900000000001 -0.4153 165
-5.359400000000001 5.890599999999999 -1.3965 191
-4.7617 5.230499999999999 -1.0723 249
-4.8398 5.3203 -0.9198999999999999 118
-54.3125 59.6875 4.6914 221
-4.8164 5.2890999999999995 -0.7471 155
-54.2188 59.5625 6.574199999999999 16
-4.8047 5.2773 -0.5796 31
-25.7812 28.3281 4.0195 164
-4.8281 5.300800000000001 -0.4146 118
-5.3086 5.8789 -1.3887 117
-4.7383 5.2461 -1.0713 19
-5.203099999999999 5.761699999999999 0.2693 17
-4.8008 5.3125 -0.9155 72
-53.9062 59.6875 4.6758 243
-4.793 5.3047 -0.7471 179
-53.7812 59.5312 6.550800000000001 194
-4.7734 5.2852 -0.5781000000000001 168
-25.7031 28.4531 4.0234 45
-4.8008 5.3164 -0.41409999999999997 210
-5.2539 5.859400000000001 -1.3799000000000001 30
-4.7188 5.261699999999999 -1.0713 139
-5.140599999999999 5.730499999999999 0.2671 84
-4.7695 5.3203 -0.9136 212
-53.5 59.6562 4.6602 244
-4.75 5.296900000000001 -0.7432 95
-53.4062 59.5625 6.5312 49
-4.75 5.296900000000001 -0.5776 129
-25.6562 28.6094 4.0352 232
-4.7656 5.3164 -0.4128 57
-4.9297 5.4961 -0.08539999999999999 219
-5.2265999999999995 5.863300000000001 -1.3779 179
-4.6875 5.2578 -1.0674 231
-5.1055 5.730499999999999 0.2661 74
-4.75 5.332000000000001 -0.9131 211
-53.125 59.625 4.6445 37
-4.7305 5.3086 -0.7426999999999999 153
-53.0625 59.5625 6.511699999999999 246
-4.7266 5.3047 -0.5767 5
-4.7383 5.3164 -0.41159999999999997 25
-5.199199999999999 5.875 -1.376 173
-4.6641 5.269500000000001 -1.0664 225
-5.0703 5.730499999999999 0.26539999999999997 84
-4.75 5.3672 -0.9159999999999999 39
-52.7812 59.625 4.6289 30
-4.7031 5.3164 -0.7417 222
-52.6875 59.5312 6.4922 200
-4.7148 5.328099999999999 -0.5776 53
-4.7188 5.332000000000001 -0.4114 75
-5.1797 5.8984000000000005 -1.3769999999999998 135
-4.6367 5.2773 -1.0645 74
-5.0312 5.730499999999999 0.2644 15
-4.7148 5.363300000000001 -0.9131 175
-52.375 59.625 4.6172 77
-4.6758 5.3203 -0.7397 20
-52.2812 59.5 6.4648 145
-4.6992 5.3515999999999995 -0.5781000000000001 101
-4.6992 5.3515999999999995 -0.41159999999999997 76
-5.1562 5.9102 -1.375 150
-4.6133 5.2890999999999995 -1.0635 142
-4.9961 5.7265999999999995 0.2637 33
-4.6758 5.359400000000001 -0.9097 65
-52.0 59.625 4.6016 48
-4.6641 5.3477 -0.7412000000000001 225
-51.9375 59.5312 6.449199999999999 88
-4.6719 5.355499999999999 -0.5767 38
-4.6758 5.359400000000001 -0.41090000000000004 228
-5.125 5.917999999999999 -1.3730000000000002 140
-4.5938 5.3047 -1.0635 23
-4.9727 5.738300000000001 0.2634 18
-4.6523 5.3711 -0.9087000000000001 172
-51.625 59.5938 4.5859 193
-4.6289 5.3438 -0.7383 64
-51.5938 59.5312 6.4297 86
-4.6484 5.3672 -0.5767 66
-4.6367 5.3515999999999995 -0.4094 61
-5.0938 5.921900000000001 -1.3700999999999999 166
-4.5742 5.3164 -1.0635 127
-4.918 5.7188 0.2615 125
-4.6367 5.390599999999999 -0.9092 55
-51.2812 59.5938 4.5703 7
-4.6016 5.3515999999999995 -0.7373000000000001 17
-51.1875 59.5312 6.4102 198
-4.6328 5.386699999999999 -0.5767 0
-4.6133 5.363300000000001 -0.4089 181
-5.0703 5.9336 -1.3691 42
-4.5508 5.328099999999999 -1.0615 59
-4.8984 5.734400000000001 0.2615 242
-4.6133 5.4023 -0.9087000000000001 56
-50.9062 59.5938 4.5586 133
-4.5742 5.355499999999999 -0.7358 150
-50.8125 59.5 6.386699999999999 165
-4.6172 5.4062 -0.5771000000000001 214
-4.5938 5.3789 -0.40869999999999995 232
-5.0508 5.957000000000001 -1.3700999999999999 37
-4.5195 5.328099999999999 -1.0586 24
-4.8242 5.6875 0.2585 114
-4.5938 5.417999999999999 -0.9081999999999999 245
-50.5312 59.5938 4.543 187
-4.5508 5.3672 -0.7349 109
-50.4375 59.5 6.3672 95
-4.5859 5.4062 -0.5752 18
-4.5703 5.390599999999999 -0.40840000000000004 248
-5.0312 5.9688 -1.3691 103
-4.5039 5.3438 -1.0586 238
-4.7969 5.6914 0.2581 79
-4.5625 5.4140999999999995 -0.9048 161
-50.1875 59.5312 4.5273 126
-4.5352 5.3828 -0.7354 199
-50.125 59.4688 6.3515999999999995 220
-4.5586 5.4102 -0.5742 61
-4.5469 5.394500000000001 -0.408 15
-5.0078 5.984400000000001 -1.3681999999999999 255
-4.4805 5.3515999999999995 -1.0576 70
-4.7773 5.707000000000001 0.2581 111
-4.5312 5.4140999999999995 -0.9028 153
-49.8125 59.5 4.5117 189
-4.5195 5.3984000000000005 -0.7354 102
-49.75 59.4375 6.328099999999999 144
-4.5195 5.3984000000000005 -0.40700000000000003 3
-4.9766 5.9922 -1.3662 142
-4.4609 5.3672 -1.0576 189
-4.7695 5.738300000000001 0.2588 163
-4.5078 5.425800000000001 -0.9018999999999999 111
-49.4375 59.5312 4.5 51
-4.4961 5.4102 -0.7349 195
-49.375 59.4375 6.3086 40
-4.5234 5.4453 -0.5747 227
-4.4844 5.3984000000000005 -0.4058 52
-4.9531 6.0078 -1.3652000000000002 230
-4.4336 5.375 -1.0556999999999999 236
-4.7227 5.7265999999999995 0.25730000000000003 93
-4.4961 5.449199999999999 -0.9033 3
-49.125 59.5312 4.4883 127
-4.4648 5.4140999999999995 -0.7329000000000001 34
-49.0 59.4062 6.2852 74
-4.4961 5.453099999999999 -0.5737 245
-4.4805 5.4297 -0.4067 138
-4.9258 6.015599999999999 -1.3633000000000002 119
-4.4062 5.3828 -1.0537 89
-4.6992 5.738300000000001 0.25730000000000003 138
-4.4688 5.457000000000001 -0.9018999999999999 120
-48.7188 59.5 4.4727 253
-4.4453 5.425800000000001 -0.7329000000000001 82
-48.6562 59.4062 6.269500000000001 167
-4.4688 5.457000000000001 -0.5728 102
-4.4453 5.425800000000001 -0.40549999999999997 108
-4.5547 5.5586 -0.2491 109
-4.9062 6.0312 -1.3633000000000002 217
-4.3828 5.390599999999999 -1.0527 82
-4.6562 5.7265999999999995 0.2559 132
-4.4297 5.449199999999999 -0.8979 194
-48.375 59.5 4.4609 21
-4.4258 5.4414 -0.7329000000000001 131
-48.3125 59.4062 6.2539 159
-4.4453 5.4648 -0.5718 243
-4.4336 5.449199999999999 -0.406 64
-4.5195 5.5547 -0.2483 110
-4.8789 6.0390999999999995 -1.3613 28
-4.3672 5.4062 -1.0537 146
-4.6445 5.75 0.2563 236
-4.4141 5.4648 -0.8979 1
-48.0312 59.4688 4.4453 173
-4.4102 5.4609000000000005 -0.7334 191
-47.9688 59.375 6.230499999999999 93
-4.4258 5.4765999999999995 -0.5713 195
-20.25 25.0625 3.3808999999999996 110
-4.4062 5.453099999999999 -0.4053 205
-4.4883 5.5586 -0.2477 100
-4.8555 6.050800000000001 -1.3603999999999998 170
-4.3477 5.417999999999999 -1.0527 179
-4.6133 5.75 0.2556 187
-4.4023 5.488300000000001 -0.8994 142
-47.7188 59.4688 4.4336 198
-4.3828 5.4648 -0.7319 21
-47.625 59.375 6.2148 79
-4.4102 5.4961 -0.5718 195
-20.2344 25.2188 3.3945 61
-4.3672 5.4453 -0.4036 139
-4.4805 5.5859000000000005 -0.2483 244
-4.8242 6.0586 -1.3574000000000002 188
-4.3203 5.425800000000001 -1.0518 205
-4.582 5.7539 0.25489999999999996 181
-4.375 5.4922 -0.8979 4
-47.3438 59.4688 4.4219 135
-4.3555 5.4688 -0.7304999999999999 51
-18.6562 23.4375 2.4434 2
-4.3867 5.5078 -0.5713 161
-19.7344 24.7812 3.3242000000000003 9
-4.3594 5.4765999999999995 -0.4045 220
-4.4141 5.542999999999999 -0.24559999999999998 215
-18.9219 23.7656 4.625 9
-4.8008 6.0703 -1.3574000000000002 192
-4.2969 5.4336 -1.0498 5
-4.582 5.796900000000001 0.2563 145
-4.3633 5.519500000000001 -0.8998999999999999 188
-47.0 59.4688 4.4062 70
-4.3398 5.488300000000001 -0.7304999999999999 81
-18.5781 23.5 2.4434 68
-4.3594 5.511699999999999 -0.5703 91
-19.7031 24.9219 3.3339999999999996 44
-4.3398 5.488300000000001 -0.4043 9
-4.3867 5.550800000000001 -0.2452 160
-18.7812 23.75 4.6094 197
-4.7891 6.1015999999999995 -1.3603999999999998 58
-4.2734 5.4453 -1.0488 197
-4.5039 5.738300000000001 0.2529 44
-4.332 5.515599999999999 -0.897 242
-46.6562 59.4375 4.3945 17
-4.3203 5.5039 -0.731 161
-18.4844 23.5469 2.4414 184
-4.332 5.519500000000001 -0.5693 150
-19.7031 25.0938 3.3476999999999997 136
-4.3125 5.4961 -0.40380000000000005 121
-4.375 5.574199999999999 -0.24559999999999998 75
-18.8438 24.0 4.6445 40
-4.7539 6.0977 -1.3555000000000001 154
-4.2617 5.4688 -1.0508 121
-4.5039 5.7773 0.2539 111
-4.3086 5.5312 -0.8965000000000001 18
-46.3125 59.4375 4.3828 53
-4.3008 5.515599999999999 -0.7304999999999999 178
-18.5312 23.7812 2.459 225
-4.3125 5.5352 -0.5693 25
-19.4531 24.9688 3.3223000000000003 117
-4.2891 5.5039 -0.4036 24
-18.875 24.2188 3.9433999999999996 98
-4.3594 5.5938 -0.24600000000000002 32
-18.7344 24.0469 4.6406 44
-4.7266 6.109400000000001 -1.3555000000000001 139
-4.2383 5.4765999999999995 -1.0488 120
-4.4492 5.7539 0.2522 174
-4.2852 5.5390999999999995 -0.895 234
-46.0 59.4375 4.3711 210
-4.2734 5.5234000000000005 -0.7295 152
-18.7188 24.1875 2.4961 116
-4.2969 5.550800000000001 -0.5698 246
-19.4844 25.1875 3.3438 224
-4.2656 5.511699999999999 -0.4028 231
-18.75 24.2344 3.9375 51
-4.3359 5.605499999999999 -0.24559999999999998 230
-4.6992 6.1172 -1.3525 204
-4.2109 5.484400000000001 -1.0479 15
-4.4336 5.769500000000001 0.25239999999999996 78
-4.2734 5.5625 -0.897 13
-45.6562 59.4062 4.3555 7
-4.2461 5.5273 -0.728 255
-18.6094 24.2188 2.4902 237
-4.2734 5.5625 -0.5693 98
-19.0469 24.7969 3.2812 229
-4.2539 5.5390999999999995 -0.40380000000000005 195
-17.6719 23.0156 3.7266000000000004 213
-4.3125 5.6172 -0.2455 100
-17.7812 23.1406 4.4453 221
-4.6836 6.140599999999999 -1.3544999999999998 113
-4.1875 5.4922 -1.0469 242
-4.3906 5.7578 0.251 77
-4.2539 5.578099999999999 -0.897 49
-45.3125 59.4375 4.3438 250
-4.2305 5.546900000000001 -0.7290000000000001 53
-18.5156 24.2656 2.4902 69
-4.25 5.5703 -0.5688 224
-19.0781 25.0312 3.3026999999999997 85
-4.2344 5.550800000000001 -0.4036 92
-17.5781 23.0469 3.7226999999999997 250
-4.2734 5.6015999999999995 -0.2443 35
-17.6406 23.1406 4.4297 103
-4.6562 6.1484000000000005 -1.3525 158
-4.1641 5.5 -1.0449 24
-4.375 5.7773 0.25120000000000003 1
-4.2227 5.578099999999999 -0.894 125
-44.9688 59.4062 4.332 142
-4.2109 5.5625 -0.7284999999999999 48
-18.25 24.1094 2.4668 19
-4.2227 5.578099999999999 -0.5679 26
-18.9531 25.0469 3.2969 16
-4.2109 5.5625 -0.4033 253
-17.5312 23.1562 3.7305 8
-4.2617 5.6289 -0.24480000000000002 16
-17.5938 23.2344 4.4375 184
-4.6328 6.1602 -1.3516 236
-4.1523 5.5234000000000005 -1.0469 80
-4.3516 5.7890999999999995 0.251 155
-4.1992 5.5859000000000005 -0.8936 100
-44.6562 59.4062 4.3203 199
-4.1914 5.574199999999999 -0.7284999999999999 50
-18.1562 24.1406 2.4648 42
-4.207 5.5938 -0.5684 243
-19.1094 25.4062 3.3358999999999996 224
-4.1914 5.574199999999999 -0.4033 42
-17.8125 23.6875 3.8066000000000004 53
-4.2383 5.6328 -0.2444 22
-17.6094 23.4062 4.4609 254
-4.6016 6.1640999999999995 -1.3486000000000002 225
-4.1367 5.542999999999999 -1.0479 173
-4.3359 5.8047 0.25120000000000003 154
-4.1875 5.609400000000001 -0.8945000000000001 144
-44.3125 59.3438 4.3086 21
-4.1719 5.5859000000000005 -0.728 90
-44.2812 59.2812 6.0390999999999995 27
-4.1875 5.609400000000001 -0.5679 170
-17.4375 23.3438 3.0586 84
-4.168 5.582000000000001 -0.4028 95
-17.7656 23.7969 3.8145 83
-4.2305 5.667999999999999 -0.2452 73
-17.8906 23.9688 4.5547 65
-4.5859 6.1875 -1.3506 236
-4.1094 5.542999999999999 -1.0459 150
-4.3203 5.832000000000001 0.25170000000000003 155
-4.168 5.625 -0.895 86
-44.0 59.375 4.2969 214
-4.1406 5.5898 -0.7265999999999999 164
-43.9062 59.25 6.019500000000001 105
-4.168 5.6211 -0.5679 180
-17.7344 23.9375 3.127 233
-4.1445 5.5898 -0.4021 47
-17.8281 24.0625 3.8457 155
-4.2148 5.6875 -0.24539999999999998 19
-18.1719 24.5156 4.6484 15
-4.5664 6.207000000000001 -1.3516 129
-4.082 5.546900000000001 -1.0439 44
-4.293 5.8359000000000005 0.25120000000000003 167
-4.1523 5.644500000000001 -0.8959999999999999 84
-43.6562 59.3438 4.2852 3
-4.1289 5.609400000000001 -0.7275 128
-43.5938 59.2812 6.0078 185
-4.1367 5.625 -0.5669 74
-17.375 23.6094 3.0762 188
-4.1367 5.6211 -0.4033 146
-18.2812 24.8594 3.9629000000000003 230
-4.1758 5.6797 -0.2444 168
-4.543 6.2227 -1.3506 212
-4.0664 5.5703 -1.0449 94
-4.2656 5.8398 0.2507 30
-4.1211 5.640599999999999 -0.8931 118
-43.3438 59.375 4.2734 147
-4.1094 5.625 -0.7275 223
-4.1094 5.6289 -0.5659000000000001 194
-17.3125 23.7031 3.0801 223
-4.1172 5.636699999999999 -0.4036 158
-18.2031 24.9219 3.9629000000000003 222
-4.168 5.707000000000001 -0.245 83
-17.8594 24.4531 4.6133 113
-4.5 6.207000000000001 -1.3447 189
-4.0508 5.5898 -1.0459 84
-4.2461 5.855499999999999 0.2507 44
-4.1055 5.6640999999999995 -0.894 184
-43.0312 59.3438 4.2617 208
-4.0977 5.6523 -0.7290000000000001 117
-17.8125 24.5781 2.4766 143
-17.2188 23.75 3.0781 135
-4.0859 5.636699999999999 -0.40259999999999996 249
-18.1094 24.9844 3.9648000000000003 250
-4.1523 5.7265999999999995 -0.2451 85
-17.8438 24.6094 4.6289 16
-4.4766 6.2188 -1.3437999999999999 210
-4.0312 5.605499999999999 -1.0459 230
-4.2344 5.8828 0.25120000000000003 35
-4.0859 5.6797 -0.8945000000000001 227
-42.6875 59.3125 4.25 24
-4.0625 5.644500000000001 -0.7265999999999999 167
-17.7031 24.6094 2.4727 50
-17.1719 23.8594 3.0839999999999996 244
-4.0703 5.6562 -0.4028 59
-17.4219 24.2031 3.8301 224
-4.1328 5.7422 -0.2452 100
-17.7188 24.625 4.6211 72
-4.4492 6.2265999999999995 -1.3418 220
-4.0117 5.6172 -1.0459 9
-4.0664 5.6914 -0.894 215
-42.4062 59.3438 4.2422 182
-4.043 5.6602 -0.7261 19
-18.5938 26.0312 2.6094 116
-4.0469 5.6640999999999995 -0.5649000000000001 162
-17.375 24.3125 3.1367000000000003 1
-4.043 5.6602 -0.4019 244
-17.3594 24.2969 3.8358999999999996 23
-4.1094 5.75 -0.245 192
-17.5938 24.6406 4.6094 125
-4.4336 6.25 -1.3437999999999999 25
-3.9863 5.6211 -1.0439 220
-4.1953 5.917999999999999 0.2515 59
-4.043 5.703099999999999 -0.8936 32
-42.0938 59.3438 4.2305 236
-4.0234 5.675800000000001 -0.7265999999999999 5
-18.5156 26.0938 2.6094 121
-4.0234 5.675800000000001 -0.5645 160
-17.3125 24.4219 3.1426 102
-4.0234 5.671900000000001 -0.4019 3
-17.0781 24.0781 3.7910000000000004 117
-4.0898 5.765599999999999 -0.245 65
-17.2188 24.2656 4.5312 244
-4.4102 6.265599999999999 -1.3428 79
-3.9688 5.636699999999999 -1.0449 11
-4.168 5.921900000000001 0.251 158
-4.0117 5.699199999999999 -0.8911 186
-41.75 59.3125 4.2188 105
-4.0078 5.6953 -0.7275 13
-41.6875 59.2188 5.9140999999999995 134
-3.998 5.6797 -0.5635 114
-17.1719 24.3906 3.1308999999999996 182
-4.0117 5.699199999999999 -0.4028 34
-17.125 24.3281 3.8223000000000003 121
-4.0625 5.769500000000001 -0.2446 0
-17.0938 24.2812 4.5234 158
-4.375 6.261699999999999 -1.3397999999999999 67
-3.9531 5.6562 -1.0459 157
-4.1602 5.953099999999999 0.25170000000000003 236
-3.9901999999999997 5.707000000000001 -0.8906000000000001 27
-41.4375 59.2812 4.207 3
-3.9901999999999997 5.7109000000000005 -0.7275 91
-18.6562 26.6875 2.6562 132
-3.9745999999999997 5.6875 -0.563 247
-17.0469 24.3906 3.123 193
-3.9882999999999997 5.707000000000001 -0.4023 115
-16.4844 23.5938 3.6973000000000003 250
-4.0586 5.8047 -0.2455 49
-16.9844 24.3125 4.5156 209
-4.3516 6.2734000000000005 -1.3388999999999998 118
-3.9395 5.675800000000001 -1.0469 75
-4.1758 6.019500000000001 0.2539 25
-3.9824 5.738300000000001 -0.8931 46
-41.125 59.2812 4.1953 30
-3.9726999999999997 5.7227 -0.7275 199
-18.5625 26.75 2.6562 42
-3.9608999999999996 5.707000000000001 -0.564 109
-17.0469 24.5625 3.1367000000000003 165
-3.9648000000000003 5.7148 -0.4019 50
-16.375 23.5938 3.6895 28
-4.0391 5.8203 -0.24559999999999998 51
-16.8906 24.3438 4.5117 33
-16.5625 23.8594 5.1133 97
-4.3281 6.2852 -1.3378999999999999 20
-3.9120999999999997 5.6836 -1.0459 77
-4.1328 6.0039 0.2527 238
-3.9551 5.7461 -0.8916 73
-40.8125 59.3125 4.1875 136
-3.9512 5.7422 -0.728 44
-17.8281 25.9062 2.5645 95
-3.9452999999999996 5.730499999999999 -0.5645 58
-16.9531 24.625 3.1367000000000003 182
-3.9492000000000003 5.738300000000001 -0.40259999999999996 160
-16.3594 23.7656 3.7051 50
-4.0 5.8125 -0.2446 224
-16.8281 24.4531 4.5195 191
-16.4844 23.9531 5.1211 15
-4.3047 6.300800000000001 -1.3378999999999999 144
-3.8887 5.6914 -1.0449 141
-4.1562 6.0859000000000005 0.2556 37
-3.9336 5.7578 -0.8916 161
-40.4688 59.25 4.1719 128
-3.9276999999999997 5.75 -0.7275 231
-17.7344 25.9531 2.5645 168
-3.9219 5.7422 -0.5645 58
-16.9375 24.7969 3.1523000000000003 189
-3.9414 5.769500000000001 -0.40380000000000005 101
-16.3125 23.8906 3.7148000000000003 167
-3.9882999999999997 5.8359000000000005 -0.2451 72
-16.4062 24.0156 4.4297 67
-16.3281 23.9062 5.0977 212
-4.2852 6.3203 -1.3388999999999998 199
-3.875 5.7148 -1.0459 113
-4.1211 6.074199999999999 0.2546 235
-3.9101999999999997 5.765599999999999 -0.8906000000000001 134
-3.9120999999999997 5.769500000000001 -0.728 61
-17.6875 26.0781 2.5702999999999996 1
-3.9004000000000003 5.75 -0.564 172
-16.8281 24.8125 3.1464999999999996 231
-3.9238 5.7852 -0.40409999999999996 236
-16.0156 23.6094 3.6641000000000004 55
-3.9805 5.8672 -0.2457 183
-16.5781 24.4375 4.4961 130
-16.3281 24.0625 5.1211 79
-4.2578 6.3203 -1.3369 233
-3.8613 5.734400000000001 -1.0479 242
-4.0859 6.0703 0.25370000000000004 214
-3.8964999999999996 5.7852 -0.8920999999999999 51
-16.7656 24.9062 1.7441 169
-3.8983999999999996 5.7890999999999995 -0.7290000000000001 139
-17.6094 26.1562 2.5723000000000003 86
-3.8848000000000003 5.769500000000001 -0.5645 80
-16.7188 24.8125 3.1406 16
-3.9004000000000003 5.792999999999999 -0.4036 86
-15.8906 23.5938 3.6543 203
-3.957 5.875 -0.24559999999999998 39
-15.75 23.3906 4.293 140
-16.3125 24.2188 5.140599999999999 160
-4.2305 6.332000000000001 -1.3359 26
-3.8438 5.7539 -1.0488 203
-4.0859 6.113300000000001 0.25489999999999996 92
-3.8789 5.8047 -0.8926000000000001 80
-16.6406 24.9219 1.7412 223
-3.8711 5.792999999999999 -0.7275 7
-17.5 26.1875 2.5683999999999996 124
-3.8711 5.792999999999999 -0.5654 198
-15.414100000000001 23.0625 2.9120999999999997 179
-3.8789 5.8047 -0.4036 73
-15.835899999999999 23.7031 3.6601999999999997 22
-3.9336 5.886699999999999 -0.2455 244
-15.6719 23.4531 4.293 131
-16.2969 24.375 5.1640999999999995 92
-4.207 6.3477 -1.335 198
-3.8202999999999996 5.761699999999999 -1.0479 200
-4.0742 6.144500000000001 0.2556 238
-3.8651999999999997 5.828099999999999 -0.894 108
-16.5625 24.9844 1.7412 93
-3.8476999999999997 5.8047 -0.7275 66
-17.4375 26.2969 2.5742000000000003 242
-3.8516000000000004 5.8086 -0.5659000000000001 149
-15.273399999999999 23.0312 2.9004000000000003 57
-3.8594 5.8203 -0.4036 162
-16.1094 24.2969 3.7441000000000004 43
-3.918 5.9102 -0.2457 100
-15.5547 23.4531 4.2852 222
-14.914100000000001 22.5 4.75 49
-4.1836 6.355499999999999 -1.335 102
-3.8007999999999997 5.7773 -1.0479 175
-4.0938 6.2227 0.2583 181
-3.8262 5.8125 -0.8896 104
-16.5312 25.1094 1.7461000000000002 110
-3.832 5.8203 -0.728 231
-17.3125 26.2969 2.5683999999999996 218
-3.8301 5.8203 -0.5654 202
-15.2578 23.1875 2.9120999999999997 190
-3.8457 5.8438 -0.4043 37
-16.7344 25.4375 3.9101999999999997 25
-3.8887 5.9102 -0.2452 234
-15.375 23.3594 4.2578 196
-3.9512 6.0039 -0.08310000000000001 164
-14.875 22.6094 4.7656 233
-4.1602 6.3711 -1.335 122
-3.957 6.0586 0.0837 52
-3.7812 5.7890999999999995 -1.0479 118
-4.0586 6.2148 0.25730000000000003 83
-16.2812 24.9219 1.7285 57
-3.8223000000000003 5.8515999999999995 -0.73 114
-16.3125 24.9688 2.4316 43
-3.8086 5.832000000000001 -0.5654 149
-15.210899999999999 23.2812 2.918 107
-3.8281 5.863300000000001 -0.4048 191
-15.3594 23.5156 3.6074 240
-3.8906 5.957000000000001 -0.2466 115
-14.710899999999999 22.5312 4.0977 42
-3.8945 5.9648 -0.0824 245
-16.1719 24.7656 5.207000000000001 140
-4.1289 6.3711 -1.3311000000000002 164
-3.9316000000000004 6.0664 0.0836 158
-3.7676 5.8125 -1.0498 78
-4.1016 6.328099999999999 0.2615 90
-3.7441000000000004 5.7773 -0.8804000000000001 152
-16.1562 24.9219 1.7256 72
-3.8066000000000004 5.8711 -0.731 32
-16.2344 25.0312 2.4336 56
-3.7891000000000004 5.8477 -0.5654 51
-15.0625 23.25 2.9062 60
-3.8105 5.8789 -0.4048 148
-16.9844 26.2188 4.0117 110
-3.8476999999999997 5.9375 -0.2452 52
-3.877 5.984400000000001 -0.0825 143
-16.1719 24.9688 5.238300000000001 88
-4.1055 6.3828 -1.3311000000000002 90
-3.9141000000000004 6.082000000000001 0.0837 225
-3.7577999999999996 5.8398 -1.0527 126
-4.0781 6.3438 0.2615 235
-3.7382999999999997 5.8125 -0.8833 0
-16.0781 25.0 1.7266 140
-3.7617000000000003 5.8477 -0.7261 250
-15.4375 24.0 2.3262 150
-3.7832 5.8828 -0.5679 242
-15.835899999999999 24.6094 3.0723000000000003 230
-3.8047000000000004 5.9140999999999995 -0.4065 75
-15.1406 23.5469 3.5957 98
-3.8281 5.949199999999999 -0.2452 1
-15.0703 23.4219 4.2422 54
-3.8574 5.9961 -0.0825 119
-14.601600000000001 22.7031 4.7539 94
-4.0859 6.3984000000000005 -1.3311000000000002 151
-3.9551 6.1953 0.085 119
-3.7382999999999997 5.855499999999999 -1.0527 199
-3.7226999999999997 5.832000000000001 -0.8848 241
-37.8125 59.2188 4.0859 61
-3.7441000000000004 5.863300000000001 -0.7265999999999999 163
-15.273399999999999 23.9375 2.3145 167
-15.8047 24.7656 3.082 150
-15.101600000000001 23.6562 3.6055 111
-3.8164 5.980499999999999 -0.24600000000000002 90
-15.031199999999998 23.5469 4.2539 180
-3.8418 6.019500000000001 -0.08259999999999999 87
-14.5703 22.8281 4.7695 91
-4.0625 6.4140999999999995 -1.3311000000000002 65
-3.7148000000000003 5.8672 -1.0527 110
-3.7089999999999996 5.855499999999999 -0.8862000000000001 78
-15.585899999999999 24.6094 1.6924000000000001 5
-3.7245999999999997 5.8828 -0.7271 150
-15.0703 23.7969 2.2969 243
-3.7949 5.9922 -0.5757 205
-14.7578 23.2969 2.8945 14
-3.7695 5.953099999999999 -0.4072 231
-14.898399999999999 23.5156 3.5762 1
-3.8007999999999997 6.0 -0.2462 249
-14.7969 23.3594 4.2109 204
-3.8358999999999996 6.0586 -0.08289999999999999 108
-14.4531 22.8125 4.7539 61
-4.0391 6.421900000000001 -1.3300999999999998 95
-3.7089999999999996 5.8984000000000005 -1.0566 143
-3.6952999999999996 5.8789 -0.8876999999999999 201
-15.5156 24.6719 1.6934 9
-3.7089999999999996 5.8984000000000005 -0.728 27
-14.7578 23.4688 2.2617 27
-3.7695 5.9922 -0.5747 140
-14.710899999999999 23.3906 2.9004000000000003 60
-3.7598000000000003 5.9765999999999995 -0.4082 31
-14.976600000000001 23.8125 3.6132999999999997 205
-3.7949 6.0352 -0.24719999999999998 132
-14.164100000000001 22.5312 4.0508 150
-3.8516000000000004 6.1289 -0.0837 73
-14.4453 22.9688 4.7773 66
-4.0117 6.425800000000001 -1.3281 82
-3.7188 5.9609000000000005 -1.0645 236
-3.6836 5.9023 -0.8896 83
-36.9375 59.1875 4.0547 23
-3.7108999999999996 5.9453 -0.7319 36
-14.7344 23.6094 2.2695 180
-3.7558999999999996 6.015599999999999 -0.5757 237
-14.601600000000001 23.3906 2.8945 149
-3.7305 5.9765999999999995 -0.4072 61
-15.6797 25.125 3.8026999999999997 100
-3.8007999999999997 6.0898 -0.2489 222
-14.1875 22.7344 4.0781 185
-3.877 6.2109000000000005 -0.08470000000000001 25
-14.4297 23.125 4.8008 180
-3.9844 6.4336 -1.3271000000000002 46
-3.7324 6.0273 -1.0742 43
-4.4102 7.1211 0.2908 200
-3.6797000000000004 5.9414 -0.8936 26
-36.6875 59.2188 4.0508 214
-3.7285000000000004 6.019500000000001 -0.7397 23
-14.710899999999999 23.75 2.2793 128
-3.7305 6.0234000000000005 -0.5752 98
-14.648399999999999 23.6562 2.9199 224
-3.707 5.984400000000001 -0.40700000000000003 107
-15.601600000000001 25.1875 3.8047000000000004 103
-3.8047000000000004 6.144500000000001 -0.2505 115
-14.101600000000001 22.7812 4.0781 141
-14.585899999999999 23.5469 4.8789 26
-3.9648000000000003 6.449199999999999 -1.3271000000000002 110
-3.8867000000000003 6.3203 -1.125 52
-3.7226999999999997 6.0547 -0.9087000000000001 65
-36.4375 59.25 4.043 45
-3.7245999999999997 6.0586 -0.7432 238
-14.664100000000001 23.8594 2.2832 40
-3.7598000000000003 6.1172 -0.583 91
-14.7656 24.0312 2.9589999999999996 239
-15.460899999999999 25.1562 3.793 82
-3.8476999999999997 6.2578 -0.2546 38
-13.906199999999998 22.625 4.043 168
-14.164100000000001 23.0469 4.7617 6
-3.9414 6.4648 -1.3281 155
-3.9629000000000003 6.5 -1.1543 104
-3.7558999999999996 6.1602 -0.9224 239
-36.0938 59.2188 4.0312 203
-16.625 27.2656 2.6035000000000004 84
-3.7461 6.144500000000001 -0.584 49
-14.3828 23.5938 2.9004000000000003 6
-3.7793 6.199199999999999 -0.4199 93
-15.531199999999998 25.4844 3.8339999999999996 186
-3.8964999999999996 6.390599999999999 -0.2595 23
-14.023399999999999 23.0 4.1016 30
-14.3594 23.5625 4.8555 1
-3.918 6.4765999999999995 -1.3271000000000002 124
-3.9414 6.515599999999999 -1.1543 146
-3.8202999999999996 6.3164 -0.9438 63
-15.2578 25.2188 1.7128999999999999 17
-3.832 6.3359000000000005 -0.7734000000000001 7
-16.5 27.2812 2.6016000000000004 183
-3.793 6.269500000000001 -0.5947 144
-14.2422 23.5469 2.8887 87
-15.210899999999999 25.1406 3.7754000000000003 122
-3.9766000000000004 6.574199999999999 -0.2664 19
-13.8672 22.9219 4.0781 118
-14.1719 23.4375 4.8203 249
-3.8827999999999996 6.4688 -1.3232 144
-3.9452999999999996 6.574199999999999 -1.1621 26
-3.8242000000000003 6.375 -0.9506999999999999 234
-15.1406 25.2344 1.709 104
-3.8555 6.421900000000001 -0.7827 19
-3.8827999999999996 6.4727 -0.6128 188
-14.1406 23.5625 2.8827999999999996 22
-14.1953 23.6562 3.543 103
-3.9901999999999997 6.6484000000000005 -0.26899999999999996 79
-13.781199999999998 22.9688 4.0781 229
-4.2266 7.042999999999999 -0.09519999999999999 6
-13.960899999999999 23.2656 4.7773 182
-3.8651999999999997 6.4922 -1.3252000000000002 63
-3.9238 6.5898 -1.1631 195
-3.873 6.5039 -0.9682999999999999 37
-3.8711 6.5 -0.7905 34
-14.156199999999998 23.7656 2.2559 58
-3.9062 6.5586 -0.6201 214
-16.0625 26.9688 3.2949 88
-15.1328 25.4062 3.7988 139
-13.773399999999999 23.1406 4.1016 49
-13.9531 23.4375 4.8008 156
-3.8438 6.5078 -1.3252000000000002 226
-3.9219 6.640599999999999 -1.1699 39
-4.0781 6.9062 -1.0264 72
-14.0703 23.8281 1.6074000000000002 159
-4.0898 6.925800000000001 -0.8408 123
-3.8964999999999996 6.5977 -0.6221 115
-15.531199999999998 26.2969 3.2051 129
-15.4453 26.1562 3.9004000000000003 44
-13.523399999999999 22.8906 4.0469 115
-4.5664 7.734400000000001 -0.1041 36
-15.0781 25.5312 5.2188 78
-3.8202999999999996 6.519500000000001 -1.3252000000000002 20
-4.0664 6.9414 -1.2207 151
-14.1094 24.0781 0.9727 65
-4.1211 7.0312 -1.043 252
-14.0703 24.0156 1.6172 89
-4.1836 7.140599999999999 -0.8652 227
-14.085899999999999 24.0469 2.2715 13
-4.1523 7.0859000000000005 -0.667 138
-15.414100000000001 26.2969 3.1992000000000003 223
-4.2109 7.1836 -0.4819 165
-13.7656 23.5 3.498 30
-4.2891 7.3164 -0.2944 22
-13.460899999999999 22.9688 4.0508 154
-4.6953 8.0156 -0.10769999999999999 77
-13.468800000000002 22.9844 4.6875 8
-3.7969 6.5312 -1.3241999999999998 233
-4.3242 7.4375 -1.3056999999999999 204
-4.9531 8.5156 -1.2617 227
-14.0781 24.2031 1.6269999999999998 241
-4.2266 7.269500000000001 -0.8794 81
-14.0547 24.1719 2.2812 105
-4.1836 7.1914 -0.6758 211
-15.3594 26.4062 3.207 219
-4.1875 7.199199999999999 -0.4819 9
-13.6953 23.5469 3.498 155
-13.3125 22.8906 4.0312 185
-5.0664 8.7109 -0.11699999999999999 84
-13.4375 23.1094 4.707 110
-3.7656 6.5234000000000005 -1.3213 125
-4.3008 7.449199999999999 -1.3056999999999999 156
-5.4648 9.4688 0.3801 0
-4.9102 8.5078 -1.2578 37
-14.0703 24.3906 1.6357 171
-4.3477 7.5312 -0.7065 43
-15.5078 26.875 3.2558999999999996 211
-14.6094 25.3125 3.7539 145
-13.25 22.9531 4.0352 44
-5.1640999999999995 8.9531 -0.1199 186
-13.085899999999999 22.6719 4.6094 115
-3.7363 6.5352 -1.3203 82
-4.2773 7.480499999999999 -1.3075999999999999 176
-4.875 8.5312 -1.2588 77
-14.718800000000002 25.75 2.418 73
-4.5742 8.0 -0.7490000000000001 11
-15.3828 26.9062 3.252 38
-14.4844 25.3281 3.748 56
-4.6719 8.1719 -0.32689999999999997 62
-13.6094 23.7969 4.1719 212
-5.136699999999999 8.9844 -0.1201 191
-13.031199999999998 22.7969 4.6211 126
-3.7108999999999996 6.546900000000001 -1.3193000000000001 189
-4.2344 7.4648 -1.3027000000000002 129
-4.8516 8.5625 -1.2607 175
-5.3398 9.4219 -1.1338 48
-14.585899999999999 25.7188 2.4121 185
-5.1523 9.0859 -0.8495999999999999 182
-14.9375 26.3438 3.1776999999999997 67
-14.5 25.5781 3.7773000000000003 38
-13.5156 23.8281 4.1719 136
-13.4922 23.7969 4.8164 43
-3.6895 6.5547 -1.3193000000000001 244
-4.2188 7.4922 -1.3047 140
-4.8203 8.5625 -1.2578 184
-33.2812 59.0938 3.9433999999999996 100
-5.3125 9.4375 -1.1338 38
-14.5703 25.8906 2.4219 136
-5.2422 9.3125 -0.8695999999999999 124
-14.875 26.4219 3.1816000000000004 139
-14.414100000000001 25.5938 3.7733999999999996 175
-13.351600000000001 23.7188 4.1445 238
-12.9219 22.9531 4.6367 142
-3.6757999999999997 6.582000000000001 -1.3213 227
-4.1719 7.4688 -1.2978999999999998 133
-4.7852 8.5625 -1.2559 54
-33.0625 59.1562 3.9395 93
-5.2812 9.4531 -1.1338 23
-14.6328 26.1875 2.4473 81
-5.238300000000001 9.3828 -0.8740000000000001 144
-8.8438 15.835899999999999 -1.0527 56
-14.289100000000001 25.5781 3.7617000000000003 226
-12.3203 22.0469 -0.8798999999999999 249
-13.1953 23.625 4.1211 14
-12.843800000000002 23.0 4.6367 253
-3.6406 6.578099999999999 -1.3184 202
-4.1523 7.5 -1.3008000000000002 94
-4.75 8.5781 -1.2559 159
-32.75 59.125 3.9297000000000004 137
-5.6914 10.281199999999998 -1.2305 78
-14.523399999999999 26.2344 2.4453 246
-6.980499999999999 12.6094 -1.1738 95
-14.1406 25.5469 3.0645 244
-8.7969 15.8906 -1.0537 49
-14.1406 25.5312 3.75 113
-13.210899999999999 23.8594 4.1523 171
-4.9805 8.9922 -0.1193 144
-13.7422 24.8125 4.9961 11
-3.6151999999999997 6.582000000000001 -1.3163999999999998 56
-4.125 7.5078 -1.2997999999999998 197
-4.7188 8.5938 -1.2549 40
-32.4688 59.125 3.9219 205
-5.640599999999999 10.273399999999999 -1.2275 24
-14.476600000000001 26.3594 2.4531 13
-6.8984000000000005 12.5625 -1.167 224
-14.1719 25.8125 3.0898000000000003 93
-8.7266 15.8906 -1.0518 147
-14.0156 25.5156 3.7401999999999997 92
-13.0703 23.8125 4.1367 83
-4.9297 8.9766 -0.1188 140
-13.1406 23.9375 4.8086 152
-3.5898000000000003 6.5938 -1.3163999999999998 222
-4.1016 7.5352 -1.3018 171
-4.6836 8.6016 -1.2549 141
-32.1875 59.0938 3.9120999999999997 86
-5.5977 10.281199999999998 -1.2256 227
-6.8477 12.5703 -1.166 234
-8.6719 15.9297 -1.0527 130
-13.8047 25.3438 3.707 13
-12.0781 22.1719 -0.8798999999999999 59
-13.0078 23.8906 4.1406 178
-13.031199999999998 23.9375 4.7969 142
-3.5781 6.625 -1.3203 195
-4.0664 7.5312 -1.2988 37
-4.6523 8.6094 -1.2539 153
-31.9062 59.0938 3.9043 152
-5.5625 10.2969 -1.2256 104
-6.7890999999999995 12.5703 -1.1631 79
-14.1719 26.25 3.1308999999999996 122
-8.6172 15.960899999999999 -1.0527 42
-13.7344 25.4219 3.7129000000000003 142
-12.9375 23.9531 4.1445 71
-12.9375 23.9688 4.793 156
-3.5586 6.640599999999999 -1.3213 243
-4.0312 7.5234000000000005 -1.2949000000000002 127
-4.625 8.6328 -1.2539 176
-31.6406 59.0625 3.8945 48
-5.5234000000000005 10.3125 -1.2246 239
-14.656199999999998 27.3594 2.5312 68
-6.7461 12.593800000000002 -1.1631 248
-13.5703 25.3281 3.0156 209
-8.5703 16.0 -1.0527 4
-13.6953 25.5625 3.7245999999999997 147
-13.8672 25.875 4.4727 18
-3.5254000000000003 6.6328 -1.3174000000000001 203
-4.0078 7.5390999999999995 -1.2959 58
-4.5898 8.6328 -1.2529000000000001 146
-31.375 59.0312 3.8867000000000003 45
-5.4922 10.335899999999999 -1.2256 30
-14.6172 27.5156 2.541 132
-6.7109000000000005 12.625 -1.1641 35
-13.539100000000001 25.4844 3.0273000000000003 139
-8.5156 16.0156 -1.0527 87
-13.8203 26.0 3.7832 210
-13.648399999999999 25.6719 4.4258 13
-12.9531 24.375 -0.322 128
-3.5 6.640599999999999 -1.3163999999999998 119
-3.9785000000000004 7.550800000000001 -1.2949000000000002 143
-4.5625 8.6562 -1.2539 199
-31.1094 59.0312 3.8789 149
-5.449199999999999 10.343800000000002 -1.2246 75
-6.667999999999999 12.648399999999999 -1.1641 82
-13.773399999999999 26.1406 3.1016000000000004 192
-8.4453 16.0312 -1.0518 58
-13.6172 25.8281 3.752 162
-13.4297 25.4844 4.3867 14
-12.851600000000001 24.3906 -0.3215 94
-13.0156 24.7031 4.9141 15
-3.4805 6.6562 -1.3174000000000001 225
-3.9473000000000003 7.550800000000001 -1.2930000000000001 60
-4.5273 8.6562 -1.251 112
-30.8438 59.0 3.8711 190
-5.4102 10.343800000000002 -1.2227 134
-6.6289 12.6797 -1.165 89
-13.835899999999999 26.4688 3.1348000000000003 68
-8.3906 16.0469 -1.0508 201
-13.625 26.0625 3.7773000000000003 125
-13.2969 25.4375 4.3711 242
-12.726600000000001 24.3438 -0.32030000000000003 85
-3.4608999999999996 6.6797 -1.3193000000000001 38
-3.9238 7.5703 -1.2938999999999998 61
-4.5 8.6875 -1.2529000000000001 153
-30.5938 59.0625 3.8672000000000004 228
-5.3711 10.3594 -1.2217 196
-6.5586 12.656199999999998 -1.1602 97
-13.6797 26.4062 3.1211 77
-8.3359 16.0938 -1.0518 123
-13.4922 26.0312 3.7676 136
-12.9531 25.0 4.2891 226
-12.601600000000001 24.3281 -0.3196 172
-13.398399999999999 25.8594 5.1289 156
-3.4395 6.6953 -1.3193000000000001 57
-3.8906 7.574199999999999 -1.2919999999999998 193
-4.4648 8.6875 -1.251 239
-30.3281 59.0312 3.8594 149
-5.324199999999999 10.3672 -1.2197 134
-6.5039 12.664100000000001 -1.1592 217
-12.8906 25.0938 2.9589999999999996 225
-8.2969 16.1562 -1.0537 208
-13.4453 26.1719 3.7793 21
-12.9531 25.2188 4.3164 204
-12.5469 24.4219 -0.32030000000000003 153
-13.2969 25.8906 5.125 193
-3.4004000000000003 6.6797 -1.3144999999999998 203
-3.8651999999999997 7.5898 -1.2919999999999998 121
-4.4297 8.6953 -1.25 189
-30.0469 59.0 3.8495999999999997 247
-5.2890999999999995 10.3828 -1.2207 226
-6.4648 12.6953 -1.1602 71
-12.851600000000001 25.2344 2.9707 30
-8.2109 16.125 -1.0498 195
-13.1172 25.75 3.7129000000000003 101
-12.8281 25.1875 4.3047 20
-13.2031 25.9375 5.125 172
-3.377 6.6875 -1.3135 49
-3.8379000000000003 7.6015999999999995 -1.2919999999999998 226
-4.4023 8.7188 -1.25 155
-29.8281 59.0625 3.8476999999999997 42
-5.25 10.398399999999999 -1.2197 160
-6.417999999999999 12.710899999999999 -1.1592 7
-13.5078 26.7656 3.1464999999999996 8
-8.1562 16.1562 -1.0498 137
-13.226600000000001 26.1875 3.7695 139
-12.781199999999998 25.3125 4.3164 187
-12.4844 24.7344 -0.32299999999999995 85
-13.148399999999999 26.0312 5.136699999999999 131
-3.3495999999999997 6.6914 -1.3125 146
-3.8007999999999997 7.5938 -1.2881 166
-4.3828 8.7578 -1.2549 29
-29.5781 59.0625 3.8418 159
-5.199199999999999 10.3906 -1.2168 254
-6.363300000000001 12.718800000000002 -1.1582 1
-12.5078 24.9844 2.9316000000000004 19
-8.1016 16.1719 -1.0498 189
-12.6172 25.2031 3.6211 41
-12.710899999999999 25.4062 4.3242 51
-12.9844 25.9375 5.1055 83
-3.3339999999999996 6.7188 -1.3154 1
-3.7733999999999996 7.6015999999999995 -1.2881 200
-4.3516 8.7656 -1.2539 142
-29.2812 59.0312 3.8301 207
-5.1640999999999995 10.406199999999998 -1.2168 72
-6.3086 12.718800000000002 -1.1562000000000001 106
-13.3672 26.9375 3.1562 187
-8.0469 16.2188 -1.0508 81
-12.7656 25.7188 3.6875 173
-12.5703 25.3281 4.3047 219
-12.968800000000002 26.125 5.136699999999999 60
-3.3105 6.7265999999999995 -1.3144999999999998 50
-3.7461 7.613300000000001 -1.2871000000000001 179
-4.3164 8.7734 -1.2529000000000001 169
-29.0312 59.0 3.8242000000000003 48
-5.125 10.4219 -1.2158 172
-6.265599999999999 12.7344 -1.1553 6
-12.648399999999999 25.7031 3.0077999999999996 213
-7.980499999999999 16.2188 -1.0488 211
-12.4531 25.2969 3.6211 148
-11.648399999999999 23.6719 -0.9194 37
-12.2969 24.9844 4.2383 204
-3.2870999999999997 6.738300000000001 -1.3144999999999998 0
-3.7266000000000004 7.636699999999999 -1.2891 195
-4.2852 8.7812 -1.251 235
-28.7812 58.9688 3.8145 49
-5.1016 10.4531 -1.2178 153
-6.2188 12.7422 -1.1543 42
-12.468800000000002 25.5625 2.9844 111
-7.917999999999999 16.2344 -1.0479 40
-12.523399999999999 25.6719 3.668 18
-12.289100000000001 25.1875 4.2695 34
-3.2617000000000003 6.75 -1.3144999999999998 92
-3.6992000000000003 7.6523 -1.29 77
-4.2539 8.8047 -1.252 246
-28.5312 59.0312 3.8125 120
-5.0508 10.4453 -1.2148 177
-12.1719 25.1875 2.2812 153
-6.171900000000001 12.7656 -1.1543 0
-12.4844 25.8281 3.0098000000000003 92
-7.8515999999999995 16.25 -1.0469 215
-12.3672 25.5781 3.6483999999999996 198
-12.2422 25.3125 4.9492 139
-3.2363 6.7539 -1.3135 60
-3.668 7.6562 -1.2881 34
-4.2227 8.8125 -1.252 168
-28.2656 59.0 3.8047000000000004 103
-5.0039 10.4453 -1.2129 58
-12.0625 25.1719 2.2773 41
-6.1172 12.773399999999999 -1.1533 208
-13.0 27.125 3.1562 254
-7.8125 16.3125 -1.0498 179
-12.25 25.5781 3.6426 174
-12.375 25.8438 4.3633 244
-12.164100000000001 25.3906 4.957 109
-3.2148000000000003 6.769500000000001 -1.3144999999999998 138
-3.627 7.640599999999999 -1.2832 46
-4.1914 8.8281 -1.251 176
-28.0 58.9688 3.7969 163
-4.9688 10.460899999999999 -1.2129 191
-11.9453 25.1562 2.2715 253
-6.0664 12.781199999999998 -1.1514 138
-12.898399999999999 27.1719 3.1562 20
-7.7539 16.3281 -1.0488 247
-12.1094 25.5 3.627 198
-12.093800000000002 25.4688 4.9648 98
-3.1914 6.7812 -1.3144999999999998 35
-3.6094 7.667999999999999 -1.2861000000000002 3
-4.1562 8.8359 -1.25 69
-27.75 58.9688 3.7891000000000004 144
-4.9336 10.4844 -1.2129 74
-11.843800000000002 25.1719 2.2695 160
-6.011699999999999 12.773399999999999 -1.1494 64
-12.125 25.7656 2.9882999999999997 185
-7.6953 16.3594 -1.0488 98
-12.0 25.5156 3.6211 102
-11.1328 23.6719 -0.9116 15
-12.1875 25.9062 4.3594 113
-3.1601999999999997 6.7812 -1.3115 37
-3.582 7.6875 -1.2861000000000002 178
-4.1172 8.8281 -1.248 222
-27.4688 58.9375 3.7812 204
-4.8906 10.4922 -1.2119 141
-5.9648 12.7969 -1.1494 193
-12.085899999999999 25.9375 3.002 126
-7.613300000000001 16.3438 -1.0459 101
-11.8203 25.3594 3.5938 37
-11.0547 23.7188 -0.9120999999999999 30
-12.0469 25.8438 4.3438 12
-3.1348000000000003 6.7852 -1.3105000000000002 52
-3.5547000000000004 7.699199999999999 -1.2861000000000002 125
-4.0977 8.8672 -1.251 19
-27.2344 58.9688 3.7773000000000003 199
-4.8398 10.4844 -1.209 47
-5.9102 12.7969 -1.1475 237
-7.5547 16.3594 -1.0459 214
-11.773399999999999 25.4844 3.6055 143
-10.968800000000002 23.75 -0.9116 174
-12.0703 26.125 4.3828 6
-3.1113 6.792999999999999 -1.3105000000000002 1
-3.5254000000000003 7.699199999999999 -1.2852000000000001 250
-4.0586 8.8594 -1.248 29
-27.0 58.9688 3.7695 99
-4.8008 10.4844 -1.207 255
-5.863300000000001 12.8047 -1.1465 69
-11.8594 25.9062 2.9901999999999997 14
-7.5078 16.4062 -1.0469 177
-11.781199999999998 25.7344 3.6348000000000003 93
-10.843800000000002 23.6875 -0.9081999999999999 126
-11.960899999999999 26.1094 4.375 51
-3.0938 6.8164 -1.3125 104
-3.4922000000000004 7.6953 -1.2822 109
-4.0195 8.8594 -1.2461 47
-12.8828 28.375 1.8105000000000002 225
-4.7656 10.5 -1.207 134
-5.8164 12.8203 -1.1465 78
-7.4453 16.4062 -1.0459 172
-11.7031 25.7812 3.6367000000000003 69
-10.781199999999998 23.7656 -0.9097 210
-11.851600000000001 26.1094 4.3672 58
-3.0664 6.824199999999999 -1.3115 253
-12.7344 28.3438 0.3625 31
-3.4707 7.7227 -1.2852000000000001 132
-12.7344 28.3281 1.083 21
-3.9922000000000004 8.8828 -1.2470999999999999 31
-12.726600000000001 28.3281 1.8037 34
-4.7305 10.531199999999998 -1.209 18
-5.761699999999999 12.8203 -1.1445 43
-36.7812 81.8125 9.4219 46
-7.3789 16.4219 -1.0449 222
-11.7031 26.0312 3.6660000000000004 23
-10.664100000000001 23.7188 -0.9062 55
-11.718800000000002 26.0781 4.3516 76
-12.7422 28.3594 -0.3625 70
-3.0351999999999997 6.8164 -1.3086000000000002 8
-3.4531 7.7578 -1.2881 59
-3.9551 8.8828 -1.2451 28
-12.6328 28.375 1.8047 249
-4.6875 10.523399999999999 -1.2061 28
-5.7148 12.835899999999999 -1.1436 106
-7.3164 16.4375 -1.0439 166
-11.7578 26.4062 3.7129000000000003 227
-10.5781 23.7656 -0.9067000000000001 73
-11.593800000000002 26.0469 4.3398 6
-3.0137 6.832000000000001 -1.3096 41
-3.4257999999999997 7.765599999999999 -1.2881 94
-3.9199 8.8828 -1.2431999999999999 75
-26.0 58.9062 3.7441000000000004 41
-4.6445 10.523399999999999 -1.2041 33
-5.6562 12.8203 -1.1406 184
-7.2578 16.4531 -1.043 55
-10.4922 23.7812 -0.9057999999999999 83
-11.4844 26.0312 4.332 200
-2.9922000000000004 6.8398 -1.3096 222
-3.3867000000000003 7.7461 -1.2822 16
-3.8964999999999996 8.9062 -1.2451 169
-25.7812 58.9375 3.7401999999999997 131
-4.6172 10.5625 -1.207 205
-5.625 12.8594 -1.1426 190
-7.1914 16.4375 -1.041 227
-10.3906 23.7656 -0.9037999999999999 243
-10.5625 24.1562 4.0156 120
-2.9648000000000003 6.8515999999999995 -1.3096 0
-3.3555 7.7539 -1.2822 202
-3.8613 8.9219 -1.2451 148
-25.4844 58.9062 3.7305 8
-4.5625 10.539100000000001 -1.2021 14
-5.578099999999999 12.8828 -1.1436 3
-7.1484000000000005 16.5156 -1.0449 146
-10.289100000000001 23.7656 -0.9028 77
-2.9375 6.8515999999999995 -1.3066 100
-3.332 7.7734000000000005 -1.2832 4
-10.4219 24.3281 0.9224 41
-3.8164 8.9062 -1.2412 215
-10.4453 24.3594 1.54 10
-4.5273 10.5625 -1.2031 177
-5.5 12.8281 -1.1367 169
-7.074199999999999 16.5 -1.042 43
-10.414100000000001 24.2969 3.3945 26
-10.1875 23.7656 -0.9009 65
-10.4297 24.3438 -0.30879999999999996 208
-2.9199 6.875 -1.3096 170
-10.375 24.4219 0.3096 27
-3.3125 7.796900000000001 -1.2852000000000001 104
-10.335899999999999 24.3438 0.9218999999999999 202
-3.7870999999999997 8.9219 -1.2412 148
-10.335899999999999 24.3438 1.5361000000000002 70
-4.4961 10.585899999999999 -1.2041 132
-5.4648 12.875 -1.1387 52
-7.011699999999999 16.5156 -1.041 176
-10.3125 24.2812 3.3867000000000003 168
-10.1094 23.7969 -0.9009 116
-10.343800000000002 24.3594 -0.3086 189
-2.8887 6.863300000000001 -1.3056999999999999 88
-3.2870999999999997 7.8125 -1.2861000000000002 115
-10.273399999999999 24.4062 0.9233 244
-3.7598000000000003 8.9297 -1.2412 198
-10.273399999999999 24.4219 1.5391 60
-4.4492 10.5781 -1.2012 113
-5.421900000000001 12.8828 -1.1377 204
-6.953099999999999 16.5312 -1.041 23
-10.0 23.7656 -0.8984000000000001 83
-10.2969 24.4688 -0.3096 150
-10.2422 24.3438 4.6523 185
-2.8651999999999997 6.8828 -1.3066 184
-3.248 7.800800000000001 -1.2822 225
-3.7285000000000004 8.9531 -1.2422 145
-24.5469 58.9375 3.7108999999999996 13
-4.4102 10.585899999999999 -1.2012 95
-5.375 12.906199999999998 -1.1387 44
-6.886699999999999 16.5312 -1.04 163
-11.7656 28.25 3.9297000000000004 42
-9.9141 23.7969 -0.8984000000000001 126
-11.75 28.2031 4.6523 251
-10.2344 24.5781 4.6875 48
-2.8457 6.8984000000000005 -1.3086000000000002 177
-3.2168 7.8047 -1.2803 110
-3.6952999999999996 8.9609 -1.2412 236
-11.718800000000002 28.4219 1.7861000000000002 187
-4.375 10.6172 -1.2021 230
-11.6719 28.2969 2.498 122
-5.3203 12.906199999999998 -1.1367 31
-6.832000000000001 16.5625 -1.04 153
-11.656199999999998 28.2656 3.9276999999999997 29
-9.8125 23.7969 -0.897 141
-11.6406 28.2344 4.6484 38
-2.8202999999999996 6.9062 -1.3086000000000002 60
-3.1914 7.8125 -1.2803 28
-3.6562 8.9531 -1.2393 70
-4.3359 10.6172 -1.2012 187
-11.585899999999999 28.375 2.5 209
-5.2734000000000005 12.914100000000001 -1.1357 26
-6.761699999999999 16.5625 -1.0381 64
-9.9688 24.4219 3.3867000000000003 74
-9.7344 23.8438 -0.8975 83
-11.5469 28.2656 4.6484 207
-14.273399999999999 34.9375 -0.4407 176
-2.793 6.9102 -1.3066 117
-3.1699 7.8438 -1.2832 169
-3.6191000000000004 8.9531 -1.2373 91
-9.9219 24.5469 1.5371000000000001 30
-4.2969 10.6328 -1.2002 146
-11.4922 28.4219 2.502 155
-5.2265999999999995 12.9297 -1.1357 11
-6.7188 16.625 -1.04 114
-9.6406 23.8594 -0.8965000000000001 55
-11.4531 28.3281 4.6523 201
-2.7676 6.9140999999999995 -1.3056999999999999 242
-3.1426 7.8515999999999995 -1.2832 188
-3.5858999999999996 8.9609 -1.2363 159
-9.8516 24.625 1.541 34
-4.2578 10.6406 -1.2002 81
-11.398399999999999 28.5 2.5039 229
-5.1797 12.9375 -1.1348 102
-6.6328 16.5781 -1.0361 173
-9.5547 23.875 -0.8959999999999999 62
-11.3672 28.4062 4.6602 47
-2.748 6.9375 -1.3086000000000002 231
-3.1151999999999997 7.8672 -1.2832 162
-3.5547000000000004 8.9766 -1.2363 224
-11.335899999999999 28.625 1.7881 184
-4.2109 10.6328 -1.1973 41
-11.3125 28.5625 2.5059 35
-5.1484000000000005 12.9922 -1.1377 50
-6.5703 16.5781 -1.0352 98
-11.273399999999999 28.4688 3.9316000000000004 207
-9.4688 23.9062 -0.8965000000000001 192
-11.273399999999999 28.4688 4.6602 199
-2.7226999999999997 6.9375 -1.3066 222
-3.0879000000000003 7.8672 -1.2822 171
-3.5254000000000003 8.9844 -1.2363 177
-11.2578 28.6875 1.79 173
-4.1836 10.656199999999998 -1.1992 175
-11.226600000000001 28.5938 2.5059 217
-5.0898 12.960899999999999 -1.1338 99
-6.515599999999999 16.5938 -1.0352 206
-11.1953 28.5156 3.9355 224
-9.3906 23.9219 -0.8955 38
-11.1875 28.5 4.6641 170
-11.335899999999999 28.8906 -0.36210000000000003 188
-2.7089999999999996 6.9688 -1.3105000000000002 43
-3.0586 7.8711 -1.2812000000000001 239
-3.4941000000000004 8.9922 -1.2354 91
-11.1719 28.7344 1.791 254
-4.1406 10.656199999999998 -1.1963 178
-11.148399999999999 28.6719 2.5098 253
-5.0391 12.960899999999999 -1.1318000000000001 168
-6.4609000000000005 16.625 -1.0352 81
-11.1094 28.5781 3.9395 18
-9.3203 23.9688 -0.8965000000000001 202
-11.101600000000001 28.5625 4.668 177
-2.6738 6.957000000000001 -1.3066 231
-3.0293 7.8828 -1.2812000000000001 210
-22.6094 58.8438 2.1992 75
-3.4551 8.9922 -1.2334 184
-11.0703 28.7969 1.7930000000000001 14
-4.1055 10.6797 -1.1982 50
-11.031199999999998 28.7188 2.5098 134
-4.9766 12.9531 -1.1299 200
-6.3828 16.6094 -1.0332 84
-11.0078 28.6406 3.9414 0
-9.2344 24.0156 -0.897 15
-11.0 28.625 4.668 78
-2.6504000000000003 6.9688 -1.3066 238
-3.0077999999999996 7.9062 -1.2832 136
-3.4257999999999997 9.0078 -1.2344 184
-10.968800000000002 28.8594 1.7938999999999998 234
-4.0625 10.6797 -1.1963 78
-10.9453 28.7969 2.5117 163
-4.9414 12.9922 -1.1318000000000001 137
-6.3203 16.625 -1.0322 245
-10.914100000000001 28.7031 3.9452999999999996 54
-9.1484 24.0469 -0.8965000000000001 154
-10.906199999999998 28.6719 4.6719 180
-9.7812 25.7344 -0.321 155
-2.623 6.9727 -1.3056999999999999 89
-2.9745999999999997 7.9102 -1.2822 163
-22.1406 58.875 2.1953 61
-3.3945 9.0234 -1.2354 89
-10.875 28.9219 1.7949000000000002 142
-4.0156 10.6719 -1.1943000000000001 234
-10.851600000000001 28.8438 2.5137 235
-4.8867 13.0 -1.1309 38
-6.2578 16.6406 -1.0312000000000001 18
-10.8125 28.75 3.9473000000000003 158
-9.0625 24.0938 -0.8975 146
-10.8125 28.75 4.6758 110
-9.6953 25.7812 -0.321 63
-2.6055 7.0 -1.3096 230
-9.5938 25.7812 0.3208 15
-2.9375 7.894500000000001 -1.2783 255
-9.7109 26.1094 0.9706999999999999 210
-3.3613 9.0312 -1.2344 50
-10.789100000000001 29.0 1.7978999999999998 4
-3.9745999999999997 10.6797 -1.1934 204
-10.75 28.8906 2.5137 109
-4.8398 13.0 -1.1299 234
-6.1953 16.6562 -1.0312000000000001 77
-10.7344 28.8594 3.9551 158
-8.9844 24.1406 -0.8975 46
-9.7656 26.25 -0.3267 18
-2.5781 7.0 -1.3086000000000002 105
-9.5234 25.8594 0.32130000000000003 216
-2.9120999999999997 7.9062 -1.2783 96
-9.6172 26.1094 0.9697 11
-3.3242000000000003 9.0234 -1.2314 34
-10.7031 29.0625 1.7988 239
-3.9355 10.6875 -1.1924 48
-21.6094 58.6875 5.1055 213
-4.7852 13.0 -1.1279000000000001 25
-6.136699999999999 16.6719 -1.0303 15
-8.9219 24.2344 -0.8998999999999999 28
-9.5234 25.8438 -0.32130000000000003 40
-2.5527 7.0 -1.3066 250
-9.5 26.0625 0.3235 144
-2.8867000000000003 7.917999999999999 -1.2783 227
-3.2910000000000004 9.0312 -1.2305 66
-21.4375 58.7812 3.6387 138
-3.9062 10.718800000000002 -1.1943000000000001 34
-21.3906 58.6875 5.0977 154
-4.7344 12.9922 -1.126 152
-6.0625 16.6406 -1.0273 27
-8.875 24.3594 -0.9033 52
-9.5 26.0625 -0.3235 108
-2.5215 6.9961 -1.3037 108
-9.4297 26.1562 0.32420000000000004 41
-2.8632999999999997 7.9414 -1.2803 159
-3.2656 9.0547 -1.2324 164
-3.8555 10.6953 -1.1904000000000001 39
-21.1562 58.6562 5.0898 246
-4.6992 13.039100000000001 -1.1279000000000001 61
-6.0039 16.6406 -1.0273 223
-8.8125 24.4375 -0.9053 134
-10.718800000000002 29.7188 4.8086 169
-2.5 7.0078 -1.3047 118
-2.8281 7.925800000000001 -1.2773 4
-21.0156 58.875 2.1816 73
