# .PCD v0.7 - Point Cloud Data file format
VERSION 0.7
FIELDS x y z intensity
SIZE 4 4 4 4
TYPE F F F F
COUNT 1 1 1 1
WIDTH 1296
HEIGHT 1
VIEWPOINT 0 0 0 1 0 0 0
POINTS 1296
DATA ascii
12.6875 2.6151999999999997 0.7509999999999999 81
12.6797 2.6151999999999997 -1.3563999999999998 227
12.6719 2.6132999999999997 1.0537 191
12.664100000000001 2.6113 -1.0527 67
12.6094 2.5995999999999997 1.3486000000000002 18
12.656199999999998 2.6094 -0.7495 165
12.5703 2.5918 1.6455000000000002 138
12.664100000000001 2.6113 -0.4497 8
12.656199999999998 2.6094 1.9638999999999998 218
12.6719 2.6132999999999997 -0.15039999999999998 40
12.656199999999998 2.6094 2.2715 5
8.9688 1.8174000000000001 -1.6055000000000001 16
12.6719 2.5683999999999996 0.1503 161
10.0938 2.0449 -1.5635 235
12.656199999999998 2.5664 0.44920000000000004 35
11.601600000000001 2.3516 -1.5175999999999998 151
12.6797 2.5702999999999996 0.75 199
12.6797 2.5702999999999996 -1.3555000000000001 189
12.656199999999998 2.5664 1.0518 44
12.656199999999998 2.5664 -1.0508 108
12.601600000000001 2.5547 1.3466999999999998 134
12.664100000000001 2.5683999999999996 -0.7490000000000001 160
12.5781 2.5488 1.6455000000000002 252
12.664100000000001 2.5664 -0.4495 8
12.648399999999999 2.5645 1.9609 112
12.664100000000001 2.5683999999999996 -0.1503 250
12.664100000000001 2.5664 2.2715 56
8.9688 1.7841999999999998 -1.6055000000000001 158
12.6875 2.5234 0.15039999999999998 36
10.0938 2.0078 -1.5635 123
12.6719 2.5215 0.4495 193
11.6094 2.3086 -1.5175999999999998 165
12.6719 2.5195 0.7490000000000001 194
12.6875 2.5234 -1.3544999999999998 205
12.6797 2.5215 1.0527 110
12.664100000000001 2.5195 -1.0508 39
12.593800000000002 2.5039 1.3447 45
12.656199999999998 2.5176 -0.748 91
12.5703 2.502 1.6436000000000002 124
12.664100000000001 2.5195 -0.44920000000000004 170
12.648399999999999 2.5156 1.96 225
12.656199999999998 2.5176 -0.15 97
12.648399999999999 2.5156 2.2656 79
8.9844 1.7538999999999998 -1.6063999999999998 190
12.664100000000001 2.4746 0.15 179
10.1172 1.9746000000000001 -1.5644999999999998 78
12.6719 2.4746 0.44920000000000004 145
11.6328 2.2715 -1.5194999999999999 218
12.664100000000001 2.4727 0.748 235
12.6719 2.4746 -1.3525 178
12.6797 2.4766 1.0518 73
12.664100000000001 2.4746 -1.0508 229
12.585899999999999 2.457 1.3428 187
12.664100000000001 2.4727 -0.748 48
12.5625 2.4531 1.6416 79
12.6797 2.4766 -0.4495 131
12.664100000000001 2.4727 1.9609 0
12.664100000000001 2.4727 -0.15 189
12.6406 2.4688 2.2637 70
9.0 1.7246000000000001 -1.6084 153
12.664100000000001 2.4258 0.1499 4
10.125 1.9404 -1.5654 84
12.6797 2.4297 0.449 228
11.6406 2.2305 -1.5194999999999999 195
12.664100000000001 2.4277 0.7476 94
12.6719 2.4277 -1.3516 95
12.656199999999998 2.4258 1.0488 42
12.6719 2.4297 -1.0508 72
12.601600000000001 2.4141 1.3437999999999999 9
12.664100000000001 2.4277 -0.7476 240
12.5547 2.4062 1.6387 199
12.664100000000001 2.4277 -0.4485 201
12.664100000000001 2.4258 1.959 9
12.6719 2.4277 -0.15 110
12.648399999999999 2.4238 2.2637 85
9.0078 1.6934 -1.6084 60
12.6797 2.3848 0.1499 138
10.125 1.9033000000000002 -1.5644999999999998 182
12.664100000000001 2.3809 0.4482 87
11.664100000000001 2.1934 -1.5215 250
12.6797 2.3828 0.7476 237
12.664100000000001 2.3828 -1.3496000000000001 131
12.648399999999999 2.3789 1.0479 191
12.664100000000001 2.3809 -1.0488 72
12.593800000000002 2.3691 1.3428 88
12.656199999999998 2.3809 -0.7465999999999999 37
12.5625 2.3633 1.6387 248
12.664100000000001 2.3828 -0.4482 200
12.648399999999999 2.3789 1.9561000000000002 198
12.664100000000001 2.3809 -0.14980000000000002 185
12.6406 2.377 2.2598 154
9.0078 1.6611000000000002 -1.6074000000000002 101
12.6719 2.3379 0.14980000000000002 191
10.1484 1.8711000000000002 -1.5663999999999998 10
12.656199999999998 2.334 0.44780000000000003 80
11.664100000000001 2.1504 -1.5205000000000002 24
12.6797 2.3379 0.7476 113
12.6719 2.3379 -1.3496000000000001 75
12.656199999999998 2.334 1.0479 250
12.656199999999998 2.334 -1.0479 142
12.585899999999999 2.3223 1.3408000000000002 47
12.6719 2.3359 -0.7471 76
12.5781 2.3203 1.6396000000000002 158
12.664100000000001 2.3359 -0.44780000000000003 24
12.648399999999999 2.332 1.9541 19
12.648399999999999 2.334 -0.1495 154
12.656199999999998 2.334 2.2617 155
9.0078 1.6288999999999998 -1.6063999999999998 38
12.6719 2.291 0.1497 94
10.1641 1.8378999999999999 -1.5684 218
12.664100000000001 2.291 0.44780000000000003 236
11.6797 2.1113 -1.5215 11
12.6719 2.291 0.7465999999999999 180
12.6875 2.293 -1.3506 154
12.664100000000001 2.2891 1.0479 175
12.664100000000001 2.2891 -1.0479 21
12.585899999999999 2.2754 1.3397999999999999 214
12.656199999999998 2.2891 -0.7456 4
12.5703 2.2734 1.6377000000000002 32
12.664100000000001 2.291 -0.44780000000000003 159
12.648399999999999 2.2871 1.9531 33
12.6328 2.2852 -0.1493 133
12.6406 2.2852 2.2578 82
9.0156 1.5977000000000001 -1.6063999999999998 152
12.656199999999998 2.2422 0.1494 141
10.1641 1.8018 -1.5674000000000001 186
12.664100000000001 2.2441 0.4473 31
11.7031 2.0742 -1.5234 227
12.664100000000001 2.2441 0.7456 9
12.6719 2.2461 -1.3477000000000001 15
12.664100000000001 2.2441 1.0469 25
12.664100000000001 2.2441 -1.0469 39
12.585899999999999 2.2305 1.3388999999999998 7
12.656199999999998 2.2422 -0.7451000000000001 62
12.5547 2.2246 1.6347999999999998 140
12.6719 2.2461 -0.4475 158
12.656199999999998 2.2422 1.9531 244
12.6328 2.2383 -0.1492 157
12.6406 2.2402 2.2559 153
9.0234 1.5674000000000001 -1.6074000000000002 244
12.656199999999998 2.1973 0.1493 107
10.1719 1.7656 -1.5674000000000001 119
12.6719 2.2012 0.4475 245
11.718800000000002 2.0352 -1.5244 194
12.656199999999998 2.1973 0.7445999999999999 1
12.656199999999998 2.1973 -1.3457 217
12.656199999999998 2.1973 1.0459 115
12.6719 2.1992 -1.0469 136
12.585899999999999 2.1855 1.3378999999999999 189
12.664100000000001 2.1992 -0.7451000000000001 94
12.5547 2.1797 1.6338 42
12.664100000000001 2.1992 -0.447 69
12.648399999999999 2.1973 1.9512 138
12.648399999999999 2.1953 -0.1492 167
12.648399999999999 2.1973 2.2559 194
9.0469 1.5381 -1.6103999999999998 35
12.656199999999998 2.1523 0.1493 137
10.1875 1.7324000000000002 -1.5693000000000001 120
12.656199999999998 2.1523 0.4465 155
11.7422 1.9961000000000002 -1.5263999999999998 14
12.6719 2.1543 0.7451000000000001 33
12.664100000000001 2.1523 -1.3457 46
12.648399999999999 2.1504 1.0449 229
12.664100000000001 2.1543 -1.0459 241
12.585899999999999 2.1406 1.3369 80
12.664100000000001 2.1523 -0.7445999999999999 175
12.5547 2.1348 1.6328 66
12.664100000000001 2.1523 -0.4468 48
12.648399999999999 2.1504 1.9502000000000002 69
12.656199999999998 2.1523 -0.1492 101
12.648399999999999 2.1504 2.2559 116
9.0469 1.5059 -1.6094 62
12.6719 2.1094 0.1493 82
10.2188 1.7012 -1.5732 5
12.6406 2.1055 0.4458 100
11.7422 1.9541 -1.5253999999999999 242
12.6797 2.1094 0.7451000000000001 78
12.656199999999998 2.1074 -1.3437999999999999 218
12.656199999999998 2.1055 1.0439 105
12.648399999999999 2.1055 -1.0439 6
12.5781 2.0938 1.3359 131
12.6719 2.1094 -0.7445999999999999 99
12.5625 2.0918 1.6328 70
12.664100000000001 2.1074 -0.4465 90
12.6328 2.1035 1.9463 41
12.648399999999999 2.1055 -0.149 75
12.648399999999999 2.1055 2.2539 37
9.0469 1.4756 -1.6084 246
12.6719 2.0684 0.1492 11
10.2266 1.6688999999999998 -1.5732 106
12.648399999999999 2.0645 0.4458 153
11.75 1.9180000000000001 -1.5263999999999998 118
12.664100000000001 2.0684 0.7441 28
12.6719 2.0684 -1.3457 31
12.664100000000001 2.0684 1.0449 162
12.664100000000001 2.0664 -1.0439 44
12.5703 2.0527 1.334 230
12.648399999999999 2.0645 -0.7432 127
12.5625 2.0508 1.6318000000000001 41
12.664100000000001 2.0664 -0.44630000000000003 131
12.6406 2.0625 1.9463 165
12.6328 2.0625 -0.14880000000000002 131
12.6406 2.0625 2.25 116
9.0391 1.4453 -1.6074000000000002 68
12.656199999999998 2.0215 0.1489 201
10.2422 1.6377000000000002 -1.5762 5
12.656199999999998 2.0234 0.4458 211
11.7656 1.8799000000000001 -1.5272999999999999 16
12.648399999999999 2.0215 0.7426999999999999 105
12.664100000000001 2.0234 -1.3437999999999999 107
12.6719 2.0254 1.0449 243
12.6719 2.0254 -1.0439 134
12.585899999999999 2.0117 1.335 86
12.6406 2.0195 -0.7422 56
12.5547 2.0078 1.6309 41
12.6719 2.0254 -0.44630000000000003 188
12.648399999999999 2.0215 1.9463 46
12.6406 2.0195 -0.14880000000000002 84
12.625 2.0176 2.248 144
9.0703 1.415 -1.6103999999999998 49
12.656199999999998 1.9756 0.1489 187
10.2422 1.5986000000000002 -1.5741999999999998 94
12.656199999999998 1.9746000000000001 0.44530000000000003 76
11.789100000000001 1.8397999999999999 -1.5293 137
12.656199999999998 1.9756 0.7426999999999999 117
12.656199999999998 1.9756 -1.3418 102
12.656199999999998 1.9746000000000001 1.043 22
12.664100000000001 1.9766 -1.0439 252
12.5781 1.9628999999999999 1.334 85
12.648399999999999 1.9746000000000001 -0.7422 208
12.5469 1.9580000000000002 1.6279 120
12.664100000000001 1.9766 -0.4458 113
12.656199999999998 1.9756 1.9472999999999998 30
12.648399999999999 1.9736000000000002 -0.14880000000000002 82
12.6328 1.9716999999999998 2.248 109
9.0625 1.3828 -1.6094 180
12.656199999999998 1.9297 0.14880000000000002 111
10.2422 1.5615 -1.5732 131
12.648399999999999 1.9287 0.4448 166
11.8125 1.8008000000000002 -1.5312000000000001 154
12.656199999999998 1.9306999999999999 0.7426999999999999 246
12.656199999999998 1.9297 -1.3408000000000002 141
12.648399999999999 1.9287 1.042 192
12.656199999999998 1.9297 -1.042 97
12.585899999999999 1.9188999999999998 1.3330000000000002 47
12.664100000000001 1.9306999999999999 -0.7426999999999999 196
12.5625 1.915 1.6288999999999998 30
12.648399999999999 1.9287 -0.4448 87
12.6406 1.9277000000000002 1.9434 32
12.648399999999999 1.9277000000000002 -0.1487 63
12.625 1.9258000000000002 2.2441 158
9.0859 1.3506 -1.6113 18
12.664100000000001 1.8838 0.14880000000000002 117
10.2656 1.5272999999999999 -1.5762 25
12.6406 1.8799000000000001 0.4443 211
11.8203 1.7588 -1.5322 17
12.664100000000001 1.8838 0.7426999999999999 188
12.6719 1.8838 -1.3418 142
12.6406 1.8809 1.041 45
12.648399999999999 1.8809 -1.041 98
12.5703 1.8691 1.3311000000000002 79
12.648399999999999 1.8818000000000001 -0.7417 127
12.5547 1.8681999999999999 1.6279 38
12.664100000000001 1.8838 -0.44530000000000003 138
12.625 1.8769999999999998 1.9394999999999998 46
12.6406 1.8799000000000001 -0.14859999999999998 17
12.6406 1.8799000000000001 2.2461 24
9.0781 1.3174000000000001 -1.6103999999999998 72
12.664100000000001 1.8388999999999998 0.14880000000000002 195
10.289100000000001 1.4931999999999999 -1.5791 46
12.6406 1.835 0.4443 81
11.835899999999999 1.7178 -1.5332 61
12.656199999999998 1.8369 0.7412000000000001 157
12.664100000000001 1.8388999999999998 -1.3408000000000002 132
12.656199999999998 1.8378999999999999 1.041 200
12.656199999999998 1.8369 -1.041 69
12.5703 1.8252000000000002 1.3311000000000002 23
12.6406 1.835 -0.7402 28
12.5625 1.8232 1.6269999999999998 161
12.664100000000001 1.8388999999999998 -0.4451 230
12.6328 1.834 1.9394999999999998 209
12.6328 1.834 -0.1484 3
12.625 1.8330000000000002 2.2422 92
9.0703 1.2852000000000001 -1.6084 174
12.656199999999998 1.7919999999999998 0.14859999999999998 17
10.3203 1.4609 -1.5819999999999999 80
12.648399999999999 1.791 0.4443 129
11.8672 1.6797 -1.5361000000000002 221
12.648399999999999 1.791 0.7406999999999999 12
12.656199999999998 1.7919999999999998 -1.3388999999999998 167
12.656199999999998 1.7930000000000001 1.041 124
12.656199999999998 1.7919999999999998 -1.04 119
12.5781 1.7803 1.3300999999999998 140
12.6328 1.7891 -0.7397 251
12.5469 1.7763999999999998 1.625 89
12.664100000000001 1.7938999999999998 -0.4448 42
12.6328 1.7891 1.9394999999999998 161
12.6406 1.7891 -0.1483 254
12.625 1.7871000000000001 2.2402 149
9.1016 1.2559 -1.6122999999999998 21
12.6406 1.7450999999999999 0.1483 230
10.2969 1.4219 -1.5791 67
12.656199999999998 1.7471 0.4443 177
11.8828 1.6406 -1.5381 39
12.648399999999999 1.7461000000000002 0.7402 63
12.648399999999999 1.7461000000000002 -1.3369 125
12.648399999999999 1.7461000000000002 1.0391 62
12.656199999999998 1.7471 -1.04 159
12.5781 1.7363 1.3300999999999998 147
12.6406 1.7450999999999999 -0.7397 127
12.539100000000001 1.7313999999999998 1.6230000000000002 105
12.648399999999999 1.7471 -0.4443 219
12.6406 1.7450999999999999 1.9394999999999998 237
12.6406 1.7450999999999999 -0.1483 178
12.625 1.7422 2.2402 244
9.1016 1.2266 -1.6113 254
12.656199999999998 1.7061000000000002 0.1484 69
10.3047 1.3896000000000002 -1.5791 251
12.648399999999999 1.7050999999999998 0.44380000000000003 22
11.898399999999999 1.6044999999999998 -1.5381 140
12.656199999999998 1.7061000000000002 0.7402 116
12.656199999999998 1.7061000000000002 -1.3378999999999999 135
12.6406 1.7050999999999998 1.0381 14
12.648399999999999 1.7050999999999998 -1.0391 78
12.5781 1.6953 1.3291 169
12.6406 1.7050999999999998 -0.7397 24
12.5469 1.6924000000000001 1.6230000000000002 111
12.648399999999999 1.7050999999999998 -0.44380000000000003 145
12.6328 1.7031 1.9365 207
12.648399999999999 1.7061000000000002 -0.1483 240
12.6406 1.7041 2.2422 66
9.1094 1.1973 -1.6122999999999998 175
12.656199999999998 1.6641 0.1484 46
10.3203 1.3563999999999998 -1.5800999999999998 197
12.6328 1.6611000000000002 0.4434 11
11.906199999999998 1.5654 -1.5391 137
12.648399999999999 1.6631 0.7397 190
12.664100000000001 1.665 -1.3378999999999999 127
12.648399999999999 1.6631 1.0391 13
12.6328 1.6611000000000002 -1.0371 167
12.5625 1.6513999999999998 1.3271000000000002 126
12.648399999999999 1.6621000000000001 -0.7393000000000001 131
12.5625 1.6513999999999998 1.624 72
12.664100000000001 1.665 -0.4443 65
12.625 1.6602000000000001 1.9355000000000002 43
12.6406 1.6621000000000001 -0.1482 98
12.6328 1.6611000000000002 2.2402 7
9.1094 1.1631 -1.6113 94
12.648399999999999 1.6162 0.1483 199
10.335899999999999 1.3203 -1.5819999999999999 2
12.6406 1.6152000000000002 0.4434 2
11.9219 1.5225 -1.54 8
12.648399999999999 1.6162 0.7393000000000001 196
12.664100000000001 1.6181999999999999 -1.3369 74
12.648399999999999 1.6152000000000002 1.0381 135
12.6406 1.6143 -1.0371 81
12.5547 1.6035 1.3252000000000002 220
12.625 1.6122999999999998 -0.7378 59
12.5547 1.6044999999999998 1.6230000000000002 105
12.656199999999998 1.6172 -0.44380000000000003 61
12.6172 1.6122999999999998 1.9336000000000002 165
12.6328 1.6143 -0.1481 211
12.625 1.6133000000000002 2.2363 228
9.1094 1.1318000000000001 -1.6113 42
12.648399999999999 1.5713 0.1482 62
10.3594 1.2861000000000002 -1.585 11
12.648399999999999 1.5703 0.4434 196
11.9375 1.4824000000000002 -1.5419999999999998 196
12.6406 1.5693000000000001 0.7383 219
12.656199999999998 1.5713 -1.3359 45
12.648399999999999 1.5703 1.0371 90
12.6406 1.5703 -1.0371 36
12.5625 1.5596 1.3252000000000002 38
12.625 1.5684 -0.7378 94
12.5547 1.5596 1.6221 235
12.6719 1.5741999999999998 -0.44409999999999994 237
12.6328 1.5693000000000001 1.9355000000000002 195
12.6406 1.5693000000000001 -0.1481 255
12.6172 1.5674000000000001 2.2344 146
9.125 1.0986 -1.6143 153
12.6406 1.5205000000000002 0.1479 244
10.343800000000002 1.2441 -1.5819999999999999 1
12.648399999999999 1.5215 0.44310000000000005 245
11.9531 1.4385 -1.5438999999999998 84
12.6406 1.5215 0.7383 4
12.648399999999999 1.5215 -1.334 101
12.6328 1.5205000000000002 1.0361 173
12.648399999999999 1.5215 -1.0371 58
12.5625 1.5116999999999998 1.3252000000000002 111
12.625 1.5194999999999999 -0.7373000000000001 171
12.5469 1.5088 1.6200999999999999 7
12.656199999999998 1.5225 -0.4434 249
12.6328 1.5205000000000002 1.9346 118
12.6328 1.5194999999999999 -0.1478 103
12.6172 1.5175999999999998 2.2324 102
9.1328 1.0654000000000001 -1.6143 40
12.6406 1.4736000000000002 0.1478 180
10.343800000000002 1.2061 -1.5819999999999999 230
12.648399999999999 1.4746000000000001 0.4429 183
11.976600000000001 1.3965 -1.5459 97
12.656199999999998 1.4756 0.7387999999999999 110
12.656199999999998 1.4756 -1.335 246
12.6328 1.4727000000000001 1.0352 234
12.6406 1.4736000000000002 -1.0361 236
12.5703 1.4658000000000002 1.3252000000000002 73
12.6406 1.4736000000000002 -0.7378 95
12.5547 1.4638999999999998 1.6200999999999999 252
12.648399999999999 1.4746000000000001 -0.4429 152
12.625 1.4727000000000001 1.9316 96
12.6328 1.4736000000000002 -0.1478 110
12.6406 1.4736000000000002 2.2363 135
9.1484 1.0391 -1.6162 153
12.648399999999999 1.4365 0.1479 22
10.351600000000001 1.1758 -1.5819999999999999 148
12.6328 1.4346 0.4421 133
11.9844 1.3613 -1.5469 97
12.648399999999999 1.4365 0.7378 34
12.664100000000001 1.4385 -1.335 125
12.6406 1.4355000000000002 1.0352 31
12.6328 1.4355000000000002 -1.0352 67
12.5469 1.4258000000000002 1.3232 52
12.6406 1.4355000000000002 -0.7373000000000001 113
12.5547 1.4258000000000002 1.6200999999999999 172
12.6406 1.4355000000000002 -0.4424 47
12.6172 1.4325999999999999 1.9297 202
12.625 1.4336000000000002 -0.1477 35
12.625 1.4336000000000002 2.2324 237
9.1406 1.0078 -1.6143 57
12.648399999999999 1.3944999999999999 0.1479 156
10.3828 1.1445 -1.5859 27
12.6406 1.3925999999999998 0.4421 242
11.9844 1.3203 -1.5449000000000002 112
12.648399999999999 1.3936000000000002 0.7378 247
12.664100000000001 1.3955000000000002 -1.334 10
12.648399999999999 1.3944999999999999 1.0361 56
12.625 1.3916 -1.0342 22
12.539100000000001 1.3828 1.3213 86
12.6328 1.3925999999999998 -0.7368000000000001 65
12.5547 1.3838 1.6191 139
12.6406 1.3925999999999998 -0.4421 197
12.6172 1.3916 1.9297 102
12.6094 1.3906 -0.1475 10
8.3203 0.9165000000000001 1.4678 152
9.1562 0.9756 -1.6172 169
12.656199999999998 1.3477000000000001 0.1479 95
10.3906 1.1074 -1.5869 134
12.648399999999999 1.3466999999999998 0.4424 221
12.0078 1.2793 -1.5478999999999998 132
12.6328 1.3457 0.7363 222
12.648399999999999 1.3477000000000001 -1.3330000000000002 14
12.648399999999999 1.3477000000000001 1.0352 29
12.6406 1.3457 -1.0342 34
12.5547 1.3369 1.3222999999999998 216
12.625 1.3447 -0.7363 89
12.5469 1.3369 1.6181999999999999 93
12.648399999999999 1.3466999999999998 -0.4424 182
12.625 1.3447 1.9297 236
12.6328 1.3457 -0.1476 188
8.3047 0.8848 1.4647999999999999 71
9.1406 0.9419 -1.6133000000000002 155
12.6406 1.3018 0.1477 241
10.3828 1.0693000000000001 -1.585 99
12.648399999999999 1.3027000000000002 0.4421 210
12.023399999999999 1.2383 -1.5488 59
12.625 1.2997999999999998 0.7358 71
12.6406 1.3018 -1.3311000000000002 21
12.6328 1.3008000000000002 1.0342 161
12.648399999999999 1.3027000000000002 -1.0352 198
12.5547 1.2930000000000001 1.3222999999999998 191
12.625 1.3008000000000002 -0.7358 194
12.531199999999998 1.291 1.6152000000000002 236
12.648399999999999 1.3027000000000002 -0.4421 26
12.6328 1.3008000000000002 1.9306999999999999 84
12.6328 1.3008000000000002 -0.1476 108
8.2969 0.8545 1.4638999999999998 237
9.1875 0.9120999999999999 -1.6200999999999999 250
12.625 1.2539 0.1475 57
10.3906 1.0322 -1.5859 152
12.6406 1.2549 0.44170000000000004 134
12.039100000000001 1.1953 -1.5508000000000002 116
12.6406 1.2559 0.7368000000000001 74
12.648399999999999 1.2559 -1.3311000000000002 189
12.6328 1.2549 1.0332 80
12.6328 1.2549 -1.0332 163
12.5547 1.2461 1.3213 77
12.6328 1.2549 -0.7363 152
12.539100000000001 1.2451 1.6152000000000002 78
12.6406 1.2549 -0.44189999999999996 39
12.6328 1.2539 1.9297 203
12.6406 1.2549 -0.1477 110
8.1875 0.813 1.4434 136
9.1953 0.8804000000000001 -1.6211000000000002 54
12.6406 1.2109 0.1476 15
10.406199999999998 0.9961 -1.5869 158
12.625 1.209 0.4409 174
12.0625 1.1543 -1.5527000000000002 150
12.648399999999999 1.2109 0.7363 46
12.648399999999999 1.2109 -1.3311000000000002 245
12.6328 1.21 1.0332 8
12.6328 1.21 -1.0332 181
12.5625 1.2031 1.3213 52
12.6406 1.21 -0.7358 143
12.5625 1.2031 1.6172 176
12.6406 1.2109 -0.44170000000000004 44
9.0703 0.8687 1.3828 116
12.6328 1.209 -0.1475 200
8.1719 0.7822 1.4394999999999998 34
9.1719 0.8477 -1.6172 38
12.656199999999998 1.1699 0.1477 74
10.414100000000001 0.9623999999999999 -1.5878999999999999 53
12.6328 1.167 0.4412 22
12.0781 1.1162 -1.5547 107
12.6406 1.168 0.7358 28
12.648399999999999 1.1689 -1.3311000000000002 41
12.6406 1.1689 1.0332 87
12.6328 1.167 -1.0322 224
12.5547 1.1602 1.3203 235
12.625 1.167 -0.7354 83
12.5625 1.1611 1.6172 144
12.648399999999999 1.1689 -0.44189999999999996 159
9.0547 0.8369 1.3799000000000001 21
12.6094 1.165 -0.1472 13
8.0625 0.7445999999999999 1.4199000000000002 214
9.1797 0.8179000000000001 -1.6172 46
12.6406 1.126 0.1475 151
10.4453 0.9301999999999999 -1.5918 237
12.6328 1.126 0.4412 29
12.101600000000001 1.0771 -1.5566 89
12.625 1.124 0.7349 156
12.648399999999999 1.127 -1.3300999999999998 17
12.6328 1.125 1.0322 230
12.6406 1.126 -1.0332 43
12.5469 1.1181999999999999 1.3193000000000001 162
12.625 1.124 -0.7349 66
12.5469 1.1172 1.6152000000000002 206
12.6406 1.126 -0.4414 144
9.0469 0.8057 1.3788999999999998 165
12.6172 1.124 -0.1472 210
7.9961 0.7119 1.4082 218
9.1953 0.7831999999999999 -1.6200999999999999 182
12.6406 1.0771 0.1475 247
10.4219 0.8876999999999999 -1.5878999999999999 190
12.6406 1.0771 0.4414 121
12.1172 1.0322 -1.5586000000000002 142
12.6328 1.0762 0.7349 167
12.6406 1.0771 -1.3281 224
12.625 1.0752 1.0312000000000001 76
12.6406 1.0771 -1.0322 139
12.5547 1.0703 1.3203 91
12.6328 1.0762 -0.7349 103
12.5547 1.0693000000000001 1.6152000000000002 30
12.6406 1.0771 -0.4412 118
8.0781 0.688 1.2295 229
12.625 1.0752 -0.1472 1
7.957000000000001 0.6781999999999999 1.4013999999999998 23
9.1953 0.7509999999999999 -1.6191 217
12.6328 1.0322 0.14730000000000001 129
10.4297 0.8521 -1.5888999999999998 255
12.6406 1.0322 0.4409 178
12.1328 0.9906999999999999 -1.5596 50
12.6406 1.0322 0.7354 250
12.6406 1.0322 -1.3281 69
12.6172 1.0303 1.0303 73
12.6406 1.0322 -1.0322 165
12.5547 1.0254 1.3193000000000001 216
12.6328 1.0322 -0.7349 249
9.0234 0.7373000000000001 1.1592 196
12.625 1.0312000000000001 -0.4407 146
8.0391 0.6562 1.2227 72
12.6328 1.0322 -0.14730000000000001 78
7.9688 0.6509 1.4022999999999999 214
9.2031 0.7227 -1.6200999999999999 54
12.6406 0.9926999999999999 0.14730000000000001 84
10.4453 0.8203 -1.5918 150
12.6328 0.9917 0.4407 204
12.1328 0.9531000000000001 -1.5605000000000002 32
12.6328 0.9922 0.7349 77
12.648399999999999 0.9932 -1.3291 169
12.6328 0.9922 1.0312000000000001 5
12.625 0.9917 -1.0312000000000001 156
12.5469 0.9854 1.3184 67
12.6406 0.9926999999999999 -0.7354 129
9.0234 0.7090000000000001 1.1592 251
12.6328 0.9917 -0.4407 48
8.0156 0.6294 1.2197 219
12.6172 0.9906999999999999 -0.1471 0
8.0078 0.6284000000000001 1.4082 65
9.1406 0.6875 -1.6094 132
12.6406 0.9501999999999999 0.14730000000000001 253
10.460899999999999 0.7861 -1.5928 214
12.625 0.9492 0.4404 100
12.1406 0.9126000000000001 -1.5605000000000002 243
12.6328 0.9501999999999999 0.7343999999999999 254
12.6406 0.9506999999999999 -1.3281 145
12.625 0.9497 1.0312000000000001 209
12.6328 0.9497 -1.0312000000000001 8
9.0156 0.6777 0.9458 238
12.6172 0.9487000000000001 -0.7334 104
9.0156 0.6781999999999999 1.1582 247
12.648399999999999 0.9506999999999999 -0.4412 195
12.7031 0.9551000000000001 1.9355000000000002 141
12.6094 0.9478 -0.147 75
8.0078 0.6021 1.4082 33
8.4531 0.603 -1.4872999999999998 123
12.648399999999999 0.9018999999999999 0.14730000000000001 62
10.468800000000002 0.7465999999999999 -1.5937999999999999 117
12.6406 0.9014 0.4407 90
12.1719 0.8682 -1.5644999999999998 98
12.6172 0.8998999999999999 0.7334 223
12.6328 0.9014 -1.3271000000000002 236
12.6406 0.9018999999999999 1.0312000000000001 220
12.6406 0.9014 -1.0312000000000001 226
9.0 0.6420999999999999 0.9438 35
12.625 0.9004000000000001 -0.7339 42
9.0 0.6420999999999999 1.1553 35
12.648399999999999 0.9018999999999999 -0.4409 255
12.726600000000001 0.9081999999999999 1.9394999999999998 233
12.6172 0.8998999999999999 -0.147 194
7.9375 0.5659000000000001 1.3955000000000002 66
8.4609 0.5737 -1.4883000000000002 3
12.6328 0.8569 0.1472 138
10.468800000000002 0.71 -1.5937999999999999 76
12.6406 0.8569 0.4404 192
12.1797 0.8262 -1.5654 137
12.6328 0.8564 0.7339 46
12.625 0.8564 -1.3252000000000002 52
12.6406 0.8569 1.0312000000000001 111
12.6406 0.8569 -1.0312000000000001 175
9.0078 0.6108 0.9443 252
12.625 0.8564 -0.7339 211
12.6797 0.8604 1.6299000000000001 26
12.6406 0.8569 -0.4404 113
9.1562 0.6211 1.3936000000000002 240
12.6172 0.856 -0.147 17
7.9140999999999995 0.5366 1.3916 100
8.4688 0.5464 -1.4893 246
12.6328 0.8149 0.1472 37
10.468800000000002 0.6753 -1.5928 34
12.6172 0.8140000000000001 0.4397 168
12.2031 0.7870999999999999 -1.5674000000000001 66
12.6328 0.8145 0.7339 148
12.625 0.8145 -1.3252000000000002 15
8.9453 0.5771000000000001 0.7284999999999999 165
12.6328 0.8145 -1.0303 155
9.0 0.5806 0.9434 84
12.6328 0.8145 -0.7339 73
12.6875 0.8184 1.6299000000000001 54
12.6328 0.8149 -0.4404 70
12.718800000000002 0.8203 1.9365 151
12.6172 0.8134999999999999 -0.147 248
7.949199999999999 0.5127 1.3975 126
8.5 0.5195000000000001 -1.4931999999999999 150
12.6328 0.7725 0.1471 72
9.625 0.5889 -1.4647999999999999 128
12.6172 0.7715000000000001 0.4397 162
12.2031 0.7465999999999999 -1.5674000000000001 66
12.6406 0.7729 0.7339 219
12.6328 0.7725 -1.3252000000000002 76
8.9219 0.5459 0.7265999999999999 23
12.625 0.7725 -1.0293 39
9.0156 0.5513 0.9448000000000001 231
12.625 0.772 -0.7334 89
12.6953 0.7764 1.6309 6
12.625 0.7725 -0.4399 80
12.7031 0.7768999999999999 1.9336000000000002 162
12.6094 0.7709999999999999 -0.1469 126
8.1719 0.49979999999999997 1.4355000000000002 155
8.4844 0.4863 -1.4912 96
12.6328 0.7241 0.1471 178
9.6328 0.5518 -1.4647999999999999 29
12.6172 0.7231000000000001 0.4397 204
12.210899999999999 0.6997 -1.5674000000000001 182
12.6172 0.7231000000000001 0.7329000000000001 173
12.6328 0.7241 -1.3252000000000002 2
8.9141 0.5107 0.7256 192
12.6328 0.7236 -1.0293 92
12.539100000000001 0.7188 1.3154 245
12.6172 0.7231000000000001 -0.7323999999999999 193
12.6953 0.7275 1.6309 104
12.6406 0.7241 -0.44020000000000004 160
12.7031 0.728 1.9336000000000002 102
12.593800000000002 0.7217 -0.1466 16
8.5 0.48710000000000003 1.4931999999999999 86
8.7266 0.46950000000000003 -1.5332 102
12.6328 0.6797 0.1471 132
9.6328 0.5181 -1.4647999999999999 90
12.625 0.6792 0.4397 204
12.2344 0.6581999999999999 -1.5703 186
12.6172 0.6787000000000001 0.7323999999999999 42
12.6328 0.6797 -1.3252000000000002 77
8.9219 0.48 0.7261 76
12.625 0.6797 -1.0293 13
12.5469 0.6753 1.3163999999999998 166
12.6094 0.6781999999999999 -0.7319 13
12.6953 0.6831 1.6299000000000001 123
12.6328 0.6797 -0.4399 247
12.710899999999999 0.6840999999999999 1.9355000000000002 19
12.6094 0.6781999999999999 -0.1467 32
8.5547 0.4604 1.5038999999999998 116
9.1172 0.4604 -1.6025 152
12.625 0.6372 0.147 75
9.6641 0.4878 -1.4687999999999999 203
12.625 0.6372 0.4395 115
12.2344 0.6177 -1.5703 29
12.625 0.6372 0.7329000000000001 13
12.625 0.6372 -1.3241999999999998 126
8.9219 0.45020000000000004 0.7256 188
12.6406 0.6382 -1.0303 58
12.5625 0.6338 1.3174000000000001 63
12.6172 0.6372 -0.7323999999999999 136
12.6797 0.6401 1.6279 45
12.6328 0.6377 -0.4397 255
12.710899999999999 0.6420999999999999 1.9346 79
12.601600000000001 0.6362 -0.1467 255
8.6016 0.4343 1.5116999999999998 234
9.1875 0.43310000000000004 -1.6143 122
12.625 0.5957 0.147 138
12.6172 0.5947 0.43920000000000003 242
12.2422 0.5771000000000001 -1.5713 192
12.625 0.5952000000000001 0.7329000000000001 176
12.6172 0.5952000000000001 -1.3232 171
12.625 0.5957 1.0293 105
12.6172 0.5952000000000001 -1.0283 255
12.5547 0.5922999999999999 1.3163999999999998 183
12.625 0.5952000000000001 -0.7323999999999999 191
12.6953 0.5986 1.6288999999999998 176
12.6172 0.5947 -0.43920000000000003 209
8.8125 0.4155 1.3388999999999998 114
12.6172 0.5952000000000001 -0.1469 172
8.625 0.4067 1.5156 57
9.1953 0.39840000000000003 -1.6162 112
12.625 0.5468999999999999 0.1469 56
10.5 0.4548 -1.5966999999999998 146
12.6094 0.5459 0.4387 41
12.25 0.5307999999999999 -1.5713 141
8.9531 0.38789999999999997 0.519 214
12.625 0.5468999999999999 -1.3232 255
12.6172 0.5464 1.0273 195
12.6172 0.5464 -1.0283 100
12.5547 0.5435 1.3154 71
12.625 0.5468999999999999 -0.7329000000000001 112
12.6875 0.5498 1.6279 44
12.625 0.5468999999999999 -0.4395 149
8.7969 0.3809 1.3359 99
12.601600000000001 0.5459 -0.1466 168
8.6641 0.37520000000000003 1.5215 204
9.2422 0.3679 -1.6230000000000002 60
12.6406 0.5034000000000001 0.147 44
10.5078 0.41850000000000004 -1.5977000000000001 146
12.6094 0.502 0.4387 78
12.2656 0.48829999999999996 -1.5732 251
8.9062 0.3547 0.5161 101
12.6328 0.5029 -1.3241999999999998 1
12.6328 0.5029 1.0293 128
12.6172 0.5024000000000001 -1.0283 100
12.531199999999998 0.499 1.3135 245
12.6172 0.5024000000000001 -0.7319 201
12.7031 0.5059 1.6299000000000001 20
12.6328 0.5029 -0.4397 142
8.8047 0.3503 1.3369 183
12.593800000000002 0.5015 -0.1465 42
8.6797 0.3457 1.5244 159
9.2891 0.3389 -1.6309 30
12.6172 0.4607 0.1467 58
10.523399999999999 0.384 -1.5996000000000001 109
12.625 0.4607 0.43920000000000003 87
12.273399999999999 0.44780000000000003 -1.5741999999999998 29
8.8828 0.32420000000000004 0.5146000000000001 174
12.625 0.4607 -1.3232 169
12.6172 0.4604 1.0273 62
12.6328 0.46090000000000003 -1.0283 42
12.539100000000001 0.4578 1.3144999999999998 152
12.6094 0.46020000000000005 -0.7314 112
12.6875 0.4629 1.6279 233
12.6406 0.4612 -0.4397 226
8.8281 0.3223 1.3408000000000002 224
12.593800000000002 0.4597 -0.1465 138
8.9297 0.3259 1.5684 8
9.3359 0.3098 -1.6406 110
12.6094 0.4182 0.1466 200
10.523399999999999 0.34909999999999997 -1.5986000000000002 173
12.6094 0.41850000000000004 0.4387 255
12.289100000000001 0.4077 -1.5762 173
8.8828 0.29469999999999996 0.5146000000000001 107
12.6172 0.41850000000000004 -1.3222999999999998 135
12.6172 0.41869999999999996 1.0273 224
12.6172 0.41869999999999996 -1.0273 70
12.5469 0.4163 1.3154 153
12.6094 0.4182 -0.7314 74
12.6719 0.4204 1.626 249
12.6172 0.41869999999999996 -0.43920000000000003 93
8.875 0.2944 1.3477000000000001 57
12.601600000000001 0.418 -0.1466 166
8.8359 0.293 1.5508000000000002 182
9.375 0.2781 -1.6455000000000002 152
12.6172 0.37450000000000006 0.1467 184
10.5078 0.3118 -1.5966999999999998 129
12.6094 0.3743 0.4387 42
12.3047 0.3652 -1.5781 248
8.8906 0.2639 0.5151 50
12.6172 0.37450000000000006 -1.3222999999999998 41
12.6094 0.3743 1.0273 219
12.625 0.37479999999999997 -1.0283 42
12.5469 0.3726 1.3154 169
12.6172 0.37450000000000006 -0.7319 181
8.9609 0.2659 1.1475 253
12.6094 0.3743 -0.4387 182
8.9219 0.2646 1.3544999999999998 240
12.601600000000001 0.374 -0.1466 114
8.8281 0.262 1.5497999999999998 226
9.3984 0.24780000000000002 -1.6503999999999999 237
12.6172 0.3325 0.1467 142
10.531199999999998 0.2776 -1.6006 250
12.593800000000002 0.332 0.43799999999999994 235
12.3047 0.3245 -1.5781 27
8.8984 0.2345 0.5151 38
12.6172 0.3328 -1.3222999999999998 210
12.625 0.3328 1.0273 81
12.6094 0.3323 -1.0264 28
12.5469 0.3308 1.3144999999999998 13
12.625 0.3328 -0.7319 1
8.9453 0.23579999999999998 1.1455 88
12.6172 0.3325 -0.439 189
8.9766 0.23670000000000002 1.3633000000000002 7
12.593800000000002 0.332 -0.1465 18
8.8359 0.2329 1.5508000000000002 21
9.3984 0.21170000000000003 -1.6503999999999999 241
12.625 0.2844 0.1469 80
10.539100000000001 0.2373 -1.6006 183
12.6094 0.2839 0.4385 245
12.3047 0.2771 -1.5771000000000002 119
8.8984 0.2003 0.5151 20
12.6172 0.2842 -1.3213 222
12.6328 0.2844 1.0283 88
12.601600000000001 0.2837 -1.0264 84
12.539100000000001 0.2822 1.3135 254
12.601600000000001 0.2837 -0.7304999999999999 38
8.9297 0.20120000000000002 1.1436 20
12.625 0.2842 -0.43920000000000003 190
9.3984 0.21170000000000003 1.4277000000000002 78
12.593800000000002 0.2834 -0.1464 67
9.6328 0.2169 1.6913999999999998 146
9.4219 0.17920000000000003 -1.6543 86
12.6172 0.2401 0.1467 229
10.5781 0.20120000000000002 -1.6063999999999998 139
12.6172 0.2401 0.439 134
12.3047 0.2341 -1.5781 37
8.9062 0.16940000000000002 0.5156000000000001 105
12.6172 0.2401 -1.3222999999999998 237
12.625 0.2401 1.0273 155
12.6172 0.2401 -1.0273 97
12.531199999999998 0.2384 1.3125 203
12.6094 0.23989999999999997 -0.731 207
8.9297 0.1698 1.1426 1
12.6328 0.2404 -0.4395 171
9.4922 0.1807 1.4413999999999998 196
12.585899999999999 0.2395 -0.1464 137
9.1875 0.1748 1.6133000000000002 119
9.3984 0.146 -1.6494 134
12.6094 0.1959 0.1466 57
10.5547 0.16390000000000002 -1.6035 44
12.6094 0.1959 0.4387 168
12.3203 0.19140000000000001 -1.5800999999999998 145
8.9141 0.1384 0.5161 226
12.6094 0.1959 -1.3213 50
12.601600000000001 0.1957 1.0254 229
12.6172 0.196 -1.0273 162
8.9531 0.139 0.9365000000000001 202
12.601600000000001 0.1957 -0.7304999999999999 117
8.9219 0.13849999999999998 1.1416 109
12.6172 0.196 -0.4387 117
9.5078 0.1477 1.4434 207
12.593800000000002 0.1957 -0.1464 115
9.1719 0.1425 1.6103999999999998 217
9.4062 0.1133 -1.6522999999999999 105
12.6172 0.152 0.1467 118
10.5703 0.1273 -1.6055000000000001 143
12.601600000000001 0.1517 0.4382 244
12.335899999999999 0.14859999999999998 -1.5811000000000002 0
8.9141 0.1074 0.5161 196
12.6094 0.1519 -1.3203 213
8.9766 0.1081 0.7295 174
12.601600000000001 0.1517 -1.0264 183
8.9297 0.1075 0.9340999999999999 168
12.601600000000001 0.1517 -0.7304999999999999 239
8.9453 0.10769999999999999 1.1455 211
12.6094 0.1519 -0.4385 169
9.4531 0.11380000000000001 1.4346 91
12.601600000000001 0.1517 -0.1465 123
9.3516 0.1127 1.6425999999999998 92
8.8047 0.0768 -1.5449000000000002 69
12.6172 0.1101 0.1467 247
10.5781 0.09230000000000001 -1.6063999999999998 229
8.8906 0.0776 0.30879999999999996 83
12.343800000000002 0.10769999999999999 -1.5819999999999999 5
8.9062 0.07769999999999999 0.5156000000000001 5
12.6094 0.11 -1.3213 94
8.9297 0.0779 0.7256 123
12.593800000000002 0.1099 -1.0254 6
8.9141 0.07780000000000001 0.9326000000000001 218
12.6172 0.1101 -0.7314 14
8.9453 0.0781 1.1455 197
12.601600000000001 0.11 -0.4382 221
9.4062 0.0821 1.4277000000000002 171
8.9219 0.07780000000000001 -0.10339999999999999 97
9.1172 0.0795 1.5996000000000001 232
8.7344 0.0473 -1.5332 107
8.9609 0.048499999999999995 0.1038 227
8.8906 0.0481 -1.3486000000000002 25
8.8906 0.0481 0.3086 228
8.875 0.048 -1.1357 147
8.8984 0.0482 0.5151 84
8.9062 0.0482 -0.9312 88
8.9297 0.0483 0.7256 236
8.9141 0.0482 -0.7245999999999999 245
8.9062 0.0482 0.9312 234
8.9297 0.0483 -0.5171 187
8.9453 0.0484 1.1455 210
8.9375 0.0483 -0.3103 247
9.0 0.0487 1.3662 120
8.8906 0.0481 -0.10300000000000001 186
8.8125 0.04769999999999999 1.5459 141
8.7031 0.0152 -1.5272999999999999 74
8.9141 0.015600000000000001 0.10339999999999999 227
8.8281 0.0154 -1.3397999999999999 234
8.8828 0.0155 0.30829999999999996 126
8.8516 0.0155 -1.1338 204
8.8984 0.0155 0.5151 198
8.875 0.0155 -0.9281999999999999 123
8.9219 0.015600000000000001 0.7245999999999999 205
8.8906 0.0155 -0.7227 9
8.9219 0.015600000000000001 0.9336 141
8.8906 0.0155 -0.5146000000000001 174
8.9141 0.015600000000000001 1.1406 13
8.8984 0.0155 -0.3091 212
8.9844 0.015700000000000002 1.3633000000000002 72
8.8906 0.0155 -0.10300000000000001 37
8.75 0.015300000000000001 1.5361000000000002 238
8.7031 -0.0152 -1.5272999999999999 118
8.9141 -0.015600000000000001 0.1033 111
8.8047 -0.0154 -1.3359 23
8.8984 -0.0155 0.30879999999999996 25
8.8359 -0.0154 -1.1318000000000001 220
8.9062 -0.0155 0.5156000000000001 235
8.8516 -0.0154 -0.9258 250
8.9141 -0.015600000000000001 0.7245999999999999 87
8.8906 -0.0155 -0.7227 65
8.9375 -0.015600000000000001 0.9346 104
8.8828 -0.0155 -0.5142 8
8.9062 -0.0155 1.1396 202
8.8828 -0.0155 -0.30829999999999996 51
8.9453 -0.015600000000000001 1.3584 203
8.8984 -0.0155 -0.10310000000000001 115
8.7578 -0.015300000000000001 1.5371000000000001 46
8.7031 -0.045599999999999995 -1.5272999999999999 148
8.9062 -0.0466 0.1033 196
8.7891 -0.046 -1.3330000000000002 226
8.875 -0.04650000000000001 0.3081 81
8.8281 -0.0462 -1.1299 137
8.9297 -0.046799999999999994 0.5171 24
8.8359 -0.0463 -0.9243000000000001 18
8.9297 -0.0467 0.7256 226
8.8594 -0.0464 -0.7202 51
8.9453 -0.046799999999999994 0.9355 6
8.875 -0.04650000000000001 -0.5136999999999999 243
8.9141 -0.0467 1.1416 104
8.875 -0.04650000000000001 -0.3081 54
8.9297 -0.046799999999999994 1.3555000000000001 174
8.8984 -0.0466 -0.10310000000000001 126
8.9609 -0.046900000000000004 1.5732 43
8.6797 -0.0757 -1.5234 200
8.9141 -0.07780000000000001 0.10339999999999999 174
8.7812 -0.0767 -1.3330000000000002 216
8.8906 -0.0776 0.3086 107
8.8047 -0.0768 -1.1279000000000001 60
8.9531 -0.0781 0.5181 203
8.8516 -0.07719999999999999 -0.9253 17
8.9766 -0.0783 0.7295 29
8.8672 -0.0774 -0.7206999999999999 37
12.523399999999999 -0.1093 1.3115 22
8.8828 -0.0775 -0.5142 251
8.9453 -0.0781 1.1445 101
8.875 -0.0775 -0.3081 38
8.9297 -0.0779 1.3544999999999998 211
8.8906 -0.0776 -0.10300000000000001 199
9.0078 -0.0786 1.5811000000000002 32
8.6797 -0.10310000000000001 -1.5234 156
8.9219 -0.1059 0.1035 188
8.7812 -0.1042 -1.3330000000000002 107
8.9375 -0.1061 0.3103 127
8.7891 -0.10439999999999999 -1.126 223
12.6094 -0.1497 0.731 89
8.8359 -0.10490000000000001 -0.9238 175
12.6094 -0.1497 1.0264 194
8.8516 -0.1051 -0.7197 149
12.523399999999999 -0.1487 1.3115 50
8.875 -0.10529999999999999 -0.5142 8
12.6875 -0.1505 1.626 169
8.8984 -0.1057 -0.3091 163
8.9688 -0.1065 1.3613 247
8.8906 -0.10550000000000001 -0.10310000000000001 238
8.9297 -0.106 1.5674000000000001 0
8.6875 -0.132 -1.5244 141
8.9531 -0.136 0.1038 49
8.7969 -0.1335 -1.335 148
12.710899999999999 -0.1931 0.4424 231
8.8125 -0.1338 -1.1279000000000001 147
12.593800000000002 -0.1913 0.73 26
8.8359 -0.13419999999999999 -0.9238 66
12.6172 -0.19149999999999998 1.0273 139
8.8594 -0.13449999999999998 -0.7202 7
12.539100000000001 -0.19039999999999999 1.3135 120
8.8594 -0.13449999999999998 -0.5132 1
12.6719 -0.1924 1.625 203
8.9297 -0.1356 -0.31010000000000004 97
9.3594 -0.1421 1.4209 159
8.8984 -0.1351 -0.1032 219
8.9844 -0.1364 1.5762 77
8.7031 -0.1655 -1.5272999999999999 49
12.851600000000001 -0.2445 0.1494 237
8.8047 -0.1675 -1.3359 55
12.843800000000002 -0.2443 0.4468 189
8.8125 -0.1677 -1.1289 20
12.601600000000001 -0.23989999999999997 0.731 42
8.8594 -0.1686 -0.9268000000000001 102
12.6094 -0.23989999999999997 1.0264 18
8.8984 -0.16920000000000002 -0.7231000000000001 188
12.539100000000001 -0.23850000000000002 1.3135 31
8.9062 -0.16940000000000002 -0.5156000000000001 224
12.6797 -0.2412 1.626 234
8.9609 -0.1705 -0.31129999999999997 164
12.7422 -0.24230000000000002 1.9365 214
12.8828 -0.2451 -0.14980000000000002 96
8.9844 -0.171 1.5781 247
8.7188 -0.1963 -1.5303 125
12.7969 -0.28809999999999997 0.14880000000000002 101
8.8438 -0.19920000000000002 -1.3428 187
12.8125 -0.28859999999999997 0.4458 230
8.8516 -0.1993 -1.1338 144
12.6094 -0.2839 0.731 155
12.601600000000001 -0.2839 -1.3203 169
12.593800000000002 -0.2837 1.0254 33
12.539100000000001 -0.2822 1.3135 127
12.6797 -0.28559999999999997 1.626 167
12.8125 -0.28859999999999997 -0.4458 98
12.6953 -0.2859 1.9297 16
12.851600000000001 -0.2896 -0.1494 101
9.0312 -0.2034 1.5859 7
8.7578 -0.2262 -1.5371000000000001 172
12.726600000000001 -0.3289 0.1479 216
10.6406 -0.2749 -1.6172 224
12.648399999999999 -0.32689999999999997 0.4399 185
12.4453 -0.3215 -1.5957 246
12.6094 -0.3259 0.7314 27
12.6094 -0.3257 -1.3213 199
12.6094 -0.3257 1.0264 21
12.75 -0.3296 -1.0381 37
12.523399999999999 -0.3235 1.3125 87
12.781199999999998 -0.33030000000000004 -0.7412000000000001 204
12.6875 -0.32789999999999997 1.6269999999999998 64
12.843800000000002 -0.3318 -0.447 47
12.6875 -0.32789999999999997 1.9287 13
12.914100000000001 -0.3335 -0.1501 71
9.1797 -0.2372 1.6122999999999998 186
8.8047 -0.2566 -1.5449000000000002 7
12.906199999999998 -0.3762 0.1501 56
10.648399999999999 -0.3105 -1.6181999999999999 136
12.851600000000001 -0.37450000000000006 0.447 234
12.4453 -0.3628 -1.5957 172
12.601600000000001 -0.3674 0.731 40
12.6094 -0.3677 -1.3213 77
12.6172 -0.3677 1.0273 192
12.773399999999999 -0.37229999999999996 -1.04 146
12.5156 -0.36469999999999997 1.3105000000000002 100
12.718800000000002 -0.37079999999999996 -0.7378 86
12.6875 -0.3699 1.6279 153
12.6719 -0.36939999999999995 -0.4409 229
12.7031 -0.3704 1.9316 220
12.781199999999998 -0.3726 -0.1487 254
8.8906 -0.259 1.5605000000000002 231
9.3906 -0.3081 -1.6494 254
12.6797 -0.4163 0.1475 222
10.664100000000001 -0.35009999999999997 -1.6200999999999999 225
12.7031 -0.41700000000000004 0.44189999999999996 91
12.460899999999999 -0.4092 -1.5986000000000002 211
12.593800000000002 -0.4133 0.7304999999999999 73
12.593800000000002 -0.4133 -1.3203 211
12.6172 -0.41409999999999997 1.0273 10
12.8203 -0.42090000000000005 -1.0439 164
12.523399999999999 -0.4111 1.3125 93
12.789100000000001 -0.4199 -0.7417 236
12.6797 -0.4163 1.6269999999999998 251
12.843800000000002 -0.4214 -0.4468 28
12.7031 -0.41700000000000004 1.9316 19
12.8906 -0.42310000000000003 -0.1499 91
8.9141 -0.2927 1.5654 94
9.4062 -0.34159999999999996 -1.6513999999999998 98
12.8594 -0.467 0.1495 34
10.656199999999998 -0.387 -1.6200999999999999 207
12.773399999999999 -0.4639 0.4446 55
12.468800000000002 -0.4526 -1.5986000000000002 92
12.593800000000002 -0.4573 0.7304999999999999 202
12.593800000000002 -0.4573 -1.3193000000000001 136
12.601600000000001 -0.4575 1.0264 9
12.7422 -0.4629 -1.0381 116
12.531199999999998 -0.4551 1.3135 73
12.726600000000001 -0.4622 -0.7383 159
12.6719 -0.46020000000000005 1.626 145
12.8203 -0.4656 -0.44630000000000003 130
12.7031 -0.46140000000000003 1.9316 103
12.8672 -0.4675 -0.1497 60
8.9688 -0.3257 1.5752000000000002 95
9.4219 -0.375 -1.6543 255
12.9453 -0.5151 0.1506 225
10.648399999999999 -0.4241 -1.6191 96
12.789100000000001 -0.5093 0.44530000000000003 202
12.476600000000001 -0.4968 -1.6006 105
12.6094 -0.502 0.7314 167
12.601600000000001 -0.5015 -1.3203 52
12.601600000000001 -0.5015 1.0264 135
12.8125 -0.5103 -1.0439 174
12.531199999999998 -0.499 1.3135 40
12.8125 -0.5103 -0.7437 228
12.6719 -0.5044 1.626 21
12.718800000000002 -0.5063 -0.4429 48
12.6875 -0.5049 1.9297 16
12.6953 -0.5054 -0.1477 71
8.9844 -0.3577 1.5781 54
9.4141 -0.4077 -1.6543 82
12.7422 -0.5518 0.1482 107
10.664100000000001 -0.4619 -1.6211000000000002 144
12.6719 -0.5488000000000001 0.4412 41
12.476600000000001 -0.54 -1.6006 253
12.601600000000001 -0.5459 0.731 37
12.601600000000001 -0.5459 -1.3213 124
12.593800000000002 -0.5454 1.0264 173
12.781199999999998 -0.5537 -1.041 136
12.523399999999999 -0.5425 1.3125 99
12.8281 -0.5557 -0.7445999999999999 206
12.664100000000001 -0.5488000000000001 1.626 48
12.8047 -0.5547 -0.4458 102
12.6797 -0.5493 1.9287 249
12.8203 -0.5552 -0.1492 4
9.7266 -0.4211 1.709 82
9.3984 -0.4399 -1.6513999999999998 29
12.898399999999999 -0.604 0.1501 39
10.6875 -0.5005 -1.625 223
12.835899999999999 -0.6006 0.4468 14
12.4844 -0.5845 -1.6025 54
12.593800000000002 -0.5898 0.731 54
12.593800000000002 -0.5893999999999999 -1.3203 62
12.601600000000001 -0.5898 1.0264 126
12.710899999999999 -0.5952000000000001 -1.0361 211
12.523399999999999 -0.5864 1.3135 23
12.6797 -0.5932999999999999 -0.7358 106
12.6875 -0.5938 1.6279 154
12.656199999999998 -0.5922999999999999 -0.4407 15
12.6797 -0.5938 1.9287 19
12.7344 -0.5962 -0.1482 51
9.7109 -0.4543 1.7061000000000002 40
9.3906 -0.47240000000000004 -1.6503999999999999 198
12.6875 -0.6382 0.1477 30
10.6953 -0.5381 -1.6269999999999998 156
12.8047 -0.644 0.4458 100
12.5 -0.6289 -1.6044999999999998 181
12.585899999999999 -0.6333 0.7304999999999999 55
12.593800000000002 -0.6333 -1.3203 218
12.6094 -0.6343 1.0273 111
12.8047 -0.644 -1.043 17
12.5078 -0.6294 1.3115 99
12.7969 -0.644 -0.7432 84
12.656199999999998 -0.6367 1.625 134
12.8125 -0.6445000000000001 -0.44630000000000003 152
12.6953 -0.6386999999999999 1.9316 165
12.6797 -0.6382 -0.1476 202
9.7031 -0.488 1.7050999999999998 232
9.4062 -0.5063 -1.6533000000000002 170
12.8125 -0.6895 0.1492 54
10.6797 -0.5747 -1.625 179
12.648399999999999 -0.6807 0.4407 89
12.5156 -0.6733 -1.6063999999999998 71
12.585899999999999 -0.6772 0.731 50
12.593800000000002 -0.6772 -1.3203 216
12.585899999999999 -0.6772 1.0264 166
12.718800000000002 -0.6840999999999999 -1.0361 32
12.523399999999999 -0.6738 1.3135 63
12.781199999999998 -0.688 -0.7422 213
12.648399999999999 -0.6807 1.624 161
12.843800000000002 -0.6914 -0.4475 12
12.6875 -0.6831 1.9316 71
12.8047 -0.6890000000000001 -0.149 6
13.1172 -0.7061 2.3086 171
9.4062 -0.5390999999999999 -1.6533000000000002 148
12.8906 -0.7387999999999999 0.1501 254
10.6875 -0.6128 -1.626 70
12.8047 -0.7339 0.446 158
12.523399999999999 -0.7178 -1.6084 5
12.6094 -0.7227 0.7319 235
12.593800000000002 -0.7217 -1.3213 110
12.593800000000002 -0.7217 1.0264 20
12.7969 -0.7334 -1.043 160
12.531199999999998 -0.7182999999999999 1.3144999999999998 92
12.7656 -0.7314 -0.7412000000000001 222
12.664100000000001 -0.7256 1.626 150
12.656199999999998 -0.7256 -0.4409 179
12.6719 -0.7261 1.9287 191
12.6172 -0.7231000000000001 -0.147 186
13.085899999999999 -0.7495 2.3027 211
9.4297 -0.5718 -1.6582 23
12.710899999999999 -0.7709999999999999 0.1481 213
10.6875 -0.6479 -1.626 101
12.6719 -0.7686 0.44170000000000004 39
12.5156 -0.7593000000000001 -1.6074000000000002 62
12.6094 -0.7646 0.7323999999999999 192
12.601600000000001 -0.7642 -1.3222999999999998 255
12.585899999999999 -0.7631999999999999 1.0264 210
12.7969 -0.7759 -1.0439 72
12.5156 -0.7587999999999999 1.3135 3
12.8047 -0.7764 -0.7437 97
12.664100000000001 -0.7676000000000001 1.626 69
12.7969 -0.7764 -0.446 134
12.6797 -0.769 1.9306999999999999 255
12.789100000000001 -0.7759 -0.1489 188
12.968800000000002 -0.7861 2.2832 12
9.3906 -0.6006 -1.6522999999999999 162
12.8906 -0.8242 0.1501 246
10.6953 -0.6840999999999999 -1.6279 9
12.773399999999999 -0.8169 0.4451 71
12.5156 -0.8008 -1.6074000000000002 191
12.593800000000002 -0.8057 0.7314 23
12.601600000000001 -0.8062 -1.3232 173
12.593800000000002 -0.8057 1.0273 1
12.710899999999999 -0.813 -1.0361 132
12.5156 -0.8008 1.3135 57
12.7031 -0.8125 -0.7378 151
12.664100000000001 -0.8101 1.6269999999999998 223
12.8203 -0.8203 -0.4468 206
12.6797 -0.8109999999999999 1.9306999999999999 57
12.8125 -0.8198000000000001 -0.1493 146
12.9297 -0.8271 2.2773 3
9.3906 -0.6353 -1.6522999999999999 99
12.8125 -0.8672 0.1493 165
10.718800000000002 -0.7251000000000001 -1.6318000000000001 84
12.781199999999998 -0.8647 0.4458 86
12.531199999999998 -0.8477 -1.6103999999999998 192
12.5781 -0.8511 0.731 102
12.601600000000001 -0.8521 -1.3222999999999998 203
12.593800000000002 -0.8521 1.0273 83
12.789100000000001 -0.8652 -1.0439 71
12.5156 -0.8467 1.3135 94
12.773399999999999 -0.8637999999999999 -0.7422 33
12.656199999999998 -0.856 1.626 14
12.7969 -0.8656999999999999 -0.44630000000000003 242
12.6797 -0.8579000000000001 1.9316 247
12.6953 -0.8589 -0.1479 104
12.9219 -0.8740000000000001 2.2754 136
9.375 -0.667 -1.6494 143
12.7031 -0.9037999999999999 0.1479 48
10.710899999999999 -0.7622 -1.6309 76
12.6719 -0.9018999999999999 0.44189999999999996 5
12.5469 -0.8931 -1.6133000000000002 230
12.585899999999999 -0.8955 0.7314 164
12.601600000000001 -0.8965000000000001 -1.3232 124
12.585899999999999 -0.8955 1.0273 120
12.75 -0.9072 -1.04 81
12.523399999999999 -0.8916 1.3154 188
12.7969 -0.9106000000000001 -0.7437 119
12.648399999999999 -0.8998999999999999 1.626 47
12.8047 -0.9111 -0.4465 76
12.6797 -0.9023 1.9325999999999999 226
12.7656 -0.9081999999999999 -0.1487 24
12.906199999999998 -0.9179999999999999 2.2734 216
9.3906 -0.7017 -1.6533000000000002 80
12.875 -0.9614 0.1501 147
10.7031 -0.7988 -1.6299000000000001 164
12.781199999999998 -0.9541 0.4458 205
12.5625 -0.9375 -1.6143 28
12.585899999999999 -0.9399 0.7319 35
12.601600000000001 -0.9409000000000001 -1.3232 100
12.5781 -0.9390000000000001 1.0264 134
12.7578 -0.9526 -1.041 125
12.531199999999998 -0.9355 1.3163999999999998 114
12.6953 -0.9481999999999999 -0.7383 199
12.656199999999998 -0.9448000000000001 1.6269999999999998 201
12.6328 -0.9429000000000001 -0.4404 215
12.6875 -0.9473 1.9336000000000002 228
12.6328 -0.9434 -0.1472 154
12.906199999999998 -0.9634 2.2734 47
9.3984 -0.7349 -1.6543 48
12.6953 -0.9922 0.1479 174
10.726600000000001 -0.8384 -1.6338 118
12.6953 -0.9922 0.4429 148
12.5469 -0.9804999999999999 -1.6133000000000002 185
12.593800000000002 -0.9843999999999999 0.7323999999999999 76
12.625 -0.9868000000000001 -1.3262 232
12.593800000000002 -0.9843999999999999 1.0283 33
