# .PCD v0.7 - Point Cloud Data file format
VERSION 0.7
FIELDS x y z intensity
SIZE 4 4 4 4
TYPE F F F F
COUNT 1 1 1 1
WIDTH 1243
HEIGHT 1
VIEWPOINT 0 0 0 1 0 0 0
POINTS 1243
DATA ascii
-11.914100000000001 -5.0508 1.9668 144
-12.1953 -5.167999999999999 2.3281 115
-3.0117000000000003 -1.2637 -0.5684 32
-3.2422000000000004 -1.3603999999999998 0.04019999999999999 131
-3.0391000000000004 -1.2754 -0.4961 255
-13.664100000000001 -5.734400000000001 0.5156000000000001 194
-3.1308999999999996 -1.3144999999999998 -0.4314 162
-13.656199999999998 -5.730499999999999 0.8589 214
-13.664100000000001 -5.734400000000001 1.207 111
-12.3828 -5.199199999999999 1.4072 180
-12.226600000000001 -5.1328 1.7002000000000002 104
-8.7266 -3.6641000000000004 1.4375 56
-12.164100000000001 -5.1055 2.3184 22
-3.0077999999999996 -1.25 -0.5669 119
-3.2305 -1.3428 0.04 131
-3.0370999999999997 -1.2627 -0.4951 45
-13.664100000000001 -5.6797 0.5151 47
-3.1289 -1.3008000000000002 -0.4304 47
-13.656199999999998 -5.675800000000001 0.8579000000000001 217
-13.656199999999998 -5.675800000000001 1.2041 151
-12.398399999999999 -5.1523 1.4072 81
-8.3516 -3.4726999999999997 1.1582 107
-11.843800000000002 -4.9219 1.9491999999999998 5
-12.156199999999998 -5.0508 2.3145 79
-3.0156 -1.2412 -0.5679 27
-3.2305 -1.3300999999999998 0.039900000000000005 244
-3.0254000000000003 -1.2451 -0.4924 98
-13.6797 -5.6289 0.5146000000000001 43
-3.1113 -1.2803 -0.42719999999999997 75
-13.6797 -5.6289 0.8579000000000001 114
-12.398399999999999 -5.1016 1.4043 82
-12.226600000000001 -5.0352 1.6953 207
-11.8828 -4.8906 1.9531 192
-12.1328 -4.9922 2.3066 201
-3.0233999999999996 -1.2314 -0.5684 222
-3.2401999999999997 -1.3193000000000001 0.04 239
-3.0332 -1.2354 -0.4927 117
-12.4297 -5.0625 0.4668 184
-3.1387 -1.2783 -0.4304 68
-12.4219 -5.0586 0.7778 17
-12.4219 -5.0586 1.0918 116
-12.3906 -5.0469 1.4022999999999999 145
-12.2344 -4.9844 1.6943000000000001 98
-8.7422 -3.5605 1.4325999999999999 156
-12.1406 -4.9453 2.3047 186
-3.0098000000000003 -1.2139 -0.5649000000000001 32
-3.2461 -1.3086000000000002 0.04 171
-3.0312 -1.2227 -0.4919 250
-12.4375 -5.0156 0.46659999999999996 143
-3.1426 -1.2666 -0.4304 254
-12.406199999999998 -5.0 0.7754000000000001 49
-12.4297 -5.0117 1.0908 22
-12.3828 -4.9922 1.3984 67
-12.2344 -4.9336 1.6913999999999998 38
-8.7891 -3.543 1.4385 168
-12.1172 -4.8867 2.2969 155
-3.0058999999999996 -1.2012 -0.563 88
-3.248 -1.2978999999999998 0.04 74
-3.0370999999999997 -1.2139 -0.49219999999999997 10
-3.0976999999999997 -1.2383 -0.4236 233
-12.406199999999998 -4.957 0.7744 214
-12.4297 -4.9688 1.0898 131
-12.375 -4.9453 1.3965 18
-12.218800000000002 -4.8828 1.6875 225
-12.1094 -4.8398 2.293 168
-3.0137 -1.1924 -0.564 228
-3.2245999999999997 -1.2764 0.039599999999999996 178
-3.0293 -1.1992 -0.4902 103
-3.4433999999999996 -1.3633000000000002 0.1276 90
-3.1387 -1.2422 -0.42869999999999997 102
-12.4297 -4.918 0.7748999999999999 63
-12.4297 -4.9219 1.0889 181
-12.3906 -4.9023 1.3955000000000002 125
-12.210899999999999 -4.832 1.6836000000000002 253
-8.8984 -3.5214999999999996 1.4531 253
-12.1094 -4.793 2.2891 196
-3.0117000000000003 -1.1777 -0.563 176
-3.2324 -1.2646 0.0397 95
-3.0214999999999996 -1.1816 -0.48829999999999996 1
-3.3926 -1.3271000000000002 0.1255 64
-3.1582 -1.2354 -0.43090000000000006 94
-12.468800000000002 -4.875 0.7764 47
-12.468800000000002 -4.875 1.0898 76
-12.3906 -4.8477 1.3944999999999999 161
-12.218800000000002 -4.7773 1.6816 214
-11.835899999999999 -4.6289 1.9306999999999999 166
-8.9062 -3.4844 1.6787 128
-3.0156 -1.167 -0.563 37
-3.2441000000000004 -1.2549 0.0398 14
-3.0293 -1.1719 -0.4888 51
-3.3906 -1.3115 0.1251 78
-3.1113 -1.2041 -0.4236 205
-12.5156 -4.8438 0.7783 180
-12.585899999999999 -4.8711 1.0986 102
-12.3672 -4.7852 1.3896000000000002 139
-12.210899999999999 -4.7227 1.6787 62
-11.835899999999999 -4.5781 1.9287 104
-12.125 -4.6914 2.2852 67
-3.0058999999999996 -1.1514 -0.5600999999999999 51
-3.2441000000000004 -1.2422 0.0397 79
-3.0370999999999997 -1.1631 -0.48950000000000005 136
-3.3808999999999996 -1.2949000000000002 0.1246 242
-3.1151999999999997 -1.1934 -0.4236 153
-12.6406 -4.8438 0.7852 118
-13.539100000000001 -5.1836 1.1806999999999999 42
-9.0156 -3.4531 1.0098 175
-8.875 -3.3983999999999996 1.2168 207
-11.843800000000002 -4.5391 1.9277000000000002 0
-12.1172 -4.6406 2.2793 115
-2.9882999999999997 -1.1328 -0.5562 209
-3.2401999999999997 -1.2285 0.039599999999999996 234
-3.0410000000000004 -1.1523 -0.48950000000000005 170
-3.3691000000000004 -1.2773 0.124 35
-3.1191000000000004 -1.1826 -0.4236 11
-13.531199999999998 -5.1289 0.8393999999999999 18
-13.5547 -5.140599999999999 1.1806999999999999 231
-9.0078 -3.4141000000000004 1.0078 142
-8.8828 -3.3672000000000004 1.2168 133
-11.851600000000001 -4.4922 1.9258000000000002 60
-10.0078 -3.7949 1.8809 94
-2.998 -1.125 -0.5571 151
-3.2344 -1.2139 0.0395 125
-3.0351999999999997 -1.1396 -0.488 56
-3.3926 -1.2734 0.12480000000000001 10
-3.123 -1.1719 -0.4236 134
-13.539100000000001 -5.082 0.8389 180
-13.523399999999999 -5.0742 1.1758 164
-9.0 -3.377 1.0059 203
-8.8828 -3.3339999999999996 1.2148 20
-8.8594 -3.3242000000000003 1.4365 112
-12.093800000000002 -4.5391 2.2695 193
-3.0077999999999996 -1.1172 -0.5581 237
-3.2363 -1.2021 0.0395 212
-3.0273000000000003 -1.124 -0.4858 57
-3.3827999999999996 -1.2568000000000001 0.1242 105
-3.127 -1.1621 -0.4236 54
-13.531199999999998 -5.0273 0.8373999999999999 114
-13.523399999999999 -5.0234 1.1748 75
-8.9844 -3.3379000000000003 1.0029000000000001 163
-12.0547 -4.4766 1.6484 220
-8.8516 -3.2870999999999997 1.4325999999999999 2
-9.9688 -3.7031 1.8672 135
-3.0077999999999996 -1.1045 -0.5576 254
-3.2382999999999997 -1.1895 0.0394 155
-3.0273000000000003 -1.1123 -0.4851 6
-3.3535000000000004 -1.2314 0.1229 151
-3.1327999999999996 -1.1504 -0.4236 102
-13.539100000000001 -4.9727 0.8364 162
-13.531199999999998 -4.9688 1.1738 99
-8.9922 -3.3026999999999997 1.002 27
-12.0625 -4.4336 1.6484 47
-8.8516 -3.252 1.4316 208
-12.1094 -4.4492 2.2676 174
-2.9901999999999997 -1.0859 -0.5537 194
-3.2539 -1.1826 0.039599999999999996 32
-3.0351999999999997 -1.1025 -0.4858 237
-3.3613 -1.2217 0.12300000000000001 246
-3.0976999999999997 -1.126 -0.41869999999999996 210
-13.531199999999998 -4.918 0.835 157
-13.523399999999999 -4.9141 1.1719 59
-9.0078 -3.2733999999999996 1.0029000000000001 241
-12.1328 -4.4102 1.6553 147
-11.835899999999999 -4.3008 1.9141 238
-12.101600000000001 -4.3984 2.2637 187
-2.9824 -1.0723 -0.5513 128
-3.2617000000000003 -1.1729 0.039599999999999996 153
-3.0391000000000004 -1.0928 -0.4858 112
-3.3945 -1.2207 0.1242 71
-3.1211 -1.1220999999999999 -0.4211 75
-13.5156 -4.8633 0.833 181
-13.539100000000001 -4.8672 1.1709 247
-9.0156 -3.2422000000000004 1.002 112
-12.2031 -4.3867 1.6621000000000001 230
-8.0547 -2.8964999999999996 1.5019999999999998 69
-2.9901999999999997 -1.0635 -0.5522 135
-3.2539 -1.1582 0.0395 96
-3.0293 -1.0781 -0.4836 16
-3.3808999999999996 -1.2031 0.1235 170
-3.1172000000000004 -1.1094 -0.4202 195
-13.523399999999999 -4.8125 0.8325 223
-13.531199999999998 -4.8164 1.1689 194
-9.0469 -3.2207 1.0049 50
-12.1875 -4.3359 1.6591999999999998 28
-11.8203 -4.207 1.9062000000000001 246
-8.0234 -2.8535000000000004 1.4931999999999999 110
-3.0039 -1.0566 -0.5542 102
-3.2773000000000003 -1.1523 0.0397 252
-3.0233999999999996 -1.0625 -0.48219999999999996 9
-3.373 -1.1855 0.12300000000000001 133
-3.0995999999999997 -1.0898 -0.41700000000000004 102
-13.523399999999999 -4.7539 0.8315 2
-13.5078 -4.75 1.166 245
-9.1016 -3.1992000000000003 1.0088 61
-12.1953 -4.2891 1.6572 250
-11.8203 -4.1562 1.9043 166
-8.0391 -2.8262 1.4950999999999999 237
-2.998 -1.042 -0.5522 145
-3.3007999999999997 -1.1475 0.039900000000000005 169
-3.0293 -1.0527 -0.4824 54
-3.3555 -1.166 0.1223 158
-3.1523000000000003 -1.0957 -0.4236 209
-13.531199999999998 -4.7031 0.8306 90
-13.531199999999998 -4.7031 1.167 33
-12.3672 -4.3008 1.3721 57
-12.2031 -4.2422 1.6572 39
-11.8203 -4.1094 1.9022999999999999 212
-8.9375 -3.1074 1.6621000000000001 207
-2.9785000000000004 -1.0244 -0.5478999999999999 93
-3.3301 -1.1455 0.0403 168
-3.0312 -1.043 -0.48219999999999996 10
-3.3516000000000004 -1.1533 0.1219 236
-3.1543 -1.0859 -0.4236 238
-13.5469 -4.6602 0.8306 37
-9.1328 -3.1426 0.7852 84
-12.343800000000002 -4.2461 1.3672 65
-9.3281 -3.2108999999999996 1.2637 201
-8.5 -2.9257999999999997 1.3643 160
-8.2031 -2.8242000000000003 1.5225 150
-2.9745999999999997 -1.0127 -0.5464 135
-3.0254000000000003 -1.0293 -0.4807 220
-3.3651999999999997 -1.1455 0.12240000000000001 119
-3.1582 -1.0752 -0.4236 189
-13.6406 -4.6445 0.8359000000000001 44
-9.1016 -3.0976999999999997 0.7817000000000001 32
-9.25 -3.1483999999999996 1.0225 150
-9.3281 -3.1738 1.2617 65
-9.6797 -3.2969 1.5527000000000002 196
-8.0547 -2.7401999999999997 1.4922 195
-2.9785000000000004 -1.001 -0.5464 67
-3.0273000000000003 -1.0176 -0.4805 81
-3.3594 -1.1289 0.1219 89
-3.1094 -1.0449 -0.4165 118
-13.9844 -4.7031 0.856 72
-9.1016 -3.0586 0.7803 169
-9.2344 -3.1035000000000004 1.0186 138
-12.1875 -4.0938 1.6484 238
-8.0547 -2.707 1.2891 197
-8.0859 -2.7188 1.4971 202
-2.9922000000000004 -0.9941 -0.5488000000000001 85
-3.0137 -1.001 -0.4778 92
-3.3632999999999997 -1.1172 0.1219 157
-3.1660000000000004 -1.0518 -0.4236 212
-14.1953 -4.7188 0.8676999999999999 42
-9.1094 -3.0273000000000003 0.7803 87
-9.25 -3.0723000000000003 1.0195 214
-12.1953 -4.0508 1.6475 245
-8.0625 -2.6776999999999997 1.2881 113
-8.1172 -2.6973000000000003 1.501 164
-2.9922000000000004 -0.9823999999999999 -0.5478999999999999 211
-3.0254000000000003 -0.9937 -0.4792 50
-3.3242000000000003 -1.0918 0.1204 226
-3.1699 -1.041 -0.4236 122
-14.3047 -4.6992 0.8734999999999999 153
-9.1328 -2.998 0.7812 163
-12.351600000000001 -4.0586 1.3622999999999998 117
-12.210899999999999 -4.0078 1.6475 113
-8.0859 -2.6543 1.291 34
-12.101600000000001 -3.9726999999999997 2.2383 158
-2.9824 -0.9678 -0.5454 100
-3.0293 -0.9834 -0.4792 169
-3.3632999999999997 -1.0918 0.1217 146
-3.1738 -1.0303 -0.4236 177
-9.1406 -2.9668 0.5566 90
-9.1484 -2.9688 0.7817000000000001 118
-12.3672 -4.0117 1.3613 111
-12.1953 -3.9589999999999996 1.6444999999999999 139
-8.7734 -2.8476999999999997 1.4003999999999999 3
-12.085899999999999 -3.9238 2.2344 98
-2.9805 -0.9561 -0.5444 68
-3.0332 -0.9731000000000001 -0.4792 117
-3.3594 -1.0781 0.12140000000000001 123
-3.1776999999999997 -1.0195 -0.4236 56
-9.1094 -2.9238 0.5542 130
-14.7578 -4.7344 1.2627 119
-12.351600000000001 -3.9629000000000003 1.3584 84
-12.1797 -3.9082 1.6406 171
-8.8828 -2.8516000000000004 1.4169999999999998 11
-8.9062 -2.8574 1.6416 138
-2.9844 -0.9468000000000001 -0.5449 177
-3.0195 -0.9575 -0.47659999999999997 17
-3.3242000000000003 -1.0547 0.12 206
-9.1172 -2.8926 0.5537 9
-14.835899999999999 -4.707 1.2676 25
-12.351600000000001 -3.918 1.3574000000000002 206
-12.1797 -3.8632999999999997 1.6377000000000002 188
-12.0703 -3.8281 2.2246 90
-2.9844 -0.9340999999999999 -0.5439 243
-3.0098000000000003 -0.9419 -0.4744 52
-3.332 -1.043 0.1201 241
-9.0938 -2.8476999999999997 0.5518 185
-15.0469 -4.707 1.2841999999999998 135
-12.343800000000002 -3.8632999999999997 1.3544999999999998 84
-12.156199999999998 -3.8047000000000004 1.6328 128
-12.0781 -3.7793 2.2246 100
-2.9882999999999997 -0.9238 -0.5439 119
-3.0156 -0.9320999999999999 -0.4746 173
-3.2949 -1.0186 0.1186 183
-3.1875 -0.9854 -0.4236 194
-9.1094 -2.8164 0.5518 113
-15.218800000000002 -4.7031 1.2969 115
-12.343800000000002 -3.8164 1.3535 63
-12.125 -3.75 1.6269999999999998 179
-12.093800000000002 -3.7382999999999997 2.2246 214
-2.9785000000000004 -0.9102 -0.5415 144
-3.0233999999999996 -0.9238 -0.4756 125
-3.2969 -1.0078 0.1186 28
-9.1094 -2.7832 0.5518 228
-9.1172 -2.7870999999999997 0.7754000000000001 72
-12.335899999999999 -3.7676 1.3506 156
-12.156199999999998 -3.7129000000000003 1.6288999999999998 63
-8.9141 -2.7226999999999997 1.4141 95
-12.0781 -3.6895 2.2188 52
-2.9726999999999997 -0.8979 -0.5405 152
-3.0156 -0.9102 -0.4739 191
-3.3007999999999997 -0.9965999999999999 0.1186 47
-3.1933999999999996 -0.9643999999999999 -0.4236 157
-9.1094 -2.75 0.5508 10
-9.1172 -2.752 0.7744 113
-12.335899999999999 -3.7245999999999997 1.3496000000000001 154
-12.1719 -3.6738 1.6299000000000001 136
-8.9453 -2.7012 1.4180000000000001 166
-12.0781 -3.6464999999999996 2.2168 185
-2.9785000000000004 -0.8867 -0.5405 75
-3.0137 -0.897 -0.4729 205
-3.3007999999999997 -0.9829000000000001 0.1185 205
-9.1484 -2.7245999999999997 0.5527000000000001 134
-9.1094 -2.7129000000000003 0.7729 255
-9.0859 -2.707 0.9922 81
-12.1797 -3.627 1.6288999999999998 56
-11.8594 -3.5312 1.8799000000000001 231
-12.0781 -3.5957 2.2148 14
-2.9824 -0.8765000000000001 -0.5405 96
-2.998 -0.8813 -0.4702 152
-3.2851999999999997 -0.9653 0.1177 159
-3.2012 -0.9409000000000001 -0.4236 45
-15.4531 -4.543 0.9346 174
-9.1328 -2.6836 0.7734000000000001 90
-9.0781 -2.668 0.9897 163
-12.1875 -3.582 1.6279 132
-11.8203 -3.4745999999999997 1.8721 89
-12.0781 -3.5488 2.2109 75
-2.9901999999999997 -0.8682 -0.5415 205
-3.0117000000000003 -0.8745 -0.4717 100
-3.2773000000000003 -0.9512 0.1174 54
-9.1719 -2.6620999999999997 0.7764 20
-9.0781 -2.6348000000000003 0.9887999999999999 103
-12.1797 -3.5370999999999997 1.626 163
-11.789100000000001 -3.4238 1.8662 46
-12.093800000000002 -3.5117000000000003 2.2129 69
-2.9785000000000004 -0.8540000000000001 -0.5390999999999999 183
-3.0077999999999996 -0.8628 -0.4707 143
-3.2910000000000004 -0.9438 0.1177 243
-3.207 -0.9194 -0.4236 109
-15.4531 -4.4297 1.3096 161
-12.3672 -3.5469 1.3477000000000001 190
-8.9766 -2.5723000000000003 1.1953 118
-8.8906 -2.5488 1.4033000000000002 213
-12.0781 -3.4629000000000003 2.207 148
-2.9707 -0.8398 -0.5366 76
-3.0195 -0.8540000000000001 -0.4719 120
-3.2870999999999997 -0.9297 0.1175 4
-15.4922 -4.3789 0.9340999999999999 204
-15.4531 -4.3711 1.3086000000000002 237
-9.2734 -2.6211 1.0078 22
-8.9609 -2.5352 1.1924 85
-8.9219 -2.5234 1.4072 21
-12.0781 -3.4141000000000004 2.2051 93
-2.9766000000000004 -0.8306 -0.5376 94
-3.0058999999999996 -0.8384 -0.4692 1
-3.2754000000000003 -0.9136 0.11689999999999999 103
-15.5703 -4.3438 0.9375 15
-15.4531 -4.3125 1.3066 206
-9.3125 -2.5976999999999997 1.0117 111
-8.9688 -2.502 1.1924 131
-8.9453 -2.4961 1.4091999999999998 182
-12.0703 -3.3672000000000004 2.2012 6
-2.9805 -0.8203 -0.5376 191
-2.9961 -0.8247 -0.4675 122
-3.2773000000000003 -0.9023 0.11689999999999999 153
-21.9375 -6.0390999999999995 1.3213 141
-15.4375 -4.25 1.3047 79
-9.3125 -2.5625 1.0107 116
-12.1875 -3.3535000000000004 1.6200999999999999 16
-11.7969 -3.248 1.8594 28
-12.0781 -3.3242000000000003 2.2012 157
-2.9805 -0.8090999999999999 -0.5371 192
-3.002 -0.8149 -0.4678 143
-3.2851999999999997 -0.8920999999999999 0.11710000000000001 24
-20.8281 -5.6562 1.2529000000000001 65
-15.460899999999999 -4.1953 1.3047 231
-9.3203 -2.5293 1.0098 2
-12.218800000000002 -3.3164 1.6230000000000002 25
-11.8203 -3.2089999999999996 1.8613 232
-12.0781 -3.2793 2.1992 181
-2.9745999999999997 -0.7964 -0.5356000000000001 198
-3.0137 -0.8070999999999999 -0.4692 99
-3.2617000000000003 -0.873 0.1161 125
-19.5469 -5.234400000000001 1.1748 235
-15.460899999999999 -4.1406 1.3037 108
-9.3203 -2.4961 1.0098 125
-12.2344 -3.2754000000000003 1.6230000000000002 250
-8.8594 -2.3711 1.3916 205
-12.0703 -3.2305 2.1953 1
-2.9551 -0.7803 -0.5317000000000001 138
-3.0254000000000003 -0.7988 -0.4707 43
-3.2676 -0.8628 0.1162 120
-3.2266000000000004 -0.8515999999999999 -0.4236 90
-19.6094 -5.1797 1.1777 9
-15.460899999999999 -4.082 1.3018 97
-9.3359 -2.4648 1.0107 242
-12.210899999999999 -3.2226999999999997 1.6191 59
-9.0703 -2.3945 1.4238 184
-12.0625 -3.1836 2.1914 182
-2.9726999999999997 -0.7739 -0.5342 127
-3.0039 -0.7817000000000001 -0.4668 84
-3.2793 -0.8534999999999999 0.1165 18
-3.1172000000000004 -0.8115000000000001 -0.4089 180
-19.875 -5.171900000000001 1.1924 211
-15.4922 -4.0312 1.3037 128
-9.3672 -2.4395 1.0127 98
-12.2031 -3.1776999999999997 1.6172 138
-9.1016 -2.3691 1.4268 178
-8.6797 -2.2578 1.5732 79
-2.9726999999999997 -0.7626999999999999 -0.5337 9
-3.0 -0.7695000000000001 -0.4656 121
-3.2539 -0.835 0.1155 34
-3.1016000000000004 -0.7959 -0.40619999999999995 239
-12.3906 -3.1797000000000004 0.7417 18
-3.0664 -0.7870999999999999 -0.3281 119
-12.4297 -3.1875 1.0439 39
-3.1172000000000004 -0.7998000000000001 -0.259 172
-9.4062 -2.4141 1.0166 56
-12.210899999999999 -3.1327999999999996 1.6162 26
-11.7969 -3.0254000000000003 1.8496000000000001 246
-12.0156 -3.0839999999999996 2.1797 9
-2.9785000000000004 -0.7539 -0.5342 33
-3.0058999999999996 -0.7603 -0.46630000000000005 93
-3.2577999999999996 -0.8242 0.1155 129
-12.3672 -3.1289 0.7397 32
-3.1464999999999996 -0.7964 -0.3367 5
-12.351600000000001 -3.125 1.0371 64
-3.0801 -0.7793000000000001 -0.2559 116
-9.4297 -2.3867 1.0176 225
-3.1641000000000004 -0.8008 -0.1873 74
-12.218800000000002 -3.0918 1.6162 38
-11.7969 -2.9844 1.8486000000000002 61
-11.9531 -3.0233999999999996 2.166 14
-2.9668 -0.7402 -0.5317000000000001 99
-3.0077999999999996 -0.7505 -0.46630000000000005 222
-3.2401999999999997 -0.8086 0.1148 232
-12.343800000000002 -3.0801 0.7378 29
-3.1426 -0.7837000000000001 -0.3357 182
-12.351600000000001 -3.082 1.0361 17
-3.1094 -0.7759 -0.2581 123
-9.4531 -2.3594 1.0195 3
-3.2441000000000004 -0.8096 -0.19190000000000002 42
-12.2422 -3.0547000000000004 1.6172 77
-3.1699 -0.7909999999999999 -0.11230000000000001 114
-11.781199999999998 -2.9395 1.8447 26
-11.8672 -2.9608999999999996 2.1484 193
-2.9648000000000003 -0.7275 -0.5307999999999999 193
-3.0137 -0.7393000000000001 -0.46659999999999996 212
-3.2363 -0.7944 0.11460000000000001 93
-12.351600000000001 -3.0312 0.7373000000000001 111
-3.1289 -0.7681 -0.33399999999999996 67
-12.375 -3.0370999999999997 1.0371 4
-3.1327999999999996 -0.7686 -0.25980000000000003 58
-9.5156 -2.3359 1.0254 144
-12.226600000000001 -3.0 1.6143 9
-11.8047 -2.8983999999999996 1.8477000000000001 178
-3.1620999999999997 -0.7759 -0.037200000000000004 64
-11.7969 -2.8945 2.1348 197
-2.9668 -0.7173 -0.5307999999999999 144
-2.9961 -0.7241 -0.4636 129
-3.2714999999999996 -0.7909999999999999 0.1157 177
-12.3672 -2.9901999999999997 0.7378 126
-3.0702999999999996 -0.7422 -0.3274 5
-12.414100000000001 -3.002 1.04 56
-3.0957 -0.7484999999999999 -0.2566 38
-9.5938 -2.3203 1.0332 226
-12.226600000000001 -2.9551 1.6122999999999998 99
-11.843800000000002 -2.8613 1.8506 118
-9.1953 -2.2227 1.6611000000000002 247
-2.9745999999999997 -0.708 -0.5317000000000001 53
-3.2363 -0.77 0.038 159
-3.002 -0.7148 -0.46409999999999996 150
-3.25 -0.7734000000000001 0.1148 227
-12.4219 -2.957 0.7402 189
-3.1387 -0.7471 -0.3345 104
-12.4531 -2.9629000000000003 1.042 128
-3.0995999999999997 -0.7378 -0.2566 121
-12.406199999999998 -2.9531 1.3359 246
-9.6562 -2.2969 1.2705 240
-9.6641 -2.3008 1.5088 129
-9.2109 -2.1914 1.6621000000000001 126
-2.9766000000000004 -0.6978 -0.5317000000000001 190
-2.998 -0.7026 -0.4629 223
-3.2558999999999996 -0.7631999999999999 0.115 74
-12.4844 -2.9257999999999997 0.7432 181
-3.1055 -0.728 -0.3308 49
-13.468800000000002 -3.1562 1.127 189
-3.125 -0.7323999999999999 -0.2585 149
-12.4531 -2.918 1.3397999999999999 215
-9.6562 -2.2617 1.2695 64
-9.6562 -2.2637 1.5059 49
-9.2109 -2.1582 1.6611000000000002 18
-2.9668 -0.6851 -0.5293 162
-3.0117000000000003 -0.6953 -0.4648 218
-3.2363 -0.7471 0.1142 239
-13.476600000000001 -3.1113 0.8022 133
-3.125 -0.7212000000000001 -0.3325 105
-13.476600000000001 -3.1113 1.126 180
-3.0879000000000003 -0.7129000000000001 -0.2551 62
-13.4375 -3.1016000000000004 1.4453 162
-9.6719 -2.2324 1.2715 223
-9.6719 -2.2324 1.5068000000000001 130
-9.5703 -2.209 1.7246000000000001 5
-2.9629000000000003 -0.6738 -0.5283 14
-3.0039 -0.6831 -0.4631 1
-3.248 -0.7383 0.11449999999999999 2
-3.0995999999999997 -0.7045999999999999 -0.4033 51
-13.468800000000002 -3.0625 0.8008 180
-3.0723000000000003 -0.6987000000000001 -0.3267 124
-13.476600000000001 -3.0645 1.125 253
-3.1055 -0.7061 -0.2566 43
-13.468800000000002 -3.0625 1.4472999999999998 76
-9.6875 -2.2031 1.2725 231
-3.2108999999999996 -0.73 -0.11320000000000001 39
-9.7109 -2.209 1.5127000000000002 247
-9.5781 -2.1777 1.7246000000000001 235
-2.9707 -0.6640999999999999 -0.5293 31
-2.9961 -0.6698999999999999 -0.4617 123
-3.2266000000000004 -0.7212000000000001 0.11359999999999999 88
-3.0898000000000003 -0.6904 -0.4019 28
-13.476600000000001 -3.0137 0.8008 246
-3.0742000000000003 -0.6875 -0.3267 30
-13.476600000000001 -3.0117000000000003 1.124 214
-3.1132999999999997 -0.6958 -0.2568 215
-13.4844 -3.0137 1.4472999999999998 120
-3.2637 -0.7295 -0.19190000000000002 220
-12.226600000000001 -2.7324 1.6063999999999998 96
-9.8281 -2.1953 1.5283000000000002 100
-9.5859 -2.1426 1.7246000000000001 50
-2.9785000000000004 -0.6548 -0.5303 184
-2.9922000000000004 -0.6581999999999999 -0.4607 70
-3.2188 -0.708 0.1133 215
-3.0801 -0.6772 -0.40009999999999996 213
-13.476600000000001 -2.9629000000000003 0.8003 146
-3.1151999999999997 -0.6851 -0.3308 139
-13.460899999999999 -2.9589999999999996 1.1220999999999999 66
-3.1113 -0.6840999999999999 -0.2566 136
-13.4922 -2.9668 1.4472999999999998 202
-3.2108999999999996 -0.7061 -0.1886 46
-12.2344 -2.6895 1.6055000000000001 11
-9.875 -2.1719 1.5352000000000001 11
-9.5703 -2.1055 1.7207 154
-2.9745999999999997 -0.6431 -0.5293 125
-3.0039 -0.6494 -0.4619 88
-3.2363 -0.6997 0.11380000000000001 223
-3.0664 -0.6631 -0.3982 22
-13.476600000000001 -2.9141000000000004 0.7998000000000001 245
-3.1191000000000004 -0.6743000000000001 -0.3308 8
-13.4531 -2.9082 1.1211 215
-3.0976999999999997 -0.6698999999999999 -0.2551 41
-13.4844 -2.9160000000000004 1.4453 23
-3.1875 -0.6890000000000001 -0.187 108
-12.226600000000001 -2.6426 1.6035 129
-12.039100000000001 -2.6035000000000004 1.8721 51
-9.7578 -2.1094 1.7529 93
-2.957 -0.6284000000000001 -0.5259 192
-3.0077999999999996 -0.6392 -0.46240000000000003 208
-3.2188 -0.6840999999999999 0.1131 29
-3.0702999999999996 -0.6523 -0.3982 72
-13.468800000000002 -2.8632999999999997 0.7988 203
-3.0858999999999996 -0.6557999999999999 -0.32689999999999997 123
-13.468800000000002 -2.8632999999999997 1.1211 27
-3.1074 -0.6606000000000001 -0.2559 54
-13.476600000000001 -2.8632999999999997 1.4434 35
-3.123 -0.6636 -0.18309999999999998 226
-12.2422 -2.6016000000000004 1.6044999999999998 255
-12.0469 -2.5605 1.8721 129
-9.8906 -2.1016 1.7753999999999999 28
-2.9473000000000003 -0.6157 -0.5234000000000001 7
-3.0137 -0.6294 -0.4629 226
-3.2285000000000004 -0.6743000000000001 0.1133 62
-3.0254000000000003 -0.6318 -0.3921 52
-13.4453 -2.8086 0.7964 112
-3.0995999999999997 -0.6475 -0.3281 149
-13.460899999999999 -2.8125 1.1201 69
-3.1367000000000003 -0.6553 -0.2581 200
-13.468800000000002 -2.8125 1.4413999999999998 147
-3.1016000000000004 -0.6479 -0.1816 99
-12.2344 -2.5566 1.6025 154
-12.0781 -2.5234 1.874 26
-2.9668 -0.6089 -0.5268999999999999 95
-3.0 -0.6157 -0.4604 211
-3.2344 -0.6640999999999999 0.11349999999999999 173
-3.0547000000000004 -0.627 -0.39549999999999996 205
-13.5078 -2.7733999999999996 0.7998000000000001 71
-3.0858999999999996 -0.6333 -0.3267 37
-13.531199999999998 -2.7773000000000003 1.125 120
-3.1016000000000004 -0.6367 -0.25489999999999996 251
-13.460899999999999 -2.7637 1.4394999999999998 93
-3.1308999999999996 -0.6426000000000001 -0.1833 233
-12.226600000000001 -2.5098 1.6006 139
-12.085899999999999 -2.4805 1.874 239
-11.7422 -2.4102 2.1074 177
-2.9648000000000003 -0.5981000000000001 -0.5259 63
-2.9941000000000004 -0.604 -0.4592 104
-3.2051 -0.6465000000000001 0.1124 160
-3.0762 -0.6201 -0.3982 78
-13.5625 -2.7344 0.8027 16
-3.1035000000000004 -0.626 -0.3281 222
-13.5625 -2.7344 1.127 65
-3.0839999999999996 -0.6215999999999999 -0.2532 87
-13.476600000000001 -2.7168 1.4404 186
-3.1406 -0.6333 -0.1837 25
-12.2422 -2.4688 1.6006 113
-3.1172000000000004 -0.6284000000000001 -0.1093 167
-12.101600000000001 -2.4395 1.875 146
-3.1875 -0.6426000000000001 -0.0371 19
-11.7656 -2.3711 2.1074 119
-2.9668 -0.5874 -0.5259 12
-2.998 -0.5938 -0.4597 73
-3.2188 -0.6377 0.1128 160
-13.585899999999999 -2.6895 0.8031999999999999 153
-13.5781 -2.6895 1.127 95
-13.460899999999999 -2.6660000000000004 1.4375 107
-3.0839999999999996 -0.6108 -0.18030000000000002 19
-12.2578 -2.4277 1.6025 199
-3.2012 -0.6338 -0.11220000000000001 106
-12.101600000000001 -2.3965 1.874 85
-3.1620999999999997 -0.626 -0.0368 5
-11.773399999999999 -2.3301 2.1094 154
-2.9589999999999996 -0.5752 -0.5239 6
-3.2656 -0.6347999999999999 0.038 109
-3.0077999999999996 -0.585 -0.4607 67
-3.2305 -0.6279 0.1131 48
-13.585899999999999 -2.6406 0.8027 118
-13.6172 -2.6464999999999996 1.1289 89
-13.4531 -2.6151999999999997 1.4355000000000002 60
-12.2578 -2.3828 1.6006 76
-12.093800000000002 -2.3516 1.8730000000000002 234
-11.7656 -2.2871 2.1055 68
-2.957 -0.564 -0.5234000000000001 33
-3.0 -0.5722999999999999 -0.4592 95
-3.2285000000000004 -0.6157 0.113 210
-13.585899999999999 -2.5918 0.8022 233
-13.601600000000001 -2.5938 1.127 140
-13.460899999999999 -2.5683999999999996 1.4355000000000002 128
-12.2578 -2.3379 1.5996000000000001 252
-11.8672 -2.2637 1.8359 252
-11.7578 -2.2422 2.1035 52
-2.9629000000000003 -0.5542 -0.5239 77
-2.9941000000000004 -0.5605 -0.45799999999999996 70
-3.2382999999999997 -0.606 0.11320000000000001 68
-13.585899999999999 -2.543 0.8012999999999999 146
-13.585899999999999 -2.543 1.125 188
-13.476600000000001 -2.5215 1.4365 142
-12.2422 -2.291 1.5966999999999998 217
-11.8594 -2.2188 1.8330000000000002 58
-11.773399999999999 -2.2031 2.1055 178
-2.9648000000000003 -0.5439 -0.5239 143
-2.9941000000000004 -0.5498 -0.4578 253
-3.2245999999999997 -0.5918 0.1127 132
-13.585899999999999 -2.4941 0.8012999999999999 164
-13.5781 -2.4922 1.124 190
-13.476600000000001 -2.4727 1.4355000000000002 4
-12.2422 -2.248 1.5957 92
-11.843800000000002 -2.1738 1.8291 219
-11.781199999999998 -2.1621 2.1035 183
-2.9707 -0.5342 -0.5244 4
-3.0058999999999996 -0.541 -0.4592 110
-3.207 -0.5771000000000001 0.11199999999999999 213
-13.601600000000001 -2.4473 0.8012999999999999 136
-13.585899999999999 -2.4453 1.124 161
-13.460899999999999 -2.4219 1.4336000000000002 42
-12.25 -2.2031 1.5957 134
-11.8594 -2.1348 1.8311000000000002 236
-11.773399999999999 -2.1172 2.1016 6
-2.957 -0.521 -0.522 75
-3.0039 -0.5297999999999999 -0.4587 32
-3.2089999999999996 -0.5659000000000001 0.11199999999999999 125
-13.5781 -2.3945 0.7993000000000001 58
-13.585899999999999 -2.3945 1.123 154
-13.476600000000001 -2.377 1.4336000000000002 123
-12.25 -2.1602 1.5947 193
-12.0703 -2.1289 1.8633000000000002 237
-11.773399999999999 -2.0762 2.0996 89
-2.9492000000000003 -0.5103 -0.5205 246
-3.0058999999999996 -0.52 -0.4587 234
-3.2266000000000004 -0.5576 0.1125 76
-13.5703 -2.3457 0.7988 190
-13.593800000000002 -2.3496 1.123 93
-13.4844 -2.332 1.4336000000000002 80
-12.2578 -2.1191 1.5947 60
-12.1172 -2.0938 1.8681999999999999 62
-11.75 -2.0312 2.0957 203
-2.9531 -0.5005 -0.521 90
-2.9961 -0.5078 -0.4568 170
-3.2245999999999997 -0.5464 0.1124 240
-13.5703 -2.3008 0.7983 232
-13.5781 -2.3008 1.1211 78
-13.5 -2.2891 1.4346 249
-12.2578 -2.0762 1.5937999999999999 41
-12.1172 -2.0547 1.8672 143
-11.7578 -1.9931999999999999 2.0957 142
-2.9589999999999996 -0.4905 -0.5215 128
-2.9941000000000004 -0.4961 -0.45630000000000004 147
-3.2226999999999997 -0.5342 0.11220000000000001 183
-13.5703 -2.25 0.7979 108
-13.5625 -2.248 1.1191 46
-13.523399999999999 -2.2422 1.4365 73
-12.2578 -2.0312 1.5928 171
-12.101600000000001 -2.0059 1.8643 7
-11.7656 -1.9502000000000002 2.0957 2
-2.9629000000000003 -0.4805 -0.522 204
-2.998 -0.4861 -0.45649999999999996 133
-3.2129000000000003 -0.521 0.1118 149
-13.5547 -2.1992 0.7964 182
-13.5547 -2.1973 1.1181999999999999 184
-13.523399999999999 -2.1934 1.4355000000000002 10
-12.273399999999999 -1.9893 1.5937999999999999 166
-12.101600000000001 -1.9628999999999999 1.8633000000000002 190
-11.773399999999999 -1.9091999999999998 2.0957 162
-2.957 -0.46880000000000005 -0.5205 113
-2.998 -0.4753 -0.45630000000000004 61
-3.2129000000000003 -0.5097999999999999 0.1118 241
-13.531199999999998 -2.1445 0.7944 230
-13.5078 -2.1426 1.1133 212
-13.4531 -2.1328 1.4277000000000002 163
-12.2578 -1.9434 1.5908000000000002 201
-12.101600000000001 -1.9188999999999998 1.8622999999999998 35
-11.75 -1.8622999999999998 2.0898 103
-2.9473000000000003 -0.4568 -0.5186 103
-3.0 -0.4648 -0.45630000000000004 76
-3.2226999999999997 -0.49950000000000006 0.1121 57
-13.4453 -2.084 0.7890999999999999 65
-13.4453 -2.084 1.1074 198
-13.4375 -2.084 1.4247999999999998 226
-12.2656 -1.9013999999999998 1.5908000000000002 12
-12.1172 -1.8779 1.8633000000000002 236
-11.75 -1.8213 2.0898 246
-2.9492000000000003 -0.4465 -0.5186 220
-2.9922000000000004 -0.4531 -0.4551 130
-3.2129000000000003 -0.4866 0.1117 182
-13.4375 -2.0352 0.7881 205
-13.4375 -2.0332 1.1064 7
-13.4531 -2.0371 1.4258000000000002 11
-12.2656 -1.8574000000000002 1.5897999999999999 217
-12.125 -1.8359 1.8643 222
-11.7578 -1.7803 2.0898 136
-2.9551 -0.43700000000000006 -0.5195000000000001 85
-2.9882999999999997 -0.44189999999999996 -0.45409999999999995 252
-3.2188 -0.4758 0.1118 112
-13.4453 -1.9872999999999998 0.7881 52
-13.4453 -1.9872999999999998 1.1064 255
-13.4531 -1.9883000000000002 1.4247999999999998 99
-12.273399999999999 -1.8144999999999998 1.5897999999999999 97
-12.1094 -1.791 1.8603999999999998 230
-11.7578 -1.7383000000000002 2.0879 56
-2.957 -0.4268 -0.5195000000000001 244
-2.9922000000000004 -0.4316 -0.4546 67
-3.2012 -0.4619 0.11109999999999999 139
-13.4453 -1.9404 0.7881 61
-13.4375 -1.9394999999999998 1.1055 125
-13.4375 -1.9385 1.4228999999999998 35
-12.289100000000001 -1.7725 1.5918 211
-12.093800000000002 -1.7450999999999999 1.8563999999999998 193
-11.7656 -1.6982 2.0898 48
-2.9512 -0.4153 -0.5181 10
-3.0 -0.42210000000000003 -0.45530000000000004 86
-3.207 -0.4512 0.11130000000000001 212
-13.4375 -1.8906 0.7870999999999999 38
-13.4531 -1.8925999999999998 1.1055 182
-13.4297 -1.8896000000000002 1.4209 69
-12.289100000000001 -1.7294999999999998 1.5918 62
-12.1172 -1.7050999999999998 1.8594 142
-11.7578 -1.6543 2.0859 50
-2.9452999999999996 -0.40380000000000005 -0.5166 164
-3.0 -0.41159999999999997 -0.45530000000000004 85
-3.207 -0.4399 0.11130000000000001 120
-13.4297 -1.8428 0.7861 61
-13.4375 -1.8428 1.1045 20
-13.4453 -1.8437999999999999 1.4209 69
-12.273399999999999 -1.6836000000000002 1.5878999999999999 87
-12.1172 -1.6621000000000001 1.8584 238
-11.75 -1.6113 2.084 104
-2.9492000000000003 -0.39399999999999996 -0.5176 213
-2.9922000000000004 -0.39990000000000003 -0.4539 251
-3.2051 -0.4282 0.11109999999999999 44
-13.4297 -1.7938999999999998 0.7856000000000001 21
-13.4453 -1.7969 1.1045 247
-12.5156 -1.6719 1.3222999999999998 106
-12.2656 -1.6387 1.5859 47
-12.1172 -1.6181999999999999 1.8574000000000002 170
-11.7578 -1.5713 2.084 207
-2.9589999999999996 -0.3848 -0.5186 94
-2.9844 -0.3882 -0.4524 168
-3.2031 -0.4165 0.111 156
-12.5078 -1.6269999999999998 0.7314 134
-12.5 -1.625 1.0254 254
-12.4922 -1.625 1.3193000000000001 171
-12.273399999999999 -1.5957 1.5859 204
-12.1172 -1.5762 1.8574000000000002 77
-11.7578 -1.5293 2.082 108
-2.9531 -0.3735 -0.5176 161
-2.9882999999999997 -0.3779 -0.4526 254
-3.1933999999999996 -0.40380000000000005 0.1106 72
-12.5156 -1.5830000000000002 0.731 63
-12.5 -1.5819999999999999 1.0254 103
-12.4297 -1.5722999999999998 1.3125 232
-12.2656 -1.5518 1.585 186
-11.9844 -1.5156 1.835 120
-11.7656 -1.4883000000000002 2.084 175
-2.9473000000000003 -0.3635 -0.5161 47
-3.0039 -0.3704 -0.4551 10
-3.2012 -0.3948 0.1108 50
-12.4219 -1.5322 0.7256 96
-12.3906 -1.5283000000000002 1.0166 108
-12.3281 -1.5205000000000002 1.3008000000000002 99
-12.273399999999999 -1.5137 1.585 232
-11.875 -1.4638999999999998 1.8174000000000001 14
-11.7422 -1.4482 2.0781 231
-2.9433999999999996 -0.353 -0.5151 23
-2.9961 -0.3594 -0.4536 159
-3.2188 -0.3862 0.1114 116
-12.3203 -1.4775 0.7192000000000001 186
-12.343800000000002 -1.4805000000000001 1.0117 90
-12.3125 -1.4766 1.2988 73
-12.2578 -1.4707 1.5830000000000002 101
-11.8828 -1.4258000000000002 1.8193000000000001 99
-11.7422 -1.4082 2.0781 235
-2.9395 -0.3406 -0.5142 54
-2.9901999999999997 -0.3467 -0.4526 198
-3.2148000000000003 -0.3726 0.1112 187
-12.3047 -1.4258000000000002 0.7182999999999999 75
-12.3047 -1.4258000000000002 1.0078 249
-12.281199999999998 -1.4238 1.2949000000000002 146
-12.25 -1.4199000000000002 1.5811000000000002 248
-11.898399999999999 -1.3788999999999998 1.8203 175
-11.7422 -1.3603999999999998 2.0762 13
-2.9452999999999996 -0.33030000000000004 -0.5151 130
-2.9863 -0.335 -0.4517 12
-3.1973000000000003 -0.3586 0.1106 142
-12.2969 -1.3799000000000001 0.7173 196
-12.3047 -1.3799000000000001 1.0078 21
-12.3047 -1.3799000000000001 1.2969 177
-12.2578 -1.375 1.5811000000000002 1
-12.093800000000002 -1.3563999999999998 1.8486000000000002 67
-11.7422 -1.3163999999999998 2.0762 164
-2.9531 -0.32130000000000003 -0.5161 137
-2.9882999999999997 -0.32520000000000004 -0.4517 223
-3.207 -0.3489 0.1108 223
-12.3125 -1.3397999999999999 0.7182999999999999 1
-12.3281 -1.3408000000000002 1.0088 112
-12.335899999999999 -1.3418 1.2988 247
-12.2578 -1.334 1.5811000000000002 211
-12.1172 -1.3184 1.8516 98
-11.75 -1.2783 2.0762 97
-2.9395 -0.3096 -0.5136999999999999 59
-3.0 -0.3159 -0.4536 118
-3.2089999999999996 -0.3379 0.1108 193
-12.3281 -1.2978999999999998 0.7182999999999999 111
-12.3594 -1.3018 1.0117 120
-12.3594 -1.3018 1.3018 150
-12.2578 -1.291 1.5800999999999998 135
-12.1094 -1.2744 1.8496000000000001 72
-11.7344 -1.2354 2.0723 99
-2.9395 -0.2991 -0.5136999999999999 221
-2.998 -0.3049 -0.45289999999999997 178
-3.2129000000000003 -0.32689999999999997 0.111 26
-12.335899999999999 -1.2549 0.7188 215
-12.4297 -1.2646 1.0166 105
-12.4375 -1.2656 1.3096 156
-12.281199999999998 -1.25 1.5830000000000002 77
-12.1172 -1.2324 1.8506 180
-11.7344 -1.1943000000000001 2.0723 173
-2.9433999999999996 -0.2893 -0.5142 83
-2.9863 -0.29350000000000004 -0.4512 192
-3.1992000000000003 -0.31420000000000003 0.1104 188
-12.4375 -1.2217 0.7245999999999999 233
-12.4844 -1.2266 1.0205 93
-12.5 -1.2275 1.3154 166
-12.4375 -1.2217 1.6016 176
-12.1172 -1.1904000000000001 1.8506 53
-11.7422 -1.1533 2.0742 28
-2.9452999999999996 -0.2788 -0.5142 156
-2.9805 -0.2822 -0.45 237
-3.1992000000000003 -0.303 0.1104 72
-12.5078 -1.1845999999999999 0.7284999999999999 55
-12.4844 -1.1826 1.0205 56
-12.5 -1.1836 1.3144999999999998 150
-12.3828 -1.1729 1.5947 65
-12.101600000000001 -1.1465 1.8477000000000001 115
-11.7422 -1.1123 2.0723 96
-2.957 -0.2698 -0.5161 44
-2.9844 -0.2722 -0.45039999999999997 91
-3.1719 -0.2891 0.1094 201
-12.4922 -1.1387 0.7271 81
-12.5 -1.1396 1.0215 30
-12.4844 -1.1387 1.3135 202
-12.4844 -1.1387 1.6074000000000002 153
-12.2969 -1.1211 1.876 19
-11.7422 -1.0703 2.0723 45
-2.9433999999999996 -0.2585 -0.5136999999999999 210
-2.9882999999999997 -0.2625 -0.4509 114
-3.1933999999999996 -0.2805 0.11019999999999999 35
-12.4922 -1.0967 0.7265999999999999 240
-12.5 -1.0977 1.0215 99
-12.4922 -1.0967 1.3135 222
-12.4844 -1.0967 1.6063999999999998 28
-12.343800000000002 -1.084 1.8828 221
-11.7344 -1.0303 2.0684 194
-2.9276999999999997 -0.24739999999999998 -0.5107 194
-3.002 -0.25370000000000004 -0.45289999999999997 160
-3.1992000000000003 -0.2703 0.1103 201
-12.468800000000002 -1.0537 0.7256 177
-12.5 -1.0566 1.0215 42
-12.4453 -1.0518 1.3086000000000002 127
-12.468800000000002 -1.0537 1.6035 129
-12.343800000000002 -1.043 1.8828 156
-11.7422 -0.9917 2.0703 211
-2.9336 -0.2371 -0.5112 230
-2.9901999999999997 -0.2416 -0.4509 223
-3.1952999999999996 -0.2583 0.11019999999999999 169
-12.4531 -1.0059 0.7241 17
-12.4453 -1.0059 1.0156 179
-12.460899999999999 -1.0068000000000001 1.3096 36
-12.4219 -1.0039 1.5977000000000001 25
-12.343800000000002 -0.9976 1.8818000000000001 164
-11.7344 -0.9481999999999999 2.0684 16
-2.9492000000000003 -0.228 -0.5142 86
-2.9726999999999997 -0.2297 -0.4482 206
-3.1660000000000004 -0.24480000000000002 0.1091 204
-12.4922 -0.9653 0.7261 20
-12.476600000000001 -0.9643999999999999 1.0186 134
-12.5 -0.9662999999999999 1.3135 8
-12.476600000000001 -0.9643999999999999 1.6044999999999998 143
-12.335899999999999 -0.9536 1.8799000000000001 246
-11.7422 -0.9077 2.0703 27
-2.9473000000000003 -0.2184 -0.5136999999999999 214
-2.9805 -0.2211 -0.4495 107
-3.1933999999999996 -0.23670000000000002 0.11 63
-12.4922 -0.9262999999999999 0.7261 198
-12.4844 -0.9253 1.0186 86
-12.4844 -0.9258 1.3115 66
-12.476600000000001 -0.9253 1.6044999999999998 186
-12.3281 -0.9140999999999999 1.8779 17
-11.7422 -0.8706 2.0684 125
-2.9355 -0.2079 -0.5112 73
-2.9901999999999997 -0.21170000000000003 -0.45039999999999997 202
-3.2012 -0.2267 0.1103 66
-12.4844 -0.8837999999999999 0.7256 33
-12.4844 -0.8843000000000001 1.0186 239
-12.476600000000001 -0.8833 1.3105000000000002 66
-12.476600000000001 -0.8833 1.6035 141
-12.343800000000002 -0.8734999999999999 1.8799000000000001 151
-11.7344 -0.8306 2.0664 179
-2.9199 -0.1956 -0.5088 130
-2.9863 -0.2 -0.45 245
-3.1797000000000004 -0.21280000000000002 0.1094 162
-12.4844 -0.8354 0.7251000000000001 151
-12.5 -0.8369 1.0195 188
-12.4844 -0.8354 1.3105000000000002 113
-12.476600000000001 -0.835 1.6025 69
-12.468800000000002 -0.835 1.8994 7
-11.8125 -0.7905 2.0801 43
-2.9395 -0.1864 -0.5117 207
-2.9882999999999997 -0.18960000000000002 -0.45 183
-3.207 -0.20350000000000001 0.1104 197
-12.4844 -0.792 0.7251000000000001 5
-12.4844 -0.792 1.0176 135
-12.4922 -0.7929999999999999 1.3115 57
-12.468800000000002 -0.7909999999999999 1.6016 189
-12.4219 -0.7881 1.8906 132
-12.3203 -0.7812 2.168 145
-2.9452999999999996 -0.1765 -0.5127 41
-2.9745999999999997 -0.1782 -0.44780000000000003 211
-3.1738 -0.19030000000000002 0.1093 114
-12.4922 -0.7484999999999999 0.7256 93
-12.476600000000001 -0.748 1.0176 63
-12.4922 -0.7484999999999999 1.3105000000000002 118
-12.468800000000002 -0.7476 1.6016 220
-12.460899999999999 -0.7465999999999999 1.8965 123
-10.1875 -0.6108 1.7919999999999998 124
-2.9433999999999996 -0.1661 -0.5127 19
-2.9844 -0.1685 -0.4495 149
-3.1719 -0.179 0.1091 164
-12.4922 -0.7051000000000001 0.7251000000000001 160
-12.476600000000001 -0.7041 1.0176 137
-12.4844 -0.7045999999999999 1.3096 76
-12.476600000000001 -0.7041 1.6025 23
-12.460899999999999 -0.7031000000000001 1.8965 93
-10.2266 -0.5771000000000001 1.7988 12
-2.9257999999999997 -0.1549 -0.5093 140
-2.9805 -0.1578 -0.4487 1
-3.1719 -0.1678 0.1091 85
-12.4844 -0.6611 0.7251000000000001 46
-12.5 -0.6616 1.0186 117
-12.468800000000002 -0.6602 1.3075999999999999 57
-12.4844 -0.6606000000000001 1.6025 19
-12.468800000000002 -0.6602 1.8975 91
-12.3828 -0.6553 2.1797 12
-2.9297000000000004 -0.1448 -0.5097999999999999 63
-2.9745999999999997 -0.147 -0.4475 227
-3.1914 -0.1578 0.10980000000000001 174
-12.4844 -0.6172 0.7245999999999999 210
-12.4922 -0.6177 1.0176 54
-12.4844 -0.6172 1.3086000000000002 5
-12.476600000000001 -0.6167 1.6006 46
-12.4922 -0.6172 1.9003999999999999 100
-12.3672 -0.6113000000000001 2.1758 70
-2.9316000000000004 -0.1351 -0.5103 20
-2.9726999999999997 -0.1371 -0.4473 52
-3.1875 -0.147 0.1096 143
-12.4844 -0.5757 0.7245999999999999 116
-12.476600000000001 -0.5752 1.0166 174
-12.4844 -0.5757 1.3086000000000002 124
-12.460899999999999 -0.5747 1.5996000000000001 49
-12.4922 -0.5757 1.9003999999999999 150
-10.2344 -0.4719 1.7988 47
-2.9433999999999996 -0.126 -0.5122 31
-2.9707 -0.12710000000000002 -0.447 190
-3.2012 -0.13699999999999998 0.1101 226
-12.4844 -0.5342 0.7245999999999999 77
-12.476600000000001 -0.5337 1.0166 34
-12.4922 -0.5347 1.3096 33
-12.468800000000002 -0.5332 1.5996000000000001 244
-12.460899999999999 -0.5332 1.8955000000000002 197
-12.375 -0.5293 2.1758 185
-2.9512 -0.11599999999999999 -0.5136999999999999 7
-2.9785000000000004 -0.11710000000000001 -0.4482 113
-3.1757999999999997 -0.12480000000000001 0.1092 79
-12.4922 -0.4907 0.7245999999999999 195
-12.468800000000002 -0.49 1.0156 228
-12.4844 -0.4905 1.3086000000000002 188
-12.476600000000001 -0.4902 1.6006 191
-12.460899999999999 -0.48950000000000005 1.8944999999999999 53
-12.3906 -0.4868 2.1797 68
-2.9395 -0.1057 -0.5112 20
-2.9882999999999997 -0.1075 -0.4495 135
-3.1738 -0.1142 0.1091 216
-12.4844 -0.449 0.7241 94
-12.476600000000001 -0.4487 1.0166 223
-12.468800000000002 -0.4485 1.3066 42
-12.476600000000001 -0.4487 1.6006 42
-12.460899999999999 -0.4482 1.8955000000000002 185
-12.3672 -0.4448 2.1738 120
-2.9276999999999997 -0.0941 -0.5088 94
-2.9805 -0.09570000000000001 -0.4482 212
-3.1952999999999996 -0.1026 0.10980000000000001 66
-12.468800000000002 -0.4006 0.7231000000000001 59
-12.476600000000001 -0.40090000000000003 1.0166 120
-12.4844 -0.4011 1.3075999999999999 229
-12.460899999999999 -0.4004 1.5986000000000002 220
-12.468800000000002 -0.4006 1.8965 56
-12.3672 -0.3972 2.1738 227
-2.9336 -0.084 -0.5103 172
-2.9745999999999997 -0.0851 -0.4473 18
-3.1952999999999996 -0.0915 0.10980000000000001 172
-12.476600000000001 -0.35719999999999996 0.7236 71
-12.476600000000001 -0.35719999999999996 1.0156 112
-12.4844 -0.3577 1.3086000000000002 213
-12.460899999999999 -0.3567 1.5977000000000001 12
-12.476600000000001 -0.35719999999999996 1.8975 228
-12.375 -0.3542 2.1758 80
-2.9452999999999996 -0.0746 -0.5122 122
-2.9688 -0.0751 -0.44630000000000003 97
-3.1875 -0.08070000000000001 0.1096 182
-12.468800000000002 -0.3157 0.7231000000000001 195
-12.468800000000002 -0.3157 1.0146 7
-12.4844 -0.3159 1.3075999999999999 87
-12.460899999999999 -0.3154 1.5977000000000001 223
-12.468800000000002 -0.3154 1.8944999999999999 128
-10.0391 -0.25420000000000004 1.7637 102
-2.9452999999999996 -0.06480000000000001 -0.5122 72
-2.9785000000000004 -0.0655 -0.44780000000000003 142
-3.1875 -0.0701 0.1096 131
-12.4844 -0.2747 0.7241 97
-12.468800000000002 -0.2742 1.0146 161
-12.4844 -0.2747 1.3075999999999999 166
-12.468800000000002 -0.2742 1.5986000000000002 22
-12.4531 -0.27390000000000003 1.8936000000000002 1
-12.406199999999998 -0.2727 2.1797 47
-2.9336 -0.0538 -0.5103 74
-2.9901999999999997 -0.0548 -0.4497 71
-3.168 -0.057999999999999996 0.10880000000000001 15
-12.476600000000001 -0.2288 0.7236 100
-12.468800000000002 -0.2286 1.0156 70
-12.468800000000002 -0.2285 1.3066 125
-12.468800000000002 -0.2285 1.5986000000000002 81
-12.460899999999999 -0.2284 1.8936000000000002 248
-12.3672 -0.2267 2.1738 6
-2.9219 -0.0434 -0.5078 24
-2.9961 -0.044500000000000005 -0.45039999999999997 116
-3.1914 -0.047400000000000005 0.1097 34
-12.460899999999999 -0.18489999999999998 0.7227 128
-12.476600000000001 -0.18510000000000001 1.0156 166
-12.476600000000001 -0.1852 1.3075999999999999 86
-12.468800000000002 -0.18489999999999998 1.5986000000000002 9
-12.468800000000002 -0.18489999999999998 1.8944999999999999 151
-12.3672 -0.18350000000000002 2.1738 99
-2.9257999999999997 -0.0332 -0.5088 12
-2.9824 -0.0338 -0.4485 125
-3.1797000000000004 -0.0361 0.1093 95
-12.468800000000002 -0.14150000000000001 0.7227 71
-12.476600000000001 -0.1416 1.0156 162
-12.476600000000001 -0.14150000000000001 1.3066 178
-12.4531 -0.1412 1.5966999999999998 229
-12.468800000000002 -0.14150000000000001 1.8944999999999999 22
-12.3672 -0.1404 2.1738 85
-2.9316000000000004 -0.023 -0.5093 167
-2.9726999999999997 -0.023399999999999997 -0.447 193
-3.1797000000000004 -0.025 0.1093 160
-12.476600000000001 -0.098 0.7231000000000001 44
-12.4531 -0.0978 1.0137 74
-12.4844 -0.0981 1.3075999999999999 143
-12.4531 -0.0978 1.5966999999999998 40
-12.460899999999999 -0.0978 1.8936000000000002 134
-12.3594 -0.0971 2.1719 168
-2.9395 -0.0128 -0.5107 18
-2.9726999999999997 -0.013000000000000001 -0.447 140
-3.1719 -0.0138 0.10890000000000001 45
-12.476600000000001 -0.054400000000000004 0.7231000000000001 28
-12.476600000000001 -0.054400000000000004 1.0156 17
-12.468800000000002 -0.054400000000000004 1.3066 104
-12.460899999999999 -0.054400000000000004 1.5977000000000001 38
-12.4531 -0.054299999999999994 1.8916 210
-12.375 -0.054000000000000006 2.1738 149
-2.9316000000000004 -0.0026 -0.5093 74
-2.9785000000000004 -0.0026 -0.4475 110
-3.1719 -0.0028000000000000004 0.10890000000000001 247
-12.460899999999999 -0.0109 0.7227 54
-12.4844 -0.0109 1.0166 128
-12.531199999999998 -0.0109 1.3125 133
-12.460899999999999 -0.0109 1.5977000000000001 58
-12.4453 -0.0109 1.8916 17
-12.375 -0.0108 2.1738 180
-2.9238 0.0066 -0.5078 51
-2.9941000000000004 0.0068000000000000005 -0.45 120
-3.1914 0.0072 0.1097 79
-12.523399999999999 0.028399999999999998 0.7261 75
-12.5625 0.0285 1.0225 26
-12.5625 0.0285 1.3163999999999998 117
-12.460899999999999 0.028300000000000002 1.5977000000000001 176
-12.4531 0.028300000000000002 1.8925999999999998 166
-12.351600000000001 0.027999999999999997 2.1699 53
-2.918 0.0163 -0.5073 59
-2.9882999999999997 0.0167 -0.449 209
-3.1797000000000004 0.0178 0.1093 14
-12.5469 0.0701 0.7275 35
-12.5781 0.0703 1.0244 173
-12.6953 0.0709 1.3291 69
-12.4531 0.0695 1.5957 119
-12.4531 0.0696 1.8925999999999998 118
-12.3672 0.0691 2.1738 17
-2.9297000000000004 0.0271 -0.5093 220
-2.9688 0.0275 -0.44630000000000003 149
-3.1914 0.029500000000000002 0.1097 27
-12.6953 0.1174 0.7358 121
-12.75 0.11800000000000001 1.0381 121
-12.773399999999999 0.1182 1.3378999999999999 104
-12.4531 0.1152 1.5957 86
-12.4531 0.1152 1.8925999999999998 213
-12.375 0.1144 2.1738 103
-2.9297000000000004 0.0374 -0.5093 168
-2.9629000000000003 0.0378 -0.44530000000000003 222
-3.1719 0.0404 0.10890000000000001 105
-12.6875 0.1616 0.7354 0
-12.7578 0.16260000000000002 1.0391 99
-12.7656 0.16269999999999998 1.3378999999999999 81
-12.4531 0.15869999999999998 1.5966999999999998 182
-12.4453 0.1586 1.8916 18
-12.3594 0.1575 2.1719 34
-2.9219 0.0479 -0.5078 222
-2.9901999999999997 0.049100000000000005 -0.4497 200
-3.1641000000000004 0.0519 0.10869999999999999 226
-12.7656 0.2095 0.7402 33
-12.7656 0.2095 1.0391 32
-12.7578 0.20920000000000002 1.3359 172
-12.460899999999999 0.2045 1.5977000000000001 199
-12.4531 0.2043 1.8936000000000002 85
-12.3594 0.2028 2.1719 224
-2.918 0.0581 -0.5073 227
-2.9941000000000004 0.0596 -0.45020000000000004 102
-3.1836 0.0634 0.1094 106
-12.7422 0.25370000000000004 0.7393000000000001 182
-12.773399999999999 0.25420000000000004 1.04 11
-12.7656 0.2539 1.3369 76
-12.4453 0.2477 1.5957 62
-12.4531 0.24780000000000002 1.8936000000000002 179
-12.351600000000001 0.2457 2.1699 79
-2.9257999999999997 0.0684 -0.5088 163
-2.9688 0.0695 -0.44630000000000003 27
-3.1757999999999997 0.07429999999999999 0.1091 202
-12.7344 0.2979 0.7383 141
-12.75 0.2981 1.0381 195
-12.773399999999999 0.2988 1.3388999999999998 105
-12.4453 0.29100000000000004 1.5957 57
-12.4531 0.2913 1.8925999999999998 105
-12.3594 0.2891 2.1719 43
-2.9316000000000004 0.0788 -0.5097999999999999 59
-2.9648000000000003 0.0797 -0.4458 43
-3.1620999999999997 0.085 0.10869999999999999 115
-12.75 0.3428 0.7397 2
-12.7578 0.34299999999999997 1.0391 111
-12.7656 0.3433 1.3378999999999999 40
-12.4453 0.3345 1.5957 87
-12.4453 0.3345 1.8916 37
-12.351600000000001 0.332 2.1719 61
-2.9452999999999996 0.08839999999999999 -0.5122 48
-2.9648000000000003 0.08900000000000001 -0.4458 243
-3.1582 0.09480000000000001 0.10859999999999999 87
-12.75 0.38280000000000003 0.7397 72
-12.7578 0.3831 1.0391 15
-12.7656 0.3833 1.3378999999999999 26
-12.4531 0.3738 1.5966999999999998 252
-12.4453 0.3735 1.8916 157
-12.3594 0.3711 2.1738 101
-2.918 0.0973 -0.5073 149
-2.9882999999999997 0.09960000000000001 -0.4495 221
-3.1855 0.1063 0.1096 251
-12.7422 0.42479999999999996 0.7387999999999999 82
-12.7656 0.42579999999999996 1.04 43
-12.7344 0.42460000000000003 1.334 239
-12.4531 0.4153 1.5977000000000001 182
-12.4453 0.415 1.8925999999999998 190
-12.351600000000001 0.4119 2.1719 98
-2.9219 0.1082 -0.5078 156
-2.9863 0.1105 -0.449 49
-3.1816000000000004 0.11779999999999999 0.1094 56
-12.6797 0.46950000000000003 0.7354 10
-12.7578 0.4722 1.0391 103
-12.7578 0.4722 1.3369 22
-12.4453 0.4607 1.5957 37
-12.4531 0.46090000000000003 1.8936000000000002 91
-12.343800000000002 0.457 2.1699 73
-2.9238 0.1185 -0.5088 198
-2.9882999999999997 0.1211 -0.4497 103
-3.1855 0.129 0.1096 115
-12.6797 0.5136999999999999 0.7358 238
-12.7578 0.5171 1.0391 235
