# .PCD v0.7 - Point Cloud Data file format
VERSION 0.7
FIELDS x y z intensity
SIZE 4 4 4 4
TYPE F F F F
COUNT 1 1 1 1
WIDTH 1302
HEIGHT 1
VIEWPOINT 0 0 0 1 0 0 0
POINTS 1302
DATA ascii
-13.335899999999999 -30.9531 3.5391000000000004 66
-13.3125 -30.8906 4.3203 53
-13.3281 -30.9375 5.1289 212
-13.335899999999999 -30.9531 -0.3933 58
-13.3125 -30.8906 5.925800000000001 195
-13.3906 -30.7812 0.3918 215
-13.3672 -30.7344 1.1689 70
-13.3828 -30.7656 1.9491999999999998 21
-13.351600000000001 -30.7031 2.7305 152
-13.3203 -30.625 3.5058999999999996 51
-3.293 -7.5703 -0.4778 179
-13.3203 -30.625 4.2891 111
-13.3125 -30.6094 5.082 178
-13.3203 -30.625 -0.3896 25
-13.2969 -30.5625 5.8711 115
-13.375 -30.4688 0.3882 106
-13.3594 -30.4375 1.1592 202
-13.351600000000001 -30.4219 1.9306999999999999 222
-13.343800000000002 -30.4062 2.7089999999999996 72
-13.3203 -30.3438 3.4785000000000004 90
-3.3262 -7.578099999999999 -0.4788 182
-13.3203 -30.3594 4.2578 47
-13.2969 -30.2969 5.0391 223
-13.3047 -30.3125 -0.3862 117
-13.281199999999998 -30.25 5.8203 29
-13.351600000000001 -30.1406 0.3845 165
-13.351600000000001 -30.1406 1.1494 85
-13.3281 -30.0938 1.9131 188
-13.3125 -30.0625 2.6816000000000004 88
-3.3379000000000003 -7.5352 -0.6694 97
-13.3125 -30.0469 3.4492000000000003 25
-3.373 -7.613300000000001 -0.4819 204
-13.2969 -30.0312 4.2188 180
-13.2969 -30.0156 5.0 13
-13.2969 -30.0312 -0.3831 192
-13.281199999999998 -29.9844 5.7734000000000005 223
-13.3672 -29.875 0.3818 72
-13.335899999999999 -29.8125 1.1387 187
-13.3203 -29.7656 1.8944999999999999 68
-13.351600000000001 -29.8281 2.6660000000000004 194
-3.3672000000000004 -7.5234000000000005 -0.6698999999999999 92
-13.3125 -29.7344 3.4199 108
-13.3047 -29.7188 4.1836 223
-13.2969 -29.7031 4.957 118
-13.3047 -29.7344 -0.3801 114
-13.281199999999998 -29.6875 5.7265999999999995 62
-13.375 -29.6094 0.37920000000000004 135
-13.3281 -29.5156 1.1289 58
-13.3125 -29.4688 1.8788999999999998 57
-13.3125 -29.4688 2.6387 88
-13.3125 -29.4844 3.3945 122
-13.2969 -29.4219 4.1484 143
-3.1620999999999997 -7.0 -0.2664 101
-13.273399999999999 -29.3906 4.9102 246
-13.2969 -29.4375 -0.377 166
-13.2656 -29.375 5.675800000000001 144
-2.8651999999999997 -6.2890999999999995 -1.2109 57
-13.343800000000002 -29.2812 0.37549999999999994 84
-13.3281 -29.25 1.1211 18
-13.2969 -29.1719 1.8633000000000002 162
-13.3125 -29.2188 2.6191000000000004 71
-13.2969 -29.1719 3.3651999999999997 240
-13.281199999999998 -29.1406 4.1133 245
-13.273399999999999 -29.1406 4.875 94
-13.281199999999998 -29.1406 -0.3738 182
-13.273399999999999 -29.125 5.636699999999999 155
-2.8867000000000003 -6.2812 -1.2109 190
-13.3281 -29.0 0.37229999999999996 172
-13.3203 -28.9688 1.1113 90
-13.2969 -28.9219 1.8486000000000002 13
-13.3203 -28.9688 2.6016000000000004 108
-13.3281 -28.9844 3.3495999999999997 33
-13.3281 -28.9844 4.0977 195
-13.351600000000001 -29.0312 4.8672 153
-13.281199999999998 -28.8906 -0.37079999999999996 10
-13.3672 -29.0781 5.636699999999999 206
-2.9199 -6.2890999999999995 -1.2158 141
-13.375 -28.8125 0.37060000000000004 44
-2.8906 -6.2265999999999995 -1.041 154
-13.3828 -28.8281 1.1084 246
-13.3906 -28.8594 1.8486000000000002 58
-13.4219 -28.9219 2.5995999999999997 72
-3.043 -6.5547 -0.5869 223
-13.4531 -28.9844 3.3555 199
-13.4531 -28.9844 4.1055 246
-13.4844 -29.0469 4.8789 33
-13.335899999999999 -28.7344 -0.36939999999999995 172
-13.4922 -29.0625 5.640599999999999 178
-2.9043 -6.199199999999999 -1.1992 146
-13.5 -28.8281 1.1094 221
-13.5156 -28.8594 1.8516 242
-2.9922000000000004 -6.386699999999999 -0.7368000000000001 118
-13.5469 -28.9219 2.6055 30
-13.5703 -28.9688 3.3574 24
-13.5781 -28.9844 4.1133 53
-13.601600000000001 -29.0312 4.8828 165
-13.6172 -29.0625 5.6523 227
-2.8535000000000004 -6.0352 -1.1699 231
-13.6172 -28.8125 1.1113 207
-13.6406 -28.8594 1.8544999999999998 115
-13.6719 -28.9219 2.6094 103
-3.5566000000000004 -7.5234000000000005 -0.6758 84
-13.6797 -28.9375 3.3613 110
-13.6953 -28.9688 4.1172 31
-13.718800000000002 -29.0156 4.8867 211
-13.601600000000001 -28.7812 -0.3713 22
-13.7422 -29.0781 5.6640999999999995 138
-2.8476999999999997 -5.9727 -1.1592 39
-13.7578 -28.8438 0.3728 227
-13.75 -28.8281 1.1143 228
-13.7578 -28.8438 1.8563999999999998 194
-13.789100000000001 -28.9219 2.6132999999999997 137
-3.8301 -8.0312 -0.7227 175
-13.8047 -28.9531 3.3672000000000004 142
-13.8281 -28.9844 4.125 14
-13.851600000000001 -29.0312 4.8984 186
-13.718800000000002 -28.75 -0.3716 238
-13.8672 -29.0781 5.671900000000001 2
-2.8476999999999997 -5.9140999999999995 -1.1504 141
-13.875 -28.8281 0.37329999999999997 151
-13.875 -28.8281 1.1152 243
-13.875 -28.8281 1.8584 28
-13.906199999999998 -28.9062 2.6172000000000004 83
-3.8632999999999997 -8.0234 -0.7236 222
-13.9375 -28.9531 3.373 53
-13.9375 -28.9688 4.1289 124
-13.960899999999999 -29.0156 4.9023 40
-13.8203 -28.7188 -0.3718 160
-13.9844 -29.0469 5.675800000000001 255
-2.8476999999999997 -5.8672 -1.1426 102
-14.0078 -28.8438 0.374 103
-3.0117000000000003 -6.203099999999999 -1.0449 165
-13.085899999999999 -26.9531 1.0439 182
-14.0078 -28.8438 1.8633000000000002 32
-14.031199999999998 -28.8906 2.6211 197
-3.9023000000000003 -8.0391 -0.7261 164
-14.0625 -28.9688 3.3789 21
-14.0547 -28.9531 4.1328 197
-14.093800000000002 -29.0312 4.9141 11
-14.1094 -29.0469 5.6875 218
-2.8495999999999997 -5.8164 -1.1348 39
-3.0233999999999996 -6.171900000000001 -1.042 36
-13.093800000000002 -26.7188 1.0371 93
-14.125 -28.8438 1.8652000000000002 26
-14.156199999999998 -28.8906 2.625 152
-3.9276999999999997 -8.0156 -0.7256 184
-14.1719 -28.9375 3.3808999999999996 168
-14.1797 -28.9531 4.1406 245
-14.218800000000002 -29.0312 4.9219 151
-13.1172 -26.7656 -0.3477 6
-14.2344 -29.0625 5.699199999999999 156
-2.8594 -5.7852 -1.1309 214
-13.218800000000002 -26.7344 0.3479 109
-13.148399999999999 -26.5938 1.0342 84
-14.25 -28.8281 1.8681999999999999 206
-14.281199999999998 -28.8906 2.6289 207
-3.9688 -8.0312 -0.728 20
-14.3047 -28.9531 3.3887 14
-14.3203 -28.9688 4.1523 212
-3.4043 -6.886699999999999 -0.2664 151
-14.343800000000002 -29.0156 4.9297 110
-13.1797 -26.6562 -0.3469 70
-14.3594 -29.0625 5.707000000000001 176
-2.8574 -5.730499999999999 -1.1220999999999999 86
-13.210899999999999 -26.5 0.3455 98
-13.2344 -26.5469 1.0342 13
-14.3672 -28.8125 1.8711000000000002 235
-14.406199999999998 -28.8906 2.6327999999999996 157
-3.9941000000000004 -8.0078 -0.7275 79
-14.4297 -28.9375 3.3945 63
-14.4453 -28.9844 4.1602 199
-14.460899999999999 -29.0 4.9375 168
-13.1875 -26.4531 -0.3447 126
-14.4844 -29.0469 5.7148 179
-2.8691000000000004 -5.707000000000001 -1.1191 174
-13.2969 -26.4375 0.3452 56
-13.2422 -26.3281 1.0273 222
-14.4922 -28.8125 1.874 126
-14.539100000000001 -28.9062 2.6406 1
-4.0391 -8.0312 -0.7304999999999999 137
-14.5625 -28.9531 3.4004000000000003 163
-14.5625 -28.9531 4.1641 246
-14.585899999999999 -29.0156 4.9453 164
-13.2031 -26.25 -0.3428 119
-14.601600000000001 -29.0312 5.7227 95
-2.8827999999999996 -5.6836 -1.1162 63
-13.414100000000001 -26.4531 0.34590000000000004 159
-13.2344 -26.0781 1.0195 177
-14.6172 -28.8125 1.8769999999999998 158
-14.664100000000001 -28.8906 2.6426 159
-4.0703 -8.0234 -0.731 118
-14.6719 -28.9219 3.4043 109
-14.6797 -28.9375 4.168 30
-14.726600000000001 -29.0312 4.957 21
-13.1953 -26.0156 -0.34009999999999996 72
-14.7344 -29.0469 5.734400000000001 172
-2.8964999999999996 -5.6602 -1.1143 124
-13.210899999999999 -25.8125 0.3381 200
-13.218800000000002 -25.8438 1.0117 198
-14.7422 -28.8125 1.8809 67
-14.781199999999998 -28.8906 2.6464999999999996 197
-4.1055 -8.0234 -0.7323999999999999 138
-14.8047 -28.9375 3.4120999999999997 217
-14.8125 -28.9531 4.1758 183
-14.843800000000002 -29.0156 4.9609 143
-13.1953 -25.7812 -0.3379 58
-14.8594 -29.0312 5.7461 108
-2.8926 -5.6015999999999995 -1.1045 137
-13.2422 -25.6562 0.3367 181
-13.2031 -25.5938 1.0039 61
-14.875 -28.8125 1.8838 171
-14.898399999999999 -28.875 2.6504000000000003 26
-4.1406 -8.0234 -0.7339 127
-14.9297 -28.9219 3.418 251
-14.9453 -28.9531 4.1875 223
-14.960899999999999 -28.9844 4.9688 250
-13.2344 -25.6406 -0.33640000000000003 27
-14.976600000000001 -29.0156 5.75 2
-13.2344 -25.4219 0.3342 250
-13.1953 -25.3594 0.9965999999999999 15
-15.0 -28.8125 1.8877000000000002 27
-15.031199999999998 -28.875 2.6543 81
-4.1719 -8.0156 -0.7343999999999999 34
-15.0547 -28.9219 3.4238 88
-15.0703 -28.9375 4.1914 51
-15.093800000000002 -28.9844 4.9766 160
-13.3281 -25.6094 -0.3367 242
-15.1094 -29.0312 5.761699999999999 70
-13.218800000000002 -25.1875 0.3318 148
-13.1953 -25.1406 0.9897 73
-15.1172 -28.7969 1.8896000000000002 120
-15.156199999999998 -28.875 2.6601999999999997 47
-4.2109 -8.0234 -0.7363 158
-15.1875 -28.9375 3.4297000000000004 255
-15.1953 -28.9375 4.1992 234
-15.218800000000002 -29.0 4.9883 75
-13.5078 -25.7344 -0.3389 252
-15.226600000000001 -29.0 5.769500000000001 152
-13.2031 -24.9219 0.3289 248
-13.1953 -24.9219 0.9829000000000001 238
-15.2422 -28.7812 1.8925999999999998 52
-15.281199999999998 -28.8594 2.6641000000000004 74
-4.2656 -8.0547 -0.7412000000000001 192
-15.3203 -28.9375 3.4355 165
-4.0 -7.5586 -0.4949 1
-15.3125 -28.9219 4.2031 52
-15.343800000000002 -28.9844 4.9961 77
-14.1172 -26.6719 -0.3521 214
-15.3594 -29.0156 5.7812 220
-13.1875 -24.7188 0.3267 122
-2.8964999999999996 -5.4297 -0.9316 163
-13.1719 -24.6875 0.9756 229
-15.3672 -28.8125 1.8975 5
-15.398399999999999 -28.8594 2.668 116
-15.4297 -28.9219 3.4395 193
-4.0273 -7.550800000000001 -0.4954 101
-15.4453 -28.9531 4.2148 93
-15.468800000000002 -29.0 5.0039 13
-14.2344 -26.6719 -0.3528 201
-15.4844 -29.0312 5.792999999999999 93
-13.1875 -24.5156 0.3247 184
-13.164100000000001 -24.4844 0.9688 243
-15.4922 -28.8125 1.9003999999999999 168
-15.523399999999999 -28.875 2.6738 28
-3.9492000000000003 -7.3438 -0.6772 79
-15.5547 -28.9375 3.4473000000000003 199
-4.0391 -7.511699999999999 -0.49340000000000006 75
-15.5625 -28.9375 4.2227 180
-15.585899999999999 -28.9844 5.0117 229
-14.3281 -26.6562 -0.353 119
-15.6094 -29.0156 5.8047 178
-13.1875 -24.3125 0.3225 201
-2.9433999999999996 -5.425800000000001 -0.9346 83
-13.1719 -24.2812 0.9623999999999999 134
-15.6172 -28.7812 1.9033000000000002 84
-15.656199999999998 -28.8594 2.6776999999999997 210
-3.9433999999999996 -7.269500000000001 -0.6718999999999999 209
-15.6797 -28.8906 3.4512 174
-15.6953 -28.9375 4.2305 72
-15.726600000000001 -28.9844 5.0234 27
-14.460899999999999 -26.6562 -0.3538 125
-15.7656 -29.0625 5.824199999999999 42
-13.156199999999998 -24.0625 0.31980000000000003 25
-13.164100000000001 -24.0781 0.9565 251
-15.7422 -28.7812 1.9062000000000001 58
-15.8281 -28.9375 2.6914 15
-3.9745999999999997 -7.265599999999999 -0.6729 90
-15.8125 -28.9062 3.457 106
-15.8203 -28.9219 4.2344 23
-15.9219 -29.0938 5.0508 72
-14.5781 -26.6406 -0.3542 210
-15.9531 -29.1562 5.8515999999999995 222
-2.9492000000000003 -5.3438 -1.0693000000000001 179
-13.156199999999998 -23.8438 0.3176 174
-2.9785000000000004 -5.3984000000000005 -0.9336 125
-13.164100000000001 -23.8594 0.9497 234
-15.8828 -28.7812 1.9102000000000001 58
-16.0 -28.9844 2.7012 4
-3.9941000000000004 -7.238300000000001 -0.6718999999999999 5
-15.9375 -28.8906 3.4629000000000003 117
-15.9531 -28.9062 4.2422 206
-16.0469 -29.0781 5.0586 58
-14.6797 -26.6094 -0.35450000000000004 171
-16.0938 -29.1719 5.8672 38
-2.9375 -5.2812 -1.0576 189
-13.156199999999998 -23.6562 0.3157 155
-2.9961 -5.386699999999999 -0.9331 40
-13.148399999999999 -23.625 0.9423999999999999 244
-16.0156 -28.7969 1.915 1
-16.1094 -28.9531 2.7031 118
-4.0195 -7.2227 -0.6714 212
-16.0781 -28.9062 3.4726999999999997 12
-4.0508 -7.2773 -0.4819 54
-16.0781 -28.9062 4.25 31
-16.2031 -29.1406 5.0781 243
-14.8281 -26.6562 -0.35600000000000004 199
-16.2344 -29.1719 5.8789 103
-2.957 -5.2734000000000005 -1.0586 145
-13.164100000000001 -23.4688 0.31370000000000003 231
-3.0 -5.3477 -0.9287000000000001 254
-13.156199999999998 -23.4531 0.9375 211
-16.1406 -28.7812 1.9169999999999998 65
-16.25 -28.9688 2.7089999999999996 206
-4.0703 -7.2578 -0.6758 167
-16.2031 -28.8906 3.4766000000000004 119
-4.0742 -7.265599999999999 -0.4819 142
-16.2188 -28.9219 4.2617 90
-16.3438 -29.1406 5.0898 39
-14.9531 -26.6719 -0.3567 245
-16.3594 -29.1719 5.890599999999999 240
-2.9961 -5.300800000000001 -1.0664 208
-13.156199999999998 -23.2812 0.3118 6
-3.002 -5.3125 -0.9238 185
-13.148399999999999 -23.2656 0.9316 164
-16.2656 -28.7969 1.9209 128
-16.3438 -28.9219 2.7108999999999996 24
-16.3125 -28.875 3.4824 119
-16.3438 -28.9375 4.2695 56
-16.5156 -29.2188 5.1094 23
-13.093800000000002 -23.1719 -0.3103 180
-16.5156 -29.2188 5.9102 37
-13.1406 -23.0625 0.3096 44
-3.0488 -5.3515999999999995 -0.9326000000000001 227
-13.1406 -23.0625 0.9253 196
-16.4062 -28.7812 1.9247999999999998 108
-16.5312 -29.0 2.7226999999999997 229
-16.4688 -28.9062 3.4922000000000004 11
-16.4688 -28.9062 4.2734 136
-16.6406 -29.1875 5.1172 31
-13.1094 -23.0 -0.3086 242
-16.6406 -29.2031 5.921900000000001 125
-3.0449 -5.300800000000001 -1.0703 10
-13.1406 -22.875 0.30760000000000004 228
-3.0664 -5.3398 -0.9320999999999999 230
-13.1328 -22.8594 0.9189 178
-16.5312 -28.7656 1.9268 187
-16.6094 -28.9219 2.7207 213
-16.5938 -28.875 3.4961 213
-16.5938 -28.8906 4.2812 99
-16.7969 -29.2188 5.1328 88
-13.1172 -22.8281 -0.3069 29
-16.7812 -29.2031 5.9297 235
-3.0723000000000003 -5.3047 -1.0742 163
-3.0858999999999996 -5.328099999999999 -0.9326000000000001 188
-13.1328 -22.6719 0.9136 14
-16.6719 -28.7812 1.9316 159
-16.8125 -29.0156 2.7363 193
-16.7344 -28.8906 3.5039 2
-16.7344 -28.9062 4.2891 131
-16.875 -29.125 5.125 25
-13.0703 -22.5625 -0.304 103
-16.9219 -29.2031 5.9453 219
-3.0858999999999996 -5.2852 -1.0713 54
-3.1211 -5.3438 -0.937 225
-13.1328 -22.4844 0.9077 87
-13.1406 -22.5 1.5137 11
-16.9531 -29.0312 2.7422000000000004 222
-16.8594 -28.8594 3.5077999999999996 42
-16.875 -28.9062 4.3008 72
-16.9219 -28.9844 5.1094 36
-13.0703 -22.375 -0.30219999999999997 254
-16.9375 -29.0 5.9140999999999995 127
-3.0957 -5.261699999999999 -1.0693000000000001 174
-3.1483999999999996 -5.3477 -0.9399 127
-13.125 -22.2969 0.9018999999999999 129
-13.1328 -22.3125 1.5029 223
-16.9688 -28.8438 2.7305 148
-16.9844 -28.8594 3.5156 79
-17.0 -28.8906 4.3086 30
-17.0312 -28.9375 5.1133 54
-13.1172 -22.2969 -0.3015 160
-17.0625 -28.9844 5.921900000000001 48
-3.1523000000000003 -5.3125 -1.082 166
-3.1719 -5.3477 -0.9419 5
-13.125 -22.125 0.8965000000000001 141
-13.1094 -22.0938 1.4922 225
-17.1094 -28.8281 2.7344 27
-17.125 -28.8594 3.5214999999999996 179
-17.1406 -28.8906 4.3164 187
-17.1719 -28.9375 5.125 74
-13.2578 -22.3438 -0.303 57
-17.1875 -28.9688 5.9336 26
-3.1952999999999996 -5.3438 -0.9429000000000001 12
-13.125 -21.9531 0.8911 226
-13.085899999999999 -21.8906 1.4813999999999998 210
-17.2344 -28.8125 2.7382999999999997 10
-17.2656 -28.875 3.5312 29
-17.2656 -28.875 4.3203 196
-17.2969 -28.9375 5.1328 37
-17.3281 -28.9688 5.9453 224
-3.2266000000000004 -5.3515999999999995 -1.0947 198
-3.2148000000000003 -5.332000000000001 -0.9429000000000001 147
-13.1172 -21.7656 0.8856999999999999 167
-13.093800000000002 -21.7188 1.4736000000000002 165
-17.3594 -28.7969 2.7422000000000004 170
-17.4062 -28.875 3.5370999999999997 64
-17.4219 -28.8906 4.3359 64
-17.4375 -28.9219 5.140599999999999 132
-13.4297 -22.2812 -0.3035 102
-17.4531 -28.9688 5.957000000000001 220
-3.2226999999999997 -5.3086 -1.0879 27
-3.2324 -5.3203 -0.9429000000000001 113
-13.1094 -21.5938 0.8804000000000001 254
-13.093800000000002 -21.5625 1.4647999999999999 248
-17.4844 -28.7969 2.748 24
-17.5312 -28.8594 3.5449 87
-17.5312 -28.875 4.3398 56
-17.5625 -28.9219 5.1523 146
-13.0625 -21.5156 -0.29350000000000004 209
-17.5938 -28.9531 5.9648 155
-3.2617000000000003 -5.332000000000001 -1.0947 45
-3.2266000000000004 -5.2734000000000005 -0.9359999999999999 207
-13.093800000000002 -21.4062 0.8745 215
-13.085899999999999 -21.3906 1.4561000000000002 141
-17.625 -28.7969 2.7539 116
-17.6406 -28.8438 3.5488 168
-17.6719 -28.875 4.3516 41
-17.7031 -28.9219 5.1640999999999995 250
-13.0625 -21.3438 -0.2917 79
-17.7188 -28.9688 5.980499999999999 115
-3.2812 -5.3203 -1.0947 175
-3.2422000000000004 -5.2539 -0.9351 194
-13.101600000000001 -21.2344 0.8695999999999999 158
-13.0781 -21.2031 1.4463 221
-17.7656 -28.7969 2.7598000000000003 54
-17.7969 -28.8438 3.5586 38
-17.7969 -28.8594 4.3555 47
-17.8438 -28.9219 5.175800000000001 7
-13.085899999999999 -21.2188 -0.2905 143
-17.8594 -28.9531 5.988300000000001 229
-3.2441000000000004 -5.2188 -1.0762 94
-13.093800000000002 -21.0625 0.8643000000000001 224
-13.093800000000002 -21.0469 1.4394999999999998 3
-17.9062 -28.7969 2.7656 48
-17.9375 -28.8438 3.5645 224
-17.9375 -28.8594 4.3633 196
-17.9844 -28.9375 5.1914 75
-13.0781 -21.0312 -0.2888 14
-18.0 -28.9688 6.0039 106
-3.2637 -5.2109000000000005 -1.0762 95
-13.0781 -20.875 0.8584 19
-7.625 -12.1719 0.833 159
-18.0469 -28.7969 2.7733999999999996 159
-18.0781 -28.8594 3.5742000000000003 179
-18.0781 -28.8438 4.3711 214
-18.125 -28.9219 5.199199999999999 29
-18.1406 -28.9531 6.015599999999999 13
-13.0781 -20.7031 0.8534999999999999 105
-13.0703 -20.7031 1.4219 12
-7.5312 -11.9297 1.1484 228
-6.949199999999999 -11.0 1.3633000000000002 160
-18.2188 -28.8594 4.3828 159
-18.25 -28.9062 5.207000000000001 217
-18.2812 -28.9531 6.0312 103
-3.3691000000000004 -5.296900000000001 -1.0996 13
-3.3887 -5.324199999999999 -0.9561 226
-13.0781 -20.5469 0.8486 234
-7.7539 -12.1797 0.8373999999999999 181
-7.613300000000001 -11.968800000000002 1.1553 53
-7.0547 -11.085899999999999 1.376 73
-18.4688 -29.0312 4.418 216
-13.039100000000001 -20.5 -0.8467 191
-18.6562 -29.3125 5.2890999999999995 119
-13.023399999999999 -20.4688 -0.28300000000000003 147
-18.6719 -29.3438 6.125 81
-3.3867000000000003 -5.2812 -1.0986 27
-3.4219 -5.3359000000000005 -0.9604 238
-13.0703 -20.375 0.8438 192
-7.8203 -12.1953 0.8403 52
-7.5977 -11.843800000000002 1.1455 101
-7.046900000000001 -10.9922 1.3672 114
-18.7656 -29.2656 4.4648 154
-18.8125 -29.3281 5.3086 201
-13.0469 -20.3438 -0.2817 254
-18.7969 -29.3125 6.1328 104
-3.4199 -5.292999999999999 -1.1035 48
-3.4648000000000003 -5.363300000000001 -0.9668000000000001 164
-13.0625 -20.2188 0.8389 167
-13.0703 -20.2188 1.3984 143
-7.0703 -10.9453 1.0605 114
-7.0273 -10.875 1.3563999999999998 184
-18.8906 -29.2344 4.4727 87
-13.0547 -20.2031 -0.8384 69
-18.9062 -29.25 5.3047 80
-12.9922 -20.1094 -0.2791 43
-18.9062 -29.25 6.1328 193
-3.4492000000000003 -5.296900000000001 -1.1074 55
-3.4882999999999997 -5.355499999999999 -0.9682999999999999 153
-13.0469 -20.0312 0.833 1
-7.042999999999999 -10.8125 0.748 106
-7.0625 -10.843800000000002 1.0537 245
-7.105499999999999 -10.914100000000001 1.3643 157
-19.0156 -29.2031 4.4766 247
-13.0156 -20.0 -0.8315 47
-19.0312 -29.2344 5.3125 138
-13.0 -19.9688 -0.2778 158
-19.0625 -29.2656 6.1523 253
-3.5273000000000003 -5.3789 -0.9741 17
-13.039100000000001 -19.875 0.8286 72
-6.9375 -10.5781 0.7334 167
-7.050800000000001 -10.7422 1.0459 142
-7.0586 -10.7578 1.3477000000000001 232
-13.0469 -19.8906 -1.3818000000000001 110
-7.171900000000001 -10.9297 1.6768 203
-19.2188 -29.2812 5.3359000000000005 46
-12.9844 -19.7969 -0.2759 32
-19.25 -29.3438 6.1797 76
-13.0547 -19.75 0.2759 25
-3.5469 -5.363300000000001 -0.9741 45
-6.9453 -10.5078 0.43799999999999994 21
-6.9922 -10.5781 0.7349 246
-7.015599999999999 -10.6094 1.0352 97
-7.125 -10.781199999999998 1.3535 4
-13.0 -19.6719 -1.3691 253
-7.1523 -10.8203 1.6631 51
-19.2656 -29.1562 5.324199999999999 11
-13.0078 -19.6719 -0.2749 89
-19.2656 -29.1406 6.1523 97
-13.0625 -19.6094 0.2747 54
-3.5664 -5.3515999999999995 -0.9741 200
-6.988300000000001 -10.4922 0.4385 89
-7.0312 -10.5547 0.7354 234
-7.0273 -10.5547 1.0322 199
-7.1875 -10.789100000000001 1.3584 194
-13.023399999999999 -19.5469 -1.3643 116
-7.171900000000001 -10.7656 1.6591999999999998 207
-19.2656 -28.9219 5.292999999999999 214
-13.023399999999999 -19.5469 -0.2737 187
-19.2812 -28.9375 6.125 96
-13.0547 -19.4531 0.2729 71
-7.0273 -10.468800000000002 0.4385 176
-7.109400000000001 -10.593800000000002 0.7393000000000001 36
-7.0039 -10.4297 1.0225 95
-7.3086 -10.8906 1.374 23
-13.023399999999999 -19.4062 -1.3574000000000002 100
-7.167999999999999 -10.6797 1.6484 165
-13.0156 -19.3906 -0.8140000000000001 33
-6.863300000000001 -10.2266 1.8711000000000002 194
-13.0156 -19.3906 -0.2722 77
-19.4219 -28.9219 6.136699999999999 148
-13.0469 -19.2969 0.27149999999999996 166
-13.031199999999998 -19.2812 0.8109999999999999 30
-7.167999999999999 -10.601600000000001 0.7417 176
-7.019500000000001 -10.3828 1.0205 142
-7.667999999999999 -11.343800000000002 1.4346 184
-13.0156 -19.25 -1.3496000000000001 37
-7.0039 -10.3594 1.6025 67
-13.0156 -19.25 -0.8096 173
-6.890599999999999 -10.1953 1.8700999999999999 117
-13.0 -19.2344 -0.2705 99
-19.5625 -28.9375 6.1523 75
-13.085899999999999 -19.2188 0.271 167
-13.023399999999999 -19.125 0.8062 80
-7.078099999999999 -10.398399999999999 0.7290000000000001 86
-7.144500000000001 -10.4922 1.0332 247
-7.386699999999999 -10.851600000000001 1.375 197
-13.0078 -19.1094 -1.3418 41
-7.3828 -10.843800000000002 1.6816 10
-13.0547 -19.1719 -0.8081 120
-6.886699999999999 -10.1172 1.8594 238
-13.0469 -19.1562 -0.2703 231
-7.0664 -10.375 2.2051 209
-13.101600000000001 -19.0938 0.2698 75
-13.031199999999998 -18.9844 0.8022 28
-7.113300000000001 -10.3672 0.7290000000000001 153
-7.078099999999999 -10.3125 1.0186 17
-7.8164 -11.3906 1.4472999999999998 87
-13.0078 -18.9531 -1.335 59
-19.7812 -28.8281 4.4922 33
-13.0703 -19.0469 -0.8051999999999999 170
-6.980499999999999 -10.1719 1.874 29
-13.039100000000001 -19.0 -0.2686 92
-7.140599999999999 -10.406199999999998 2.2168 158
-13.093800000000002 -18.9375 0.2683 20
-13.031199999999998 -18.8438 0.7983 18
-7.1836 -10.3906 0.7319 211
-7.0977 -10.2656 1.0156 97
-19.9062 -28.7969 3.6757999999999997 23
-13.0 -18.8125 -1.3271000000000002 249
-7.074199999999999 -10.2344 1.5947 213
-13.0625 -18.8906 -0.8003 96
-7.0312 -10.1719 1.8788999999999998 16
-13.039100000000001 -18.8594 -0.2673 40
-7.0859000000000005 -10.25 2.1895 240
-13.1406 -18.8594 0.2681 202
-13.031199999999998 -18.7031 0.7944 168
-13.0156 -18.6875 1.3222999999999998 23
-7.0078 -10.0625 0.998 96
-6.855499999999999 -9.8438 1.2559 72
-13.0 -18.6719 -1.3213 249
-7.113300000000001 -10.2109 1.5957 137
-13.0547 -18.75 -0.7959 223
-7.125 -10.2266 1.8944999999999999 128
-13.101600000000001 -18.8125 -0.2671 236
-7.046900000000001 -10.1172 2.166 224
-13.1797 -18.7812 0.2673 60
-7.8711 -11.218800000000002 0.4768 69
-7.2227 -10.2969 0.7290000000000001 69
-7.1523 -10.1953 1.0137 177
-6.9375 -9.8828 1.2646 55
-13.0 -18.5312 -1.3144999999999998 49
-7.1875 -10.2422 1.6044999999999998 219
-13.039100000000001 -18.5781 -0.7905 53
-7.0547 -10.0469 1.8662 3
-13.148399999999999 -18.7344 -0.2666 54
-7.2109000000000005 -10.273399999999999 2.2051 97
-13.218800000000002 -18.7031 0.2668 179
-7.949199999999999 -11.2422 0.479 101
-7.230499999999999 -10.2266 0.7261 34
-4.1289 -5.8398 -0.7471 188
-20.3125 -28.7188 2.8691000000000004 59
-7.0078 -9.9141 1.2715 187
-13.0 -18.3906 -1.3075999999999999 26
-7.2265999999999995 -10.2266 1.6055000000000001 63
-13.039100000000001 -18.4531 -0.7870999999999999 13
-7.0898 -10.0312 1.8662 139
-13.0781 -18.5 -0.2642 133
-7.175800000000001 -10.1484 2.1836 227
-13.210899999999999 -18.5469 0.26539999999999997 73
-7.9336 -11.1406 0.4758 215
-7.2461 -10.1719 0.7241 117
-4.207 -5.9062 -0.7578 42
-7.1562 -10.0469 1.0039 217
-6.949199999999999 -9.7578 1.2539 144
-12.9922 -18.2344 -1.2997999999999998 123
-7.175800000000001 -10.0703 1.585 231
-13.0547 -18.3281 -0.7837000000000001 71
-7.136699999999999 -10.0234 1.8691 107
-13.101600000000001 -18.3906 -0.2632 201
-7.144500000000001 -10.0312 2.1641 32
-0.5454 -0.7603 -0.1576 138
-7.9062 -11.023399999999999 0.4719 82
-6.800800000000001 -9.4766 0.6758 177
-7.2812 -10.1484 1.0166 245
-6.9922 -9.7422 1.2559 117
-12.976600000000001 -18.0938 -1.2930000000000001 67
-7.1562 -9.9766 1.5732 174
-13.0469 -18.1875 -0.7798 55
-7.203099999999999 -10.0391 1.8779 192
-13.1172 -18.2812 -0.2622 46
-7.2734000000000005 -10.1406 2.1934 187
-7.8984000000000005 -10.9297 0.4692 147
-6.8515999999999995 -9.4766 0.6777 216
-7.2539 -10.0391 1.0078 150
-7.0390999999999995 -9.7344 1.2578 19
-12.9844 -17.9531 -1.2871000000000001 188
-7.171900000000001 -9.9219 1.5693000000000001 115
-13.031199999999998 -18.0312 -0.7748999999999999 21
-7.7539 -10.726600000000001 2.0117 81
-13.039100000000001 -18.0469 -0.2595 74
-7.363300000000001 -10.1875 2.209 137
-13.3672 -18.3594 0.2646 122
-12.9922 -17.8438 0.769 93
-6.9102 -9.4844 0.6801999999999999 7
-7.2578 -9.9688 1.0029000000000001 74
-7.1172 -9.7734 1.2666 186
-12.9844 -17.8281 -1.2812000000000001 47
-7.203099999999999 -9.8906 1.5693000000000001 139
-13.023399999999999 -17.8906 -0.7709999999999999 60
-7.8086 -10.726600000000001 2.0156 101
-13.281199999999998 -18.2344 -0.26289999999999997 149
-7.3398 -10.0781 2.1914 15
-0.5532 -0.7544 -0.1576 75
-13.335899999999999 -18.1875 0.26289999999999997 86
-7.2852 -9.9297 0.4285 29
-6.9297 -9.4453 0.6792 122
-4.3477 -5.9297 -0.7681 101
-7.2890999999999995 -9.9375 1.0029000000000001 86
-7.050800000000001 -9.6172 1.248 66
-12.9844 -17.7031 -1.2744 195
-7.269500000000001 -9.9141 1.5752000000000002 17
-13.023399999999999 -17.75 -0.7670999999999999 234
-7.8711 -10.726600000000001 2.0234 85
-13.289100000000001 -18.1094 -0.26170000000000004 210
-7.386699999999999 -10.0703 2.1953 207
-0.5557 -0.7524 -0.1576 189
-13.351600000000001 -18.0781 0.262 171
-7.3086 -9.8906 0.4277 236
-6.9765999999999995 -9.4453 0.6807 1
-4.3672 -5.9140999999999995 -0.7681 248
-7.2773 -9.8516 0.9971 181
-7.140599999999999 -9.6641 1.2588 27
-12.976600000000001 -17.5625 -1.2676 24
-7.3125 -9.8984 1.5771000000000002 36
-13.031199999999998 -17.6406 -0.7642 201
-7.9648 -10.789100000000001 2.0391 1
-13.2969 -18.0 -0.261 53
-7.5039 -10.1641 2.2207 231
-13.343800000000002 -17.9375 0.2605 16
-7.355499999999999 -9.8906 0.4285 37
-6.9453 -9.3359 0.6743000000000001 215
-6.4922 -8.7266 -1.1387 232
-7.3359000000000005 -9.8672 1.001 16
-7.1914 -9.6719 1.2617 6
-12.960899999999999 -17.4219 -1.2607 23
-7.2188 -9.7109 1.5508000000000002 111
-13.023399999999999 -17.5156 -0.7603 158
-7.2227 -9.7109 1.8388999999999998 146
-13.289100000000001 -17.8594 -0.2595 143
-7.5977 -10.2109 2.2363 80
-13.3203 -17.7656 0.2588 28
-7.0352 -9.3828 0.4077 182
-6.9336 -9.25 0.6698999999999999 38
-6.4922 -8.6641 -1.1328 121
-8.6562 -11.5469 1.1748 217
-6.636699999999999 -8.8516 -0.9004000000000001 17
-7.2461 -9.6719 1.2656 194
-12.968800000000002 -17.2969 -1.2549 127
-7.238300000000001 -9.6562 1.5469 47
-13.0156 -17.3594 -0.7559 201
-7.3086 -9.75 1.8516 202
-13.273399999999999 -17.7188 -0.2581 120
-7.8438 -10.460899999999999 2.2988 101
-13.3281 -17.6562 0.25780000000000003 33
-7.0625 -9.3594 0.4075 23
-6.9961 -9.2656 0.6729 84
-6.4922 -8.6016 -1.1279000000000001 187
-7.3086 -9.6797 0.9868000000000001 92
-8.3984 -11.1328 1.4609 152
-12.960899999999999 -17.1719 -1.249 252
-7.292999999999999 -9.6641 1.5518 170
-13.0156 -17.2344 -0.7524 39
-7.3984000000000005 -9.8047 1.8662 46
-13.289100000000001 -17.6094 -0.2571 216
-7.8672 -10.4219 2.2949 183
-13.039100000000001 -17.1562 0.251 165
-7.0859000000000005 -9.3203 0.40700000000000003 193
-7.0 -9.2031 0.6704000000000001 85
-6.5039 -8.5547 -1.125 13
-7.328099999999999 -9.6328 0.9849 71
-6.5664 -8.6328 -0.8828 87
-7.390599999999999 -9.7188 1.2783 23
-6.671900000000001 -8.7734 -0.6386999999999999 10
-7.4023 -9.7344 1.5674000000000001 236
-13.0078 -17.1094 -0.7484999999999999 109
-7.417999999999999 -9.7578 1.8622999999999998 123
-12.9922 -17.0938 -0.2502 208
-7.890599999999999 -10.3828 2.291 41
-13.039100000000001 -17.0312 0.24989999999999998 44
-9.4141 -12.289100000000001 0.5386 89
-7.0234000000000005 -9.1719 0.6694 233
-6.4961 -8.4766 -1.1181999999999999 141
-7.2109000000000005 -9.4141 0.9648 130
-6.5664 -8.5703 -0.8784000000000001 128
-7.4102 -9.6719 1.2764 237
-6.671900000000001 -8.7109 -0.6357 238
-6.6914 -8.7344 1.4102000000000001 80
-13.0156 -17.0 -0.7456 191
-7.386699999999999 -9.6484 1.8457 111
-12.9844 -16.9531 -0.2489 92
-6.7734000000000005 -8.8438 1.9569999999999999 122
-13.039100000000001 -16.9062 0.2488 101
-7.449199999999999 -9.6562 0.4241 32
-7.0352 -9.1172 0.6675 53
-6.4961 -8.4219 -1.1133 215
-7.199199999999999 -9.3281 0.9590000000000001 42
-6.5586 -8.5 -0.8734999999999999 16
-7.4062 -9.6016 1.2695 0
-6.6602 -8.6328 -0.6318 247
-6.7578 -8.7578 1.4180000000000001 13
-13.0078 -16.8594 -0.7417 247
-7.519500000000001 -9.75 1.8700999999999999 136
-12.976600000000001 -16.8281 -0.24760000000000001 89
-6.8164 -8.8359 1.9609 63
-12.976600000000001 -16.7031 0.2465 160
-7.4961 -9.6484 0.42479999999999996 135
-7.2148 -9.2812 0.6816 224
-6.5039 -8.3672 -1.1094 23
-7.1797 -9.2422 0.9521 12
-6.5664 -8.4453 -0.8706 141
-7.4609000000000005 -9.6016 1.2734 150
-6.6602 -8.5703 -0.6289 243
-6.8203 -8.7734 1.4238 150
-12.9531 -16.6719 -0.7354 84
-9.0234 -11.6172 2.2363 162
-12.9531 -16.6719 -0.2458 101
-6.828099999999999 -8.7891 1.9541 204
-12.9922 -16.5938 0.24559999999999998 19
-4.1289 -5.2773 -1.0156 195
-12.968800000000002 -16.5625 0.7329000000000001 187
-4.1953 -5.359400000000001 -0.8695999999999999 45
-7.2265999999999995 -9.2344 0.6797 10
-6.5078 -8.3125 -1.1055 159
-7.167999999999999 -9.1562 0.9462999999999999 129
-6.5586 -8.375 -0.8652 101
-7.4922 -9.5703 1.2725 236
-6.8515999999999995 -8.75 1.4247999999999998 92
-12.9531 -16.5469 -0.7319 22
-7.644500000000001 -9.7656 1.8847999999999998 167
-12.9453 -16.5469 -0.24480000000000002 32
-6.765599999999999 -8.6406 1.9277000000000002 108
-12.9844 -16.4688 0.2443 144
-9.4922 -12.0469 0.5337 132
-7.261699999999999 -9.2109 0.6801999999999999 61
-6.515599999999999 -8.2656 -1.1016 253
-7.171900000000001 -9.1016 0.9429000000000001 200
-6.542999999999999 -8.3047 -0.8599 8
-7.5625 -9.5938 1.2793 21
-6.886699999999999 -8.7344 1.4258000000000002 79
-12.9453 -16.4219 -0.7284999999999999 1
-7.6602 -9.7188 1.8799000000000001 132
-12.9297 -16.4062 -0.2434 76
-6.824199999999999 -8.6562 1.9365 25
-0.5815 -0.7329000000000001 -0.1576 35
-12.976600000000001 -16.3438 0.2432 48
-4.2461 -5.3477 -1.0342 214
-12.960899999999999 -16.3281 0.7261 168
-7.2734000000000005 -9.1641 0.6777 26
-6.511699999999999 -8.2031 -1.0957 53
-7.203099999999999 -9.0703 0.9423999999999999 92
-6.542999999999999 -8.2422 -0.856 238
-7.0938 -8.9297 1.1943000000000001 105
-6.792999999999999 -8.5547 -0.6328 160
-6.925800000000001 -8.7266 1.4277000000000002 119
-12.960899999999999 -16.3281 -0.7261 165
-7.707000000000001 -9.7031 1.8838 151
-12.9219 -16.2812 -0.2422 114
-6.859400000000001 -8.6406 1.9375 8
-0.5771000000000001 -0.7212000000000001 -0.1555 245
-12.960899999999999 -16.2031 0.2418 32
-4.2695 -5.3398 -1.0361 178
-12.9531 -16.2031 0.7227 57
-7.332000000000001 -9.1641 0.6801999999999999 39
-6.5039 -8.1328 -1.0898 165
-8.8672 -11.093800000000002 1.1562000000000001 193
-6.550800000000001 -8.1953 -0.8534999999999999 143
-7.082000000000001 -8.8516 1.1875 145
-6.894500000000001 -8.6172 1.4141 171
-12.9453 -16.1875 -0.7222 86
-7.015599999999999 -8.7734 1.7069999999999999 212
-12.9297 -16.1719 -0.2412 110
-6.890599999999999 -8.6172 1.9385 92
-0.5596 -0.6948000000000001 -0.1499 182
-12.906199999999998 -16.0156 0.2397 185
-4.3008 -5.3398 -1.0391 133
-12.914100000000001 -16.0312 0.7168000000000001 75
-12.8906 -16.0 1.1924 151
-6.5 -8.0703 -1.084 118
-8.8984 -11.0469 1.1553 197
-6.5625 -8.1484 -0.8506 41
-8.8594 -11.0 1.4794999999999998 147
-6.9140999999999995 -8.5859 1.4121000000000001 215
-12.9219 -16.0469 -0.7173 5
-7.046900000000001 -8.75 1.7069999999999999 5
-12.8906 -16.0 -0.2394 216
-6.9375 -8.6094 1.9424000000000001 116
-0.6143 -0.7573000000000001 -0.1646 194
-12.914100000000001 -15.914100000000001 0.23879999999999998 184
-4.3047 -5.3086 -1.0361 255
-12.9297 -15.9453 0.7148 28
-12.9297 -15.9375 1.1914 240
-6.5 -8.0156 -1.0801 149
-7.3359000000000005 -9.0469 0.9478 196
-6.5547 -8.0781 -0.8462000000000001 201
-7.0977 -8.75 1.1797 96
-6.949199999999999 -8.5703 1.4131 14
-12.8906 -15.8906 -0.7129000000000001 72
-6.9414 -8.5547 1.6738 158
-12.8828 -15.8828 -0.23829999999999998 112
-6.9140999999999995 -8.5234 1.9277000000000002 32
-0.6221 -0.7612000000000001 -0.1659 89
-12.9219 -15.8203 0.23800000000000002 251
-4.3633 -5.3438 -1.0449 45
-9.8125 -12.0078 0.5396 224
-12.9297 -15.8203 1.1865 57
-6.5 -7.953099999999999 -1.0752 210
-7.3398 -8.9844 0.9438 131
-6.542999999999999 -8.0078 -0.8412999999999999 119
-7.140599999999999 -8.7422 1.1816 247
-6.9922 -8.5547 1.416 204
-12.8906 -15.781199999999998 -0.71 162
-6.9140999999999995 -8.4609 1.6591999999999998 52
-12.875 -15.7578 -0.2371 148
-6.9140999999999995 -8.4609 1.9188999999999998 186
-0.6196 -0.7529 -0.1646 2
-12.9219 -15.6953 0.2368 196
-4.3633 -5.300800000000001 -1.041 211
-9.875 -12.0 0.541 2
-4.4766 -5.4414 -0.9009 116
-12.914100000000001 -15.6953 1.1797 115
-6.5039 -7.9023 -1.0713 220
-7.3828 -8.9766 0.9458 169
-6.542999999999999 -7.953099999999999 -0.8379000000000001 230
-23.625 -28.7031 3.9023000000000003 59
-23.625 -28.7031 4.7773 150
-12.8828 -15.656199999999998 -0.7061 74
-6.925800000000001 -8.4141 1.6553 166
-12.8672 -15.6406 -0.23600000000000002 65
-6.9688 -8.4688 1.9258000000000002 103
-0.6172 -0.7445999999999999 -0.1631 201
-12.906199999999998 -15.5703 0.23559999999999998 225
-4.375 -5.2812 -1.0391 249
-12.906199999999998 -15.5703 0.7045999999999999 138
-6.5 -7.8438 -1.3047 57
-12.9219 -15.593800000000002 1.1758 119
-6.5 -7.8438 -1.0664 241
-7.4648 -9.0078 0.9521 74
-6.5586 -7.9140999999999995 -0.8359000000000001 130
-9.6797 -11.6797 1.5888999999999998 251
-7.0898 -8.5547 1.4238 196
-12.8906 -15.5625 -0.7041 187
-6.9414 -8.375 1.6522999999999999 182
-12.875 -15.539100000000001 -0.2351 157
-6.949199999999999 -8.3828 1.9131 169
-0.6093999999999999 -0.7304999999999999 -0.1604 19
-12.9531 -15.523399999999999 0.23550000000000001 194
-4.3867 -5.2578 -1.0381 107
-12.976600000000001 -15.5469 0.7051000000000001 248
-6.515599999999999 -7.8086 -1.3027000000000002 128
-9.0703 -10.8672 0.8208 156
-6.4922 -7.7773 -1.0605 198
-7.457000000000001 -8.9297 0.9468000000000001 91
-6.5625 -7.863300000000001 -0.833 197
-9.6562 -11.5625 1.5791 224
-7.074199999999999 -8.4766 1.4141 219
-12.9453 -15.5078 -0.7036 252
-6.9140999999999995 -8.2812 1.6387 96
-12.9531 -15.523399999999999 -0.23550000000000001 20
-7.011699999999999 -8.3984 1.9219 86
-0.6093999999999999 -0.7251000000000001 -0.1597 27
-13.0625 -15.539100000000001 0.2366 11
-13.0625 -15.539100000000001 0.7070000000000001 111
-6.5039 -7.738300000000001 -1.2949000000000002 239
-9.5156 -11.3203 0.8579000000000001 172
-6.488300000000001 -7.7227 -1.0556999999999999 67
-9.9062 -11.789100000000001 1.2539 93
-6.550800000000001 -7.792999999999999 -0.8281000000000001 188
-9.7109 -11.5547 1.5811000000000002 187
-6.957000000000001 -8.2812 1.3857 251
-6.9609000000000005 -8.2812 1.6425999999999998 65
-9.4609 -11.25 2.5839999999999996 97
-0.6147 -0.7261 -0.1604 176
-13.164100000000001 -15.5469 0.2373 202
-13.148399999999999 -15.531199999999998 0.7090000000000001 89
-6.5039 -7.6836 -1.2891 99
-9.9531 -11.7578 0.8936 243
-6.4961 -7.671900000000001 -1.0518 204
-8.0078 -9.4609 1.0088 185
-6.5547 -7.7422 -0.8251999999999999 227
-9.1797 -10.843800000000002 1.4883000000000002 116
-8.7891 -10.3828 1.7441 73
-6.8984000000000005 -8.1484 -0.3711 60
-6.980499999999999 -8.2422 1.6406 187
-13.125 -15.5078 -0.23670000000000002 212
-7.4062 -8.75 2.0137 181
-0.5918 -0.6938 -0.1534 4
-13.2344 -15.523399999999999 0.2377 176
-13.2422 -15.539100000000001 0.7109000000000001 224
-6.5 -7.6211 -1.2832 223
-10.0625 -11.8047 0.8998999999999999 158
-6.5039 -7.6289 -1.0488 177
-8.0781 -9.4688 1.0127 96
-6.5547 -7.6875 -0.8212999999999999 147
-9.2031 -10.789100000000001 1.4863 15
-7.3789 -8.6562 1.4580000000000002 17
-6.859400000000001 -8.0469 -0.3674 190
-6.8984000000000005 -8.0938 1.6152000000000002 232
-13.210899999999999 -15.4922 -0.2372 75
-9.3984 -11.023399999999999 2.5469 202
-0.6196 -0.7217 -0.1604 137
-13.281199999999998 -15.468800000000002 0.2375 67
-13.351600000000001 -15.5469 0.7139 243
-6.4961 -7.5664 -1.2773 63
-9.3516 -10.8906 0.8325 33
-6.4961 -7.5664 -1.043 146
-8.0781 -9.4062 1.0098 156
-6.5898 -7.671900000000001 -0.8228 1
-7.828099999999999 -9.1172 1.2588 97
-7.4336 -8.6562 1.4619 108
-6.832000000000001 -7.957000000000001 -0.36450000000000005 30
-6.949199999999999 -8.0938 1.6200999999999999 79
-13.3125 -15.5 -0.23800000000000002 248
-18.5938 -21.6562 5.0234 203
-0.6118 -0.7075 -0.1576 215
-13.4453 -15.5469 0.7158 92
-6.5 -7.515599999999999 -1.2725 152
-9.4688 -10.9531 0.8398 14
-6.4961 -7.511699999999999 -1.0391 231
-8.125 -9.3984 1.0107 237
-6.5859000000000005 -7.613300000000001 -0.8188 34
-7.8672 -9.1016 1.2598 197
-7.2734000000000005 -8.4141 1.4247999999999998 63
-6.824199999999999 -7.894500000000001 -0.3625 245
-6.988300000000001 -8.0781 1.6221 214
-13.406199999999998 -15.5078 -0.2389 19
-7.484400000000001 -8.6562 2.0098 213
-0.6401 -0.7354 -0.1646 148
-13.5156 -15.5156 0.7168000000000001 14
-6.5078 -7.4727 -1.2695 249
-9.4688 -10.8672 0.8359000000000001 13
-6.5078 -7.4727 -1.0371 165
-8.1641 -9.375 1.0117 183
-6.5977 -7.578099999999999 -0.8169 41
-9.2109 -10.5781 1.4697 108
-7.332000000000001 -8.4219 1.4306999999999999 136
-6.8086 -7.8203 -0.3604 62
-7.1484000000000005 -8.2109 1.6533000000000002 159
-12.968800000000002 -14.8906 -0.23 48
-7.4414 -8.5469 1.9912 83
-0.6377 -0.7271 -0.1631 153
-13.625 -15.539100000000001 0.2407 221
-8.8281 -10.0703 0.4658 227
-6.4961 -7.4102 -1.2627 51
-9.3359 -10.648399999999999 0.8218000000000001 92
-6.5 -7.4140999999999995 -1.0312000000000001 253
-8.2031 -9.3516 1.0127 184
-8.3359 -9.5078 1.3241999999999998 235
-7.109400000000001 -8.1094 1.3818000000000001 99
-6.800800000000001 -7.7578 -0.35840000000000005 90
-7.167999999999999 -8.1797 1.6522999999999999 91
-12.9531 -14.773399999999999 -0.2289 56
-7.332000000000001 -8.3594 1.9531 55
-0.6528 -0.7397 -0.1666 29
-13.718800000000002 -15.539100000000001 0.2415 196
-8.875 -10.0547 0.46659999999999996 54
-6.4922 -7.355499999999999 -1.2568000000000001 169
-9.375 -10.625 0.8218000000000001 133
-6.5 -7.3672 -1.0283 62
-8.2266 -9.3203 1.0117 188
-8.0469 -9.1172 1.2734 103
-7.125 -8.0781 1.3799000000000001 113
-6.8086 -7.7148 -0.3574 102
-7.203099999999999 -8.1641 1.6533000000000002 173
-12.9531 -14.6719 -0.228 42
-7.261699999999999 -8.2266 1.9277000000000002 221
-13.7969 -15.5156 0.2418 59
-13.8203 -15.539100000000001 0.7245999999999999 83
-6.4922 -7.3047 -1.252 2
-9.4062 -10.5781 0.8208 117
-6.5 -7.3125 -1.0234 49
-8.25 -9.2812 1.0107 37
-8.2656 -9.2969 1.3027000000000002 35
-7.375 -8.2891 1.4219 243
-6.832000000000001 -7.6836 -0.35719999999999996 49
-7.2812 -8.1875 1.6641 254
-13.773399999999999 -15.4922 -0.2416 47
-7.4140999999999995 -8.3359 1.96 231
-8.7734 -9.8047 0.4578 148
-6.5 -7.2578 -1.248 232
-9.4453 -10.5469 0.8208 205
-6.5 -7.2578 -1.0195 139
-8.3203 -9.2891 1.0146 31
-8.1953 -9.1562 1.2871000000000001 17
-8.6328 -9.6406 1.6591999999999998 185
-6.824199999999999 -7.6211 -0.3555 108
-7.2109000000000005 -8.0547 1.6425999999999998 202
-12.9922 -14.5078 -0.2268 213
-7.234400000000001 -8.0781 1.9043 55
-13.9844 -15.5156 0.2434 168
-14.0078 -15.5469 0.7290000000000001 221
-6.5 -7.2109000000000005 -1.2431999999999999 211
-14.0469 -15.585899999999999 1.2178 215
-6.4961 -7.207000000000001 -1.0156 4
-8.3828 -9.2969 1.0186 189
-8.0781 -8.9688 1.2637 94
-7.2539 -8.0469 1.3877000000000002 116
-6.8359000000000005 -7.5859000000000005 -0.3547 191
-7.1914 -7.9765999999999995 1.6309 155
-13.968800000000002 -15.5 -0.243 21
-7.2227 -8.0156 1.8955000000000002 12
-14.085899999999999 -15.523399999999999 0.2443 97
-14.0781 -15.5156 0.7295 39
-6.488300000000001 -7.1523 -1.2363 187
-14.1328 -15.5781 1.2207 49
-6.5 -7.1640999999999995 -1.0127 245
-14.1172 -15.5625 1.7128999999999999 177
-7.578099999999999 -8.3516 1.1806999999999999 250
-7.3047 -8.0547 1.3936000000000002 253
-6.8359000000000005 -7.5312 -0.35350000000000004 90
-7.1875 -7.921900000000001 1.625 86
-14.0703 -15.5078 -0.2439 110
-7.2773 -8.0234 1.9022999999999999 126
-14.1875 -15.523399999999999 0.2451 178
-8.8594 -9.6953 0.457 111
-6.484400000000001 -7.0938 -1.2314 24
-14.226600000000001 -15.5625 1.2236 94
-6.5078 -7.1172 -1.0088 28
-14.226600000000001 -15.5625 1.7187999999999999 177
-7.636699999999999 -8.3594 1.1855 188
-7.3438 -8.0312 1.3944999999999999 253
-6.863300000000001 -7.5078 -0.35350000000000004 25
-7.3438 -8.0312 1.6533000000000002 72
-14.156199999999998 -15.4844 -0.2445 78
-7.296900000000001 -7.984400000000001 1.8994 227
-14.2656 -15.5 0.2455 188
-8.9531 -9.7188 0.4597 8
-6.4922 -7.0547 -1.2275 37
-10.593800000000002 -11.5078 0.9072 255
-6.5078 -7.0703 -1.0049 16
-14.3203 -15.5547 1.7236000000000002 85
-6.375 -6.921900000000001 -0.7651 202
-7.613300000000001 -8.2734 1.1768 253
-7.9922 -8.6875 1.5127000000000002 226
-6.890599999999999 -7.484400000000001 -0.35350000000000004 222
-7.3164 -7.9453 1.6406 82
-14.2656 -15.5 -0.2455 165
-7.328099999999999 -7.9609000000000005 1.9003999999999999 121
-14.3828 -15.5156 0.2465 103
-9.2031 -9.9219 0.4707 49
-6.5 -7.0078 -1.2236 69
-10.6797 -11.523399999999999 0.9116 224
-6.511699999999999 -7.0234000000000005 -1.002 112
-14.4297 -15.5547 1.7294999999999998 9
-6.394500000000001 -6.894500000000001 -0.7646 46
-7.5938 -8.1875 1.1699 241
-7.7422 -8.3516 1.459 180
-6.9062 -7.449199999999999 -0.353 25
-10.6328 -11.468800000000002 2.3789 206
-14.375 -15.5078 -0.2463 179
-7.3711 -7.949199999999999 1.9043 82
-14.5078 -15.531199999999998 0.2477 142
-6.4922 -6.953099999999999 -1.2178 64
-14.531199999999998 -15.5625 1.2363 34
-6.511699999999999 -6.9727 -0.998 235
-8.7109 -9.3203 1.0381 211
-6.4102 -6.863300000000001 -0.7631999999999999 233
-7.6523 -8.1953 1.1738 114
-7.6914 -8.2344 1.4443000000000001 222
-6.917999999999999 -7.4062 -0.3521 142
-10.75 -11.5156 2.3945 185
-14.4844 -15.5078 -0.24719999999999998 45
-7.8828 -8.4453 2.0293 155
-14.593800000000002 -15.523399999999999 0.2483 91
-6.5273 -6.9414 -1.4463 195
-6.4922 -6.9062 -1.2139 182
-14.625 -15.5469 1.2393 3
-6.515599999999999 -6.9297 -0.9951000000000001 81
-8.7734 -9.3281 1.042 169
-6.4336 -6.8398 -0.7631999999999999 209
-7.7188 -8.2109 1.1797 152
-7.605499999999999 -8.0859 1.4228999999999998 55
-6.9453 -7.3828 -0.3521 145
-10.726600000000001 -11.406199999999998 2.3809 230
-14.5547 -15.476600000000001 -0.24760000000000001 108
-7.9727 -8.4766 2.0449 42
-14.6953 -15.5156 0.249 63
-6.5273 -6.894500000000001 -1.4413999999999998 198
-6.4922 -6.855499999999999 -1.209 34
-14.718800000000002 -15.5469 1.2431999999999999 63
-6.519500000000001 -6.8828 -0.9922 128
-8.8203 -9.3125 1.0439 106
-6.4609000000000005 -6.8203 -0.7637 123
-7.6953 -8.125 1.1719 195
-7.667999999999999 -8.0938 1.4287 197
-6.9648 -7.355499999999999 -0.3521 250
-7.675800000000001 -8.1094 1.6963 102
-14.6328 -15.4531 -0.24789999999999998 234
-7.8398 -8.2812 2.002 24
-14.781199999999998 -15.5 0.2495 118
-6.519500000000001 -6.8359000000000005 -1.4336000000000002 103
-6.4961 -6.8086 -1.2051 119
-14.8125 -15.539100000000001 1.2461 113
-6.511699999999999 -6.828099999999999 -0.9873000000000001 202
-7.953099999999999 -8.3438 0.938 131
-7.613300000000001 -7.984400000000001 1.1553 65
-6.625 -6.9453 -0.5557 64
-7.6328 -8.0078 1.4169999999999998 101
-6.9922 -7.332000000000001 -0.3521 80
-7.699199999999999 -8.0703 1.6943000000000001 19
-12.835899999999999 -13.460899999999999 -0.21660000000000001 176
-7.859400000000001 -8.2422 2.0 232
-14.875 -15.4922 0.2502 28
-6.511699999999999 -6.7812 -1.4268 68
-6.4961 -6.765599999999999 -1.2012 97
-10.9453 -11.3906 0.9165000000000001 196
-6.5234000000000005 -6.792999999999999 -0.9854 166
-8.9688 -9.3438 1.0547 75
-7.6172 -7.9336 1.1514 238
-6.6484000000000005 -6.921900000000001 -0.5557 28
-7.636699999999999 -7.953099999999999 1.4131 104
-7.0273 -7.3164 -0.3525 242
-7.734400000000001 -8.0547 1.6963 44
-12.843800000000002 -13.375 -0.2159 171
-7.796900000000001 -8.1172 1.9775 62
-14.968800000000002 -15.4844 0.251 38
-6.5078 -6.730499999999999 -1.4209 166
-9.5781 -9.9062 0.47950000000000004 142
-6.5 -6.7227 -1.1973 100
-7.9102 -8.1797 0.6592 16
-6.5273 -6.75 -0.9823999999999999 215
-11.0703 -11.4531 1.2978999999999998 187
-7.6562 -7.921900000000001 1.1533 104
-6.636699999999999 -6.8672 -0.5527000000000001 115
-7.699199999999999 -7.9648 1.4199000000000002 120
-7.0390999999999995 -7.2812 -0.3518 227
-7.7227 -7.9922 1.6885 18
-12.843800000000002 -13.281199999999998 -0.2152 62
-7.7812 -8.0469 1.9668 200
-9.5391 -9.8047 0.1591 246
-6.5039 -6.6836 -1.416 194
-9.5938 -9.8594 0.47850000000000004 207
-6.488300000000001 -6.6640999999999995 -1.1914 105
-7.8984000000000005 -8.1172 0.6562 19
-6.5312 -6.7109000000000005 -0.98 253
-8.9297 -9.1797 1.042 172
-7.6562 -7.8672 1.1494 100
-6.644500000000001 -6.828099999999999 -0.5518 38
-7.7578 -7.9727 1.4258000000000002 59
-7.0859000000000005 -7.2812 -0.353 168
-7.7422 -7.957000000000001 1.6865 47
-9.4766 -9.7344 -0.158 173
-7.8164 -8.0312 1.9687999999999999 190
-9.5391 -9.7344 0.15839999999999999 232
-6.5078 -6.636699999999999 -1.4111000000000002 202
-9.6172 -9.8047 0.4778 130
-6.4922 -6.6211 -1.1875 220
-7.890599999999999 -8.0469 0.6533 131
-6.5352 -6.667999999999999 -0.9765999999999999 200
-7.8047 -7.9648 0.9072 167
-6.6328 -6.765599999999999 -0.7705 179
-7.699199999999999 -7.855499999999999 1.1514 107
-6.6562 -6.792999999999999 -0.5508 97
-7.8359000000000005 -7.9922 1.4346 130
-7.125 -7.265599999999999 -0.35350000000000004 48
-7.7812 -7.9375 1.6885 40
-9.5 -9.6953 -0.1578 230
-7.769500000000001 -7.925800000000001 1.9502000000000002 106
-9.5625 -9.6875 0.1583 138
-6.4961 -6.578099999999999 -1.4033000000000002 168
-9.5703 -9.6953 0.4739 56
-6.488300000000001 -6.574199999999999 -1.1826 175
-7.9102 -8.0156 0.6523 186
-6.5312 -6.6172 -0.9727 255
-7.8359000000000005 -7.9375 0.9077 17
-6.6836 -6.7734000000000005 -0.7734000000000001 9
-7.7539 -7.855499999999999 1.1553 86
-7.859400000000001 -7.9609000000000005 1.4336000000000002 53
-7.1640999999999995 -7.2578 -0.35450000000000004 132
-7.7227 -7.8203 1.6699000000000002 41
-8.0234 -8.125 2.0059 39
-9.6172 -9.6719 0.1586 133
-6.4961 -6.5352 -1.3984 28
-9.5859 -9.6484 0.4731 59
-6.480499999999999 -6.519500000000001 -1.1768 3
-7.855499999999999 -7.9023 0.6455 67
-6.519500000000001 -6.5586 -0.9673 89
-7.9102 -7.957000000000001 0.9126000000000001 139
-6.6015999999999995 -6.640599999999999 -0.7612000000000001 107
-7.765599999999999 -7.8125 1.1533 208
-7.863300000000001 -7.9102 1.4297 171
-7.203099999999999 -7.2461 -0.355 98
-7.863300000000001 -7.9102 1.6943000000000001 5
-15.164100000000001 -15.2578 -0.2507 11
-7.9765999999999995 -8.0234 1.9883000000000002 190
-15.468800000000002 -15.4531 0.25489999999999996 75
-9.6484 -9.6406 0.4744 253
-6.488300000000001 -6.480499999999999 -1.1738 144
-7.8789 -7.8711 0.6455 43
-6.5234000000000005 -6.519500000000001 -0.9648 236
-7.894500000000001 -7.886699999999999 0.9077 190
-6.5977 -6.5898 -0.7578 172
-7.7812 -7.7734000000000005 1.1514 228
-11.273399999999999 -11.2656 2.0449 170
-7.2265999999999995 -7.2188 -0.355 127
-7.875 -7.8672 1.6904 228
-15.25 -15.2344 -0.25120000000000003 120
-7.8164 -7.8086 1.9404 154
-15.5703 -15.4453 0.2556 246
-6.546900000000001 -6.4922 -1.3994 116
-10.6953 -10.6094 0.5239 3
-6.480499999999999 -6.4297 -1.1689 252
-7.9453 -7.8828 0.6484000000000001 157
-6.5352 -6.484400000000001 -0.9629000000000001 112
-7.9648 -7.9023 0.9131 105
-6.582000000000001 -6.5273 -0.7534000000000001 78
-7.8125 -7.75 1.1523 116
-17.7969 -17.6562 3.2188 28
-7.300800000000001 -7.2422 -0.3574 146
-7.917999999999999 -7.855499999999999 1.6943000000000001 90
-15.351600000000001 -15.226600000000001 -0.252 113
-7.9102 -7.8438 1.9569999999999999 197
-15.6797 -15.4453 0.2563 173
-6.4961 -6.4023 -1.3838 117
-10.718800000000002 -10.5625 0.5239 71
-6.4727 -6.375 -1.1631 134
-8.0 -7.8828 0.6509 5
-6.5352 -6.4375 -0.96 147
-8.0781 -7.957000000000001 0.9224 184
-6.5898 -6.4922 -0.752 184
-7.8828 -7.765599999999999 1.1582 126
-7.8359000000000005 -7.7188 1.4091999999999998 169
-7.3398 -7.230499999999999 -0.3579 153
