# .PCD v0.7 - Point Cloud Data file format
VERSION 0.7
FIELDS x y z intensity
SIZE 4 4 4 4
TYPE F F F F
COUNT 1 1 1 1
WIDTH 1309
HEIGHT 1
VIEWPOINT 0 0 0 1 0 0 0
POINTS 1309
DATA ascii
12.6328 1.168 0.1475 49
12.6328 1.168 0.4412 20
12.6406 1.168 0.7358 85
12.6406 1.168 -1.3300999999999998 27
12.625 1.167 1.0322 188
12.6328 1.168 -1.0332 38
12.5547 1.1602 1.3213 97
12.6406 1.168 -0.7358 139
12.5547 1.1602 1.6162 80
12.6328 1.168 -0.4412 176
9.0625 0.8373999999999999 1.3809 220
12.6406 1.168 -0.1476 144
7.9609000000000005 0.7358 1.4022999999999999 119
12.6406 1.126 0.1475 37
12.625 1.125 0.4409 122
12.6328 1.126 0.7354 75
12.656199999999998 1.127 -1.3311000000000002 230
12.6328 1.125 1.0322 34
12.625 1.125 -1.0322 90
12.5547 1.1181999999999999 1.3203 43
12.6406 1.126 -0.7358 176
12.5625 1.1191 1.6162 14
12.6328 1.126 -0.4412 155
9.0391 0.8047 1.3769999999999998 27
12.625 1.124 -0.14730000000000001 184
7.988300000000001 0.7114 1.4072 109
12.648399999999999 1.082 0.1476 151
12.625 1.0801 0.4407 253
12.6328 1.0811 0.7354 148
12.656199999999998 1.083 -1.3300999999999998 22
12.6406 1.0811 1.0322 41
12.6328 1.0811 -1.0322 228
12.531199999999998 1.0723 1.3174000000000001 48
12.6328 1.0811 -0.7354 175
12.5703 1.0752 1.6172 236
12.6406 1.082 -0.4414 102
8.0625 0.6895 1.2266 36
12.601600000000001 1.0781 -0.1471 88
7.953099999999999 0.6801999999999999 1.3994 211
12.6328 1.0391 0.14730000000000001 189
12.6328 1.0391 0.4409 204
12.625 1.0381 0.7343999999999999 222
12.648399999999999 1.04 -1.3291 141
12.6406 1.0391 1.0322 148
12.6328 1.0391 -1.0322 92
12.5547 1.0322 1.3193000000000001 253
12.6328 1.0381 -0.7349 117
9.0234 0.7422 1.1592 245
12.648399999999999 1.04 -0.4414 76
8.0469 0.6616 1.2246 92
12.6172 1.0371 -0.1471 150
7.9688 0.6553 1.4022999999999999 184
12.625 0.9917 0.1472 207
12.6406 0.9926999999999999 0.4412 7
12.6328 0.9917 0.7343999999999999 227
12.6328 0.9917 -1.3271000000000002 73
12.6328 0.9917 1.0312000000000001 139
12.6406 0.9926999999999999 -1.0322 47
12.5625 0.9863 1.3193000000000001 246
12.625 0.9912000000000001 -0.7339 102
9.0156 0.7075 1.1572 8
12.6328 0.9922 -0.4407 132
8.0625 0.6328 1.2266 129
12.6406 0.9926999999999999 -0.14730000000000001 170
8.0391 0.6313 1.415 180
12.6406 0.9481999999999999 0.14730000000000001 174
12.625 0.9473 0.4404 250
12.6328 0.9478 0.7343999999999999 126
12.6328 0.9478 -1.3271000000000002 92
12.625 0.9473 1.0312000000000001 128
12.625 0.9473 -1.0303 205
9.0391 0.6777 0.9478 192
12.6328 0.9473 -0.7343999999999999 126
9.0 0.6748000000000001 1.1553 208
12.625 0.9473 -0.4404 148
12.718800000000002 0.9541 1.9385 88
12.625 0.9473 -0.1472 10
8.0859 0.6064 1.4219 141
12.6406 0.9037999999999999 0.14730000000000001 70
12.6172 0.9023 0.4399 240
12.6406 0.9037999999999999 0.7343999999999999 147
12.648399999999999 0.9043000000000001 -1.3281 131
12.6172 0.9023 1.0293 78
12.6328 0.9033 -1.0303 159
9.0 0.6436 0.9438 101
12.6328 0.9033 -0.7343999999999999 28
9.0 0.6436 1.1543 186
12.6328 0.9033 -0.4404 57
12.718800000000002 0.9092 1.9375 127
12.6172 0.9018999999999999 -0.147 234
7.9414 0.5679 1.3965 103
12.6328 0.8589 0.1472 102
12.625 0.8584 0.44020000000000004 99
12.6328 0.8589 0.7339 134
12.6406 0.8599 -1.3271000000000002 199
12.625 0.8589 1.0303 204
12.625 0.8584 -1.0303 52
8.9922 0.6113000000000001 0.9423999999999999 201
12.625 0.8584 -0.7339 30
12.718800000000002 0.8647 1.6347999999999998 60
12.6406 0.8593999999999999 -0.4404 113
9.1484 0.6221 1.3916 78
12.6094 0.8573999999999999 -0.1469 72
7.9102 0.5376 1.3906 182
12.6406 0.813 0.1472 165
12.6328 0.8125 0.44020000000000004 7
12.625 0.812 0.7334 83
12.625 0.812 -1.3252000000000002 185
8.9766 0.5771000000000001 0.731 233
12.6328 0.8125 -1.0303 38
8.9844 0.5776 0.9414 160
12.6094 0.8109999999999999 -0.7323999999999999 110
12.6797 0.8154 1.6288999999999998 82
12.6406 0.813 -0.4407 108
12.7344 0.8188 1.9394999999999998 56
12.6094 0.8109999999999999 -0.1469 210
7.890599999999999 0.5073 1.3866999999999998 225
12.625 0.7676000000000001 0.147 132
12.6406 0.769 0.4404 205
12.6328 0.7681 0.7334 22
12.6172 0.7670999999999999 -1.3241999999999998 248
8.9297 0.5429999999999999 0.7271 208
12.6406 0.7686 -1.0303 189
9.0156 0.5483 0.9448000000000001 190
12.6328 0.7681 -0.7334 68
12.6875 0.7715000000000001 1.6288999999999998 153
12.6328 0.7686 -0.44020000000000004 153
12.718800000000002 0.7734000000000001 1.9365 94
12.6172 0.7670999999999999 -0.1469 0
7.957000000000001 0.4839 1.3984 241
12.6328 0.7261 0.1471 138
12.6328 0.7261 0.4399 63
12.6328 0.7261 0.7334 9
12.6328 0.7261 -1.3252000000000002 244
8.9062 0.5122 0.7251000000000001 55
12.6172 0.7256 -1.0293 107
12.5547 0.7217 1.3174000000000001 108
12.625 0.7261 -0.7334 229
12.6953 0.7295 1.6299000000000001 147
12.6328 0.7265999999999999 -0.44020000000000004 34
12.7031 0.73 1.9336000000000002 228
12.6172 0.7256 -0.1469 150
8.5156 0.4893 1.4961000000000002 67
12.6328 0.6840999999999999 0.147 42
12.6094 0.6831 0.43920000000000003 28
12.6328 0.6846 0.7334 125
12.625 0.6836 -1.3241999999999998 250
8.8984 0.48219999999999996 0.7245999999999999 93
12.625 0.6836 -1.0293 83
12.5547 0.6797 1.3163999999999998 186
12.6328 0.6840999999999999 -0.7334 101
12.6953 0.6875 1.6309 89
12.625 0.6840999999999999 -0.4397 231
12.7031 0.688 1.9336000000000002 84
12.601600000000001 0.6826000000000001 -0.1467 108
8.5625 0.4639 1.5049000000000001 155
12.625 0.6353 0.147 108
12.6094 0.6343 0.43920000000000003 124
12.625 0.6353 0.7329000000000001 104
12.6328 0.6357 -1.3252000000000002 13
8.9219 0.4487 0.7256 64
12.6328 0.6353 -1.0293 97
12.5547 0.6313 1.3163999999999998 16
12.6172 0.6347999999999999 -0.7323999999999999 81
12.7031 0.6392 1.6309 32
12.6406 0.6357 -0.44020000000000004 21
12.710899999999999 0.6396000000000001 1.9346 159
12.593800000000002 0.6333 -0.1466 162
8.6016 0.4329 1.5116999999999998 212
12.625 0.5908 0.1469 97
12.6172 0.5908 0.43920000000000003 253
12.6094 0.5903 0.7319 82
12.6172 0.5908 -1.3232 25
12.6328 0.5913 1.0293 122
12.6328 0.5913 -1.0293 9
12.5469 0.5874 1.3154 133
12.6172 0.5903 -0.7319 139
12.6953 0.5942000000000001 1.6299000000000001 75
12.6406 0.5918 -0.44020000000000004 35
8.8125 0.41259999999999997 1.3388999999999998 202
12.593800000000002 0.5893999999999999 -0.1466 182
8.6172 0.4031 1.5127000000000002 184
12.6094 0.5483 0.1467 115
12.625 0.5488000000000001 0.4395 119
8.9453 0.3892 0.5186 18
12.6172 0.5488000000000001 -1.3232 224
12.6172 0.5483 1.0273 43
12.625 0.5488000000000001 -1.0283 220
12.5547 0.5459 1.3163999999999998 249
12.6094 0.5483 -0.7314 185
12.6797 0.5513 1.6269999999999998 237
12.6406 0.5498 -0.4399 161
8.8047 0.38280000000000003 1.3378999999999999 15
12.601600000000001 0.5478999999999999 -0.1466 118
8.6484 0.376 1.5186000000000002 211
12.625 0.5068 0.1469 193
12.6172 0.5068 0.439 95
8.9141 0.3582 0.5166 255
12.6172 0.5068 -1.3232 10
12.6094 0.5063 1.0273 81
12.6172 0.5068 -1.0273 80
12.5625 0.5044 1.3163999999999998 171
12.6172 0.5068 -0.7319 130
12.6875 0.5097999999999999 1.6279 168
12.6094 0.5063 -0.439 138
8.7969 0.3533 1.3359 196
12.6094 0.5063 -0.1467 103
8.7109 0.34990000000000004 1.5303 128
12.625 0.4631 0.1469 14
12.601600000000001 0.4622 0.4387 189
8.9062 0.3267 0.5161 199
12.625 0.4629 -1.3232 229
12.6172 0.46240000000000003 1.0273 191
12.6172 0.46259999999999996 -1.0273 176
12.539100000000001 0.46 1.3144999999999998 215
12.625 0.4629 -0.7323999999999999 55
12.6953 0.4656 1.6288999999999998 28
12.625 0.4629 -0.4395 100
8.8203 0.3235 1.3388999999999998 162
12.593800000000002 0.4619 -0.1465 118
8.8359 0.32420000000000004 1.5527000000000002 219
12.625 0.4211 0.1469 239
12.6172 0.4207 0.439 31
8.8984 0.2969 0.5156000000000001 252
12.625 0.42090000000000005 -1.3232 218
12.6172 0.4207 1.0273 14
12.6172 0.4207 -1.0273 232
12.539100000000001 0.4182 1.3144999999999998 8
12.6094 0.4204 -0.7314 213
12.6953 0.4236 1.6288999999999998 74
12.625 0.4211 -0.4395 219
8.8516 0.2952 1.3447 146
12.593800000000002 0.4199 -0.1465 218
8.8359 0.29469999999999996 1.5518 51
12.625 0.37229999999999996 0.1467 217
12.6172 0.37229999999999996 0.439 179
8.8906 0.2622 0.5146000000000001 10
12.6172 0.37229999999999996 -1.3222999999999998 204
12.6172 0.37229999999999996 1.0273 60
12.6406 0.3728 -1.0293 54
12.5469 0.3701 1.3144999999999998 44
12.593800000000002 0.3716 -0.7304999999999999 16
8.9609 0.2644 1.1475 138
12.625 0.3726 -0.4395 202
8.9219 0.2632 1.3544999999999998 249
12.593800000000002 0.3716 -0.1465 220
8.8125 0.26 1.5478999999999998 94
12.601600000000001 0.3276 0.1465 211
12.6172 0.3284 0.439 51
8.8906 0.23129999999999998 0.5146000000000001 126
12.6172 0.3281 -1.3222999999999998 156
12.6172 0.3281 1.0273 92
12.6172 0.3284 -1.0273 38
12.5547 0.3264 1.3154 140
12.601600000000001 0.32789999999999997 -0.731 55
8.9297 0.2323 1.1436 35
12.625 0.3284 -0.43920000000000003 238
9.0078 0.2343 1.3672 97
12.593800000000002 0.3276 -0.1465 169
8.9297 0.2322 1.5674000000000001 158
12.6094 0.2839 0.1466 214
12.6094 0.2839 0.4387 106
8.8984 0.2004 0.5151 198
12.6172 0.2842 -1.3222999999999998 115
12.601600000000001 0.2839 1.0264 93
12.6094 0.2839 -1.0264 194
12.5469 0.2827 1.3144999999999998 20
12.6094 0.2839 -0.731 129
8.9297 0.201 1.1436 117
12.6172 0.2842 -0.439 8
9.4141 0.2119 1.4287 123
12.601600000000001 0.2837 -0.1465 181
9.6172 0.21660000000000001 1.6885 5
12.6328 0.2404 0.1469 138
12.593800000000002 0.2396 0.43799999999999994 36
8.9141 0.1696 0.5161 242
12.625 0.2402 -1.3222999999999998 130
12.6172 0.24 1.0273 208
12.625 0.2402 -1.0273 47
12.531199999999998 0.2384 1.3125 199
12.6172 0.24 -0.7314 111
8.9141 0.1697 1.1416 96
12.625 0.2401 -0.439 223
9.4922 0.1805 1.4413999999999998 84
12.585899999999999 0.2395 -0.1464 162
9.2109 0.1753 1.6172 184
12.6328 0.1985 0.1469 254
12.6094 0.1981 0.4385 137
8.9141 0.14 0.5161 50
12.6172 0.19820000000000002 -1.3213 104
12.625 0.1984 1.0283 161
12.6094 0.1981 -1.0264 141
8.9531 0.1406 0.9359999999999999 231
12.601600000000001 0.198 -0.731 161
8.9531 0.1406 1.1465 13
12.6328 0.1985 -0.4395 69
9.4844 0.1489 1.4394999999999998 8
12.593800000000002 0.1978 -0.1464 85
9.1953 0.1444 1.6143 112
12.6172 0.1564 0.1466 177
12.6172 0.1564 0.4387 230
8.8984 0.1103 0.5151 15
12.6094 0.1562 -1.3213 246
8.9922 0.1115 0.731 27
12.6172 0.1564 -1.0273 38
8.9219 0.1106 0.9331 241
12.593800000000002 0.1561 -0.7304999999999999 138
8.9531 0.1109 1.1455 119
12.6328 0.1565 -0.43920000000000003 55
9.4531 0.11720000000000001 1.4355000000000002 16
12.593800000000002 0.156 -0.1464 185
9.3438 0.1158 1.6396000000000002 154
12.6172 0.1101 0.1466 202
8.9141 0.07780000000000001 0.3096 217
8.8906 0.0776 0.5146000000000001 96
12.601600000000001 0.11 -1.3203 123
8.9219 0.0779 0.7251000000000001 228
12.625 0.11019999999999999 -1.0273 76
8.9375 0.0779 0.9346 246
12.593800000000002 0.1099 -0.7304999999999999 130
8.9219 0.0779 1.1426 7
12.625 0.11019999999999999 -0.439 59
9.4141 0.08220000000000001 1.4287 78
8.9141 0.07780000000000001 -0.10339999999999999 72
9.1094 0.0795 1.5996000000000001 34
8.9297 0.046799999999999994 0.1035 56
8.8672 0.0464 -1.3447 225
8.8906 0.04650000000000001 0.3086 173
8.8906 0.0466 -1.1387 65
8.8984 0.0466 0.5151 103
8.9062 0.0466 -0.9316 232
8.9062 0.0466 0.7241 112
8.9219 0.0467 -0.7251000000000001 176
8.9141 0.0467 0.9320999999999999 38
8.9297 0.046799999999999994 -0.5171 10
8.9375 0.046799999999999994 1.1436 252
8.9297 0.046799999999999994 -0.31010000000000004 161
9.0078 0.0472 1.3672 31
8.9062 0.0466 -0.1033 146
8.8125 0.0461 1.5469 41
8.9219 0.015600000000000001 0.1035 120
8.8203 0.0154 -1.3388999999999998 210
8.875 0.0155 0.3081 228
8.8594 0.0155 -1.1348 153
8.9062 0.0155 0.5156000000000001 247
8.8828 0.0155 -0.9287000000000001 173
8.9219 0.015600000000000001 0.7251000000000001 119
8.8828 0.0155 -0.7222 210
8.9141 0.015600000000000001 0.9326000000000001 146
8.9062 0.0155 -0.5156000000000001 162
8.9219 0.015600000000000001 1.1416 25
8.8984 0.0155 -0.3091 174
8.9688 0.015700000000000002 1.3603999999999998 191
8.8984 0.0155 -0.10310000000000001 212
8.7578 0.015300000000000001 1.5371000000000001 40
8.9141 -0.015600000000000001 0.10339999999999999 133
8.8047 -0.0154 -1.3359 5
8.8828 -0.0155 0.30829999999999996 192
8.8281 -0.0154 -1.1299 80
8.9062 -0.0155 0.5156000000000001 177
8.8594 -0.0155 -0.9268000000000001 89
8.9297 -0.015600000000000001 0.7256 87
8.8828 -0.0155 -0.7217 31
8.9219 -0.015600000000000001 0.9331 168
8.8828 -0.0155 -0.5142 140
8.9219 -0.015600000000000001 1.1416 189
8.8906 -0.0155 -0.3086 185
8.9219 -0.015600000000000001 1.3544999999999998 146
8.8906 -0.0155 -0.10300000000000001 186
8.7656 -0.015300000000000001 1.5381 110
8.9062 -0.0435 0.1033 63
8.7969 -0.043 -1.335 225
8.8828 -0.0434 0.3086 177
8.8125 -0.0431 -1.1279000000000001 82
8.9219 -0.0436 0.5166 251
8.8438 -0.0432 -0.9248000000000001 59
8.9453 -0.0437 0.7265999999999999 228
8.8672 -0.0433 -0.7206999999999999 170
8.9531 -0.0438 0.9365000000000001 195
8.8672 -0.0433 -0.5132 9
8.9219 -0.0436 1.1416 141
8.8906 -0.0435 -0.30879999999999996 62
8.9297 -0.0436 1.3555000000000001 149
8.8906 -0.0434 -0.10300000000000001 245
8.9609 -0.0438 1.5732 223
8.9141 -0.0731 0.1033 99
8.7812 -0.07200000000000001 -1.3330000000000002 93
8.9219 -0.0732 0.3096 118
8.8203 -0.0723 -1.1289 115
8.9453 -0.07339999999999999 0.5176 13
8.8359 -0.0724 -0.9238 52
8.9688 -0.0736 0.7290000000000001 133
8.8828 -0.0729 -0.7222 3
12.531199999999998 -0.10279999999999999 1.3125 196
8.8672 -0.0727 -0.5132 58
8.9219 -0.0732 1.1416 252
8.8906 -0.0729 -0.3086 109
8.9531 -0.07339999999999999 1.3584 4
8.8984 -0.073 -0.1032 177
8.9922 -0.0737 1.5781 69
8.9219 -0.1058 0.10339999999999999 42
8.7656 -0.10400000000000001 -1.3300999999999998 72
8.9375 -0.1061 0.3103 98
8.8125 -0.10460000000000001 -1.1279000000000001 123
12.625 -0.14980000000000002 0.7319 129
8.8281 -0.1048 -0.9233 181
12.6094 -0.1497 1.0264 51
8.8594 -0.1051 -0.7197 20
12.539100000000001 -0.14880000000000002 1.3135 213
8.8828 -0.10550000000000001 -0.5142 166
12.6719 -0.15039999999999998 1.624 80
8.875 -0.10529999999999999 -0.3081 235
8.9609 -0.1063 1.3594 63
8.9062 -0.1057 -0.1033 39
8.9531 -0.1063 1.5713 82
8.9453 -0.1375 0.1038 45
8.7891 -0.1349 -1.3330000000000002 85
12.7031 -0.19510000000000002 0.44189999999999996 32
8.8047 -0.1353 -1.1279000000000001 55
12.6094 -0.1937 0.7314 137
8.8438 -0.1359 -0.9248000000000001 43
12.6094 -0.1937 1.0264 95
8.8516 -0.136 -0.7192000000000001 38
12.539100000000001 -0.1925 1.3135 91
8.875 -0.1364 -0.5136999999999999 85
12.6797 -0.1948 1.626 67
8.9141 -0.1368 -0.3093 238
9.3516 -0.1436 1.4188999999999998 213
8.9062 -0.1367 -0.1033 61
8.9922 -0.1382 1.5791 211
12.9531 -0.2465 0.1506 183
8.8047 -0.16760000000000003 -1.3369 75
12.8203 -0.2439 0.446 237
8.8125 -0.1677 -1.1289 58
12.6094 -0.23989999999999997 0.731 254
8.8672 -0.16870000000000002 -0.9277 123
12.6094 -0.23989999999999997 1.0264 206
8.875 -0.1689 -0.7217 8
12.523399999999999 -0.23829999999999998 1.3125 8
8.9062 -0.16940000000000002 -0.5156000000000001 130
12.6875 -0.2415 1.6269999999999998 4
9.5938 -0.1825 1.4561000000000002 235
12.8672 -0.24489999999999998 -0.1497 77
8.9922 -0.171 1.5781 181
12.7969 -0.28809999999999997 0.14880000000000002 72
8.8594 -0.19949999999999998 -1.3447 59
12.8281 -0.2888 0.44630000000000003 91
8.8516 -0.1993 -1.1338 126
12.601600000000001 -0.2837 0.7304999999999999 192
12.593800000000002 -0.2837 -1.3193000000000001 103
12.6172 -0.2842 1.0273 42
12.523399999999999 -0.282 1.3125 225
12.6875 -0.28559999999999997 1.6269999999999998 150
12.8125 -0.28859999999999997 -0.4458 49
12.7031 -0.2859 1.9306999999999999 195
12.851600000000001 -0.2893 -0.1494 16
9.0234 -0.20309999999999997 1.584 56
12.6797 -0.3276 0.14730000000000001 173
12.648399999999999 -0.32689999999999997 0.44020000000000004 10
12.601600000000001 -0.3257 0.731 77
12.593800000000002 -0.32539999999999997 -1.3193000000000001 215
12.6094 -0.3257 1.0264 187
12.7578 -0.3296 -1.0391 81
12.523399999999999 -0.3235 1.3125 121
12.789100000000001 -0.33030000000000004 -0.7417 223
12.6719 -0.3274 1.626 90
12.8594 -0.3323 -0.4473 235
12.7031 -0.3281 1.9316 148
12.914100000000001 -0.3337 -0.1501 248
9.0938 -0.2349 1.5966999999999998 184
12.9531 -0.37770000000000004 0.1506 130
12.8594 -0.37479999999999997 0.4473 78
12.6094 -0.3677 0.7314 28
12.593800000000002 -0.36719999999999997 -1.3203 14
12.601600000000001 -0.3674 1.0264 139
12.7656 -0.3721 -1.0391 249
12.523399999999999 -0.3652 1.3125 146
12.718800000000002 -0.37079999999999996 -0.7378 1
12.6797 -0.3696 1.6269999999999998 219
12.6797 -0.3696 -0.4412 50
12.7031 -0.3704 1.9316 139
12.8281 -0.374 -0.1492 130
8.8906 -0.2593 1.5605000000000002 183
12.6797 -0.4163 0.1475 115
12.718800000000002 -0.4175 0.4426 216
12.6094 -0.4138 0.7314 137
12.6094 -0.4138 -1.3213 122
12.593800000000002 -0.4133 1.0254 22
12.8047 -0.4202 -1.043 184
12.523399999999999 -0.4111 1.3125 8
12.7969 -0.4199 -0.7422 86
12.6953 -0.4165 1.6279 211
12.8281 -0.4211 -0.4465 19
12.6797 -0.4163 1.9277000000000002 239
12.8906 -0.42310000000000003 -0.1499 86
8.9453 -0.2937 1.5703 33
12.9297 -0.46950000000000003 0.15039999999999998 51
12.7578 -0.46340000000000003 0.44409999999999994 114
12.601600000000001 -0.4575 0.731 116
12.601600000000001 -0.4578 -1.3213 101
12.601600000000001 -0.4578 1.0264 164
12.726600000000001 -0.46240000000000003 -1.0371 221
12.5156 -0.4546 1.3115 97
12.726600000000001 -0.4622 -0.7383 54
12.6875 -0.4607 1.6279 2
12.835899999999999 -0.46630000000000005 -0.4468 190
12.6875 -0.46090000000000003 1.9297 212
12.8594 -0.467 -0.1495 135
8.9922 -0.3264 1.5791 179
12.8594 -0.5122 0.1497 49
12.8203 -0.5103 0.44630000000000003 150
12.593800000000002 -0.5015 0.7304999999999999 203
12.593800000000002 -0.5015 -1.3203 33
12.6094 -0.502 1.0273 180
12.8281 -0.5107 -1.0449 198
12.523399999999999 -0.4985 1.3125 219
12.7969 -0.5093 -0.7422 182
12.6719 -0.5049 1.626 224
12.75 -0.5073 -0.44380000000000003 194
12.6953 -0.5054 1.9306999999999999 157
12.6797 -0.5049 -0.1476 37
9.0 -0.3582 1.5800999999999998 101
12.710899999999999 -0.5508 0.1479 160
12.6719 -0.5488000000000001 0.4412 97
12.601600000000001 -0.5459 0.7314 9
12.585899999999999 -0.5454 -1.3193000000000001 165
12.601600000000001 -0.5454 1.0264 66
12.7969 -0.5542 -1.043 85
12.523399999999999 -0.5425 1.3135 173
12.8203 -0.5552 -0.7441 235
12.656199999999998 -0.5483 1.625 55
12.8125 -0.5547 -0.446 77
12.6953 -0.5498 1.9316 37
12.8281 -0.5557 -0.1492 88
9.7109 -0.4207 1.7069999999999999 175
12.898399999999999 -0.6015999999999999 0.1501 214
12.835899999999999 -0.5986 0.447 208
12.593800000000002 -0.5874 0.731 75
12.585899999999999 -0.5869 -1.3193000000000001 31
12.593800000000002 -0.5874 1.0264 131
12.710899999999999 -0.5928 -1.0361 18
12.523399999999999 -0.584 1.3135 77
12.6953 -0.5918 -0.7368000000000001 33
12.664100000000001 -0.5903 1.625 78
12.664100000000001 -0.5903 -0.4409 143
12.6797 -0.5913 1.9297 145
12.7578 -0.5947 -0.1484 243
9.7031 -0.4524 1.7050999999999998 175
12.6719 -0.6333 0.1475 223
12.8047 -0.6396000000000001 0.4458 158
12.601600000000001 -0.6294 0.7314 5
12.593800000000002 -0.6294 -1.3213 114
12.593800000000002 -0.6294 1.0264 163
12.7969 -0.6392 -1.043 185
12.523399999999999 -0.626 1.3135 122
12.8125 -0.6401 -0.7441 44
12.664100000000001 -0.6328 1.626 164
12.8203 -0.6406000000000001 -0.4465 89
12.6719 -0.6333 1.9287 70
12.6719 -0.6333 -0.1475 52
9.7266 -0.4861 1.71 181
12.7656 -0.6846 0.14859999999999998 40
12.6406 -0.6777 0.44020000000000004 106
12.593800000000002 -0.6758 0.7314 152
12.601600000000001 -0.6758 -1.3213 140
12.593800000000002 -0.6758 1.0264 17
12.75 -0.6840999999999999 -1.0391 95
12.5156 -0.6714 1.3125 174
12.773399999999999 -0.6851 -0.7412000000000001 39
12.6719 -0.6797 1.6269999999999998 205
12.8281 -0.688 -0.447 191
12.6875 -0.6807 1.9306999999999999 18
12.789100000000001 -0.6859999999999999 -0.1489 241
13.1094 -0.7031000000000001 2.3086 50
12.8906 -0.7368000000000001 0.1501 254
12.8125 -0.7319 0.44630000000000003 180
12.593800000000002 -0.7192000000000001 0.731 20
12.601600000000001 -0.7197 -1.3213 241
12.601600000000001 -0.7202 1.0273 217
12.8203 -0.7323999999999999 -1.0449 115
12.523399999999999 -0.7153 1.3135 5
12.75 -0.7284999999999999 -0.7402 114
12.656199999999998 -0.7231000000000001 1.625 181
12.664100000000001 -0.7236 -0.4412 4
12.7031 -0.7256 1.9336000000000002 107
12.6094 -0.7206999999999999 -0.1469 87
13.0703 -0.7465999999999999 2.3008 193
12.7031 -0.7705 0.1479 244
12.6719 -0.7681 0.4414 53
12.585899999999999 -0.7631999999999999 0.731 15
12.593800000000002 -0.7637 -1.3213 145
12.593800000000002 -0.7637 1.0264 11
12.8125 -0.7768999999999999 -1.0449 107
12.5156 -0.7593000000000001 1.3135 25
12.8047 -0.7764 -0.7437 13
12.648399999999999 -0.7670999999999999 1.625 53
12.843800000000002 -0.7787999999999999 -0.44780000000000003 231
12.6953 -0.7695000000000001 1.9325999999999999 99
12.8047 -0.7764 -0.1492 236
12.9531 -0.7856000000000001 2.2812 26
12.9375 -0.8301000000000001 0.1508 98
12.781199999999998 -0.8198000000000001 0.4456 132
12.593800000000002 -0.8081 0.7319 5
12.601600000000001 -0.8081 -1.3222999999999998 142
12.5781 -0.8070999999999999 1.0264 194
12.7031 -0.8149 -1.0361 134
12.5156 -0.8031999999999999 1.3135 182
12.710899999999999 -0.8149 -0.7383 251
12.656199999999998 -0.812 1.626 175
12.7969 -0.8208 -0.446 167
12.6875 -0.8134999999999999 1.9316 0
12.8125 -0.8218000000000001 -0.1492 80
12.9297 -0.8295999999999999 2.2773 152
12.835899999999999 -0.8682 0.1495 237
12.781199999999998 -0.8647 0.4458 175
12.585899999999999 -0.8515999999999999 0.7314 12
12.6094 -0.8525 -1.3232 1
12.593800000000002 -0.8515999999999999 1.0273 149
12.781199999999998 -0.8647 -1.043 113
12.5156 -0.8462000000000001 1.3135 195
12.8047 -0.8662000000000001 -0.7441 95
12.656199999999998 -0.856 1.626 43
12.781199999999998 -0.8647 -0.4456 48
12.6719 -0.8569 1.9297 13
12.7031 -0.8593999999999999 -0.1481 156
12.9375 -0.875 2.2793 96
12.7422 -0.9067000000000001 0.14859999999999998 78
12.648399999999999 -0.8998999999999999 0.4412 231
12.585899999999999 -0.8955 0.7314 94
12.6094 -0.897 -1.3241999999999998 119
12.601600000000001 -0.8965000000000001 1.0283 184
12.75 -0.9072 -1.041 56
12.5 -0.8892 1.3125 223
12.781199999999998 -0.9097 -0.7432 218
12.6719 -0.9018999999999999 1.6288999999999998 37
12.8125 -0.9116 -0.4468 149
12.6719 -0.9014 1.9306999999999999 203
12.781199999999998 -0.9092 -0.1489 38
12.906199999999998 -0.9185 2.2754 100
12.875 -0.9614 0.1501 253
12.789100000000001 -0.9545999999999999 0.446 176
12.5781 -0.9395 0.7314 17
12.601600000000001 -0.9409000000000001 -1.3241999999999998 145
12.593800000000002 -0.9404 1.0283 229
12.75 -0.9521 -1.041 86
12.5078 -0.9340999999999999 1.3135 132
12.6797 -0.9462999999999999 -0.7368000000000001 123
12.656199999999998 -0.9448000000000001 1.6269999999999998 97
12.656199999999998 -0.9453 -0.4414 61
12.6797 -0.9468000000000001 1.9316 142
12.6328 -0.9429000000000001 -0.1472 109
12.914100000000001 -0.9639 2.2754 232
12.656199999999998 -0.9893000000000001 0.1476 107
12.7344 -0.9956 0.4443 197
12.5781 -0.9829000000000001 0.7314 82
12.585899999999999 -0.9839 -1.3222999999999998 145
12.585899999999999 -0.9843999999999999 1.0283 85
12.7969 -1.001 -1.0449 205
12.5078 -0.978 1.3144999999999998 62
12.789100000000001 -0.9995 -0.7437 144
12.6406 -0.9883 1.626 182
12.8125 -1.002 -0.447 41
12.6875 -0.9917 1.9346 75
12.7344 -0.9956 -0.1484 112
12.898399999999999 -1.0088 2.2734 74
12.7969 -1.0459 0.1493 238
12.726600000000001 -1.04 0.44409999999999994 182
12.593800000000002 -1.0283 0.7323999999999999 127
12.601600000000001 -1.0293 -1.3241999999999998 111
12.585899999999999 -1.0273 1.0273 10
12.6875 -1.0371 -1.0361 12
12.5156 -1.0225 1.3154 223
12.718800000000002 -1.0391 -0.7397 234
12.648399999999999 -1.0332 1.6269999999999998 156
12.8203 -1.0469 -0.4473 210
12.6719 -1.0352 1.9325999999999999 73
12.8047 -1.0459 -0.1493 43
12.906199999999998 -1.0547 2.2754 143
12.8672 -1.0967 0.1501 187
12.781199999999998 -1.0889 0.44630000000000003 168
12.593800000000002 -1.0732 0.7329000000000001 80
12.6172 -1.0752 -1.3262 157
12.585899999999999 -1.0723 1.0283 219
12.773399999999999 -1.0879 -1.043 164
12.5078 -1.0664 1.3154 32
12.8047 -1.0908 -0.7451000000000001 249
12.648399999999999 -1.0781 1.6279 193
12.7031 -1.082 -0.4434 199
12.656199999999998 -1.0781 1.9306999999999999 199
12.664100000000001 -1.0791 -0.1477 227
12.914100000000001 -1.1006 2.2773 1
12.710899999999999 -1.1279000000000001 0.1483 25
12.6328 -1.1211 0.4412 222
12.5781 -1.1162 0.7319 226
12.6172 -1.1191 -1.3271000000000002 8
12.585899999999999 -1.1162 1.0283 247
12.7969 -1.1348 -1.0459 111
12.4922 -1.1084 1.3135 24
12.8203 -1.1377 -0.7461 168
12.656199999999998 -1.123 1.6288999999999998 56
12.8203 -1.1377 -0.44780000000000003 70
12.6719 -1.124 1.9336000000000002 250
12.781199999999998 -1.1338 -0.1492 86
12.898399999999999 -1.1445 2.2754 151
12.914100000000001 -1.1904000000000001 0.1508 9
12.789100000000001 -1.1797 0.4468 186
12.5781 -1.1602 0.7319 62
12.6094 -1.1631 -1.3262 118
12.585899999999999 -1.1602 1.0283 14
12.7031 -1.1719 -1.0381 62
12.5078 -1.1543 1.3163999999999998 193
12.710899999999999 -1.1729 -0.7402 42
12.648399999999999 -1.167 1.6288999999999998 68
12.773399999999999 -1.1787 -0.44630000000000003 16
12.664100000000001 -1.168 1.9325999999999999 37
12.8047 -1.1806999999999999 -0.1494 226
12.898399999999999 -1.1895 2.2754 195
12.781199999999998 -1.2217 0.1493 105
12.8281 -1.2256 0.4482 197
12.5781 -1.2021 0.7323999999999999 210
12.593800000000002 -1.2031 -1.3252000000000002 252
12.585899999999999 -1.2031 1.0293 133
12.7344 -1.2168 -1.041 186
12.5156 -1.1963 1.3163999999999998 101
12.718800000000002 -1.2158 -0.7406999999999999 94
12.6328 -1.207 1.6269999999999998 224
12.7578 -1.2197 -0.4458 193
12.6719 -1.2119 1.9355000000000002 57
12.718800000000002 -1.2158 -0.14859999999999998 240
12.8906 -1.2314 2.2754 221
12.7422 -1.2607 0.14880000000000002 9
12.6875 -1.2549 0.4434 216
12.585899999999999 -1.2451 0.7334 100
12.5781 -1.2441 -1.3241999999999998 33
12.5625 -1.2431999999999999 1.0273 81
12.585899999999999 -1.2451 -1.0293 61
12.523399999999999 -1.2383 1.3174000000000001 44
12.6094 -1.2470999999999999 -0.7343999999999999 55
12.648399999999999 -1.251 1.6288999999999998 79
12.7031 -1.2568000000000001 -0.44380000000000003 250
12.6719 -1.2539 1.9355000000000002 238
12.7031 -1.2568000000000001 -0.1484 142
12.8906 -1.2754 2.2754 31
12.7031 -1.3056999999999999 0.1484 193
12.6875 -1.3047 0.4436 196
12.585899999999999 -1.2938999999999998 0.7334 73
12.5703 -1.2930000000000001 -1.3241999999999998 173
12.5781 -1.2938999999999998 1.0293 189
12.5703 -1.2919999999999998 -1.0283 98
12.5078 -1.2861000000000002 1.3163999999999998 64
12.585899999999999 -1.2938999999999998 -0.7334 45
12.6406 -1.2997999999999998 1.6288999999999998 8
12.585899999999999 -1.2938999999999998 -0.4399 187
12.656199999999998 -1.3018 1.9336000000000002 209
12.5703 -1.2919999999999998 -0.1469 105
12.835899999999999 -1.3203 2.2676 154
12.593800000000002 -1.3388999999999998 0.1472 203
12.5781 -1.3378999999999999 0.4399 13
12.5781 -1.3378999999999999 0.7334 144
12.5703 -1.3369 -1.3241999999999998 3
12.585899999999999 -1.3378999999999999 1.0303 159
12.5781 -1.3378999999999999 -1.0293 236
12.4922 -1.3291 1.3163999999999998 84
12.5625 -1.3359 -0.7323999999999999 120
12.656199999999998 -1.3457 1.6318000000000001 123
12.585899999999999 -1.3388999999999998 -0.44020000000000004 92
12.664100000000001 -1.3466999999999998 1.9355000000000002 93
12.5547 -1.335 -0.1467 97
12.781199999999998 -1.3584 2.2578 246
12.5703 -1.3788999999999998 0.147 255
12.585899999999999 -1.3799000000000001 0.44020000000000004 21
12.5703 -1.3788999999999998 0.7329000000000001 157
12.5625 -1.3779 -1.3232 115
12.585899999999999 -1.3809 1.0303 255
12.585899999999999 -1.3799000000000001 -1.0303 168
12.5 -1.3711000000000002 1.3163999999999998 254
12.5547 -1.3779 -0.7323999999999999 86
12.648399999999999 -1.3877000000000002 1.6309 52
12.593800000000002 -1.3818000000000001 -0.4407 167
12.6719 -1.3896000000000002 1.9365 24
12.5625 -1.3779 -0.147 227
12.773399999999999 -1.4013999999999998 2.2578 61
12.5703 -1.4209 0.147 73
12.585899999999999 -1.4228999999999998 0.4404 140
12.5703 -1.4209 0.7334 39
12.5625 -1.4199000000000002 -1.3241999999999998 41
12.5781 -1.4219 1.0303 100
12.5781 -1.4228999999999998 -1.0303 210
12.5078 -1.4141 1.3184 17
12.5625 -1.4209 -0.7329000000000001 2
12.6406 -1.4287 1.6309 165
12.5781 -1.4219 -0.44020000000000004 37
12.6797 -1.4325999999999999 1.9385 1
12.5625 -1.4199000000000002 -0.147 197
12.781199999999998 -1.4453 2.2617 230
12.5625 -1.4668 0.1471 140
12.5703 -1.4678 0.44020000000000004 39
12.585899999999999 -1.4697 0.7343999999999999 28
12.5625 -1.4668 -1.3252000000000002 89
12.5625 -1.4668 1.0293 121
12.5703 -1.4678 -1.0303 254
12.5078 -1.4609 1.3193000000000001 81
12.5781 -1.4687999999999999 -0.7339 115
12.6406 -1.4756 1.6309 203
12.5703 -1.4678 -0.44020000000000004 14
12.656199999999998 -1.4785 1.9365 187
12.5703 -1.4678 -0.1471 90
12.875 -1.5029 2.2773 145
12.5781 -1.5137 0.14730000000000001 153
12.5625 -1.5116999999999998 0.44020000000000004 193
12.5781 -1.5137 0.7349 40
12.5703 -1.5116999999999998 -1.3262 8
12.5781 -1.5127000000000002 1.0312000000000001 179
12.5703 -1.5116999999999998 -1.0303 236
12.5 -1.5038999999999998 1.3184 146
12.5703 -1.5127000000000002 -0.7343999999999999 141
12.648399999999999 -1.5215 1.6328 58
12.5703 -1.5127000000000002 -0.4404 250
12.648399999999999 -1.5225 1.9365 97
12.5625 -1.5116999999999998 -0.1471 146
12.8828 -1.5497999999999998 2.2812 82
12.5781 -1.5575999999999999 0.14730000000000001 208
12.5703 -1.5566 0.4404 2
12.5703 -1.5566 0.7343999999999999 125
12.5703 -1.5575999999999999 -1.3271000000000002 220
12.5781 -1.5575999999999999 1.0322 162
12.5625 -1.5566 -1.0303 235
12.4922 -1.5469 1.3184 255
12.5625 -1.5556999999999999 -0.7339 192
12.648399999999999 -1.5663999999999998 1.6338 50
12.585899999999999 -1.5586000000000002 -0.4409 144
12.656199999999998 -1.5674000000000001 1.9375 183
12.5547 -1.5547 -0.147 154
12.906199999999998 -1.5977000000000001 2.2852 198
12.5625 -1.6006 0.1472 250
12.5625 -1.6006 0.4404 114
12.5625 -1.6006 0.7343999999999999 31
12.5625 -1.6006 -1.3271000000000002 116
12.5703 -1.6016 1.0322 94
12.5781 -1.6025 -1.0322 105
12.4922 -1.5918 1.3193000000000001 74
12.5547 -1.5996000000000001 -0.7339 254
12.6406 -1.6103999999999998 1.6338 198
12.5781 -1.6025 -0.4409 226
12.664100000000001 -1.6133000000000002 1.9404 46
12.5625 -1.6006 -0.1472 146
12.914100000000001 -1.6455000000000002 2.2891 19
12.5703 -1.6455000000000002 0.14730000000000001 161
12.5781 -1.6475 0.4412 149
12.5703 -1.6455000000000002 0.7349 219
12.5547 -1.6436000000000002 -1.3262 196
12.5703 -1.6455000000000002 1.0322 83
12.5703 -1.6465 -1.0322 112
12.4922 -1.6357 1.3193000000000001 13
12.5703 -1.6455000000000002 -0.7349 167
12.6406 -1.6553 1.6338 250
12.5703 -1.6455000000000002 -0.4407 113
12.656199999999998 -1.6572 1.9394999999999998 210
12.5781 -1.6465 -0.1475 34
12.914100000000001 -1.6913999999999998 2.2891 75
12.5625 -1.6894999999999998 0.14730000000000001 215
12.5781 -1.6913999999999998 0.4412 72
12.5625 -1.6894999999999998 0.7349 124
12.5625 -1.6894999999999998 -1.3281 186
12.5547 -1.6885 1.0312000000000001 123
12.5625 -1.6894999999999998 -1.0312000000000001 56
12.5078 -1.6825999999999999 1.3222999999999998 28
12.5625 -1.6894999999999998 -0.7349 154
12.6406 -1.7002000000000002 1.6357 19
12.5625 -1.6894999999999998 -0.4407 179
12.6406 -1.7002000000000002 1.9385 52
12.5625 -1.6894999999999998 -0.14730000000000001 22
12.906199999999998 -1.7353999999999998 2.2891 167
12.5781 -1.7344 0.1476 248
12.5625 -1.7324000000000002 0.4412 82
12.5781 -1.7344 0.7358 115
12.5625 -1.7324000000000002 -1.3281 124
12.5625 -1.7324000000000002 1.0322 229
12.5547 -1.7313999999999998 -1.0312000000000001 92
12.4922 -1.7227000000000001 1.3213 238
12.5703 -1.7334 -0.7354 6
12.656199999999998 -1.7441 1.6377000000000002 87
12.5703 -1.7334 -0.4414 142
12.6406 -1.7422 1.9394999999999998 237
12.5547 -1.7313999999999998 -0.14730000000000001 58
12.906199999999998 -1.7793 2.2891 177
12.5781 -1.7763999999999998 0.1477 147
12.5625 -1.7753999999999999 0.4414 247
12.5625 -1.7753999999999999 0.7358 102
12.5703 -1.7753999999999999 -1.3300999999999998 83
12.5703 -1.7753999999999999 1.0332 7
12.5547 -1.7734 -1.0322 51
12.4844 -1.7627000000000002 1.3203 107
12.5547 -1.7734 -0.7354 199
12.648399999999999 -1.7871000000000001 1.6377000000000002 146
12.5625 -1.7744 -0.4412 242
12.6328 -1.7841999999999998 1.9394999999999998 110
12.5469 -1.7725 -0.14730000000000001 142
12.898399999999999 -1.8213 2.2891 117
12.5703 -1.8232 0.1477 129
12.5703 -1.8222999999999998 0.44170000000000004 25
12.5469 -1.8193000000000001 0.7349 13
12.5625 -1.8213 -1.3300999999999998 174
12.5781 -1.8232 1.0342 95
12.5625 -1.8222999999999998 -1.0332 223
12.4922 -1.8115 1.3222999999999998 74
12.5469 -1.8193000000000001 -0.7354 183
12.6406 -1.8330000000000002 1.6377000000000002 251
12.5625 -1.8213 -0.4414 210
12.6328 -1.8311000000000002 1.9394999999999998 183
12.5625 -1.8213 -0.1476 117
12.906199999999998 -1.8711000000000002 2.293 9
12.5547 -1.8652000000000002 0.1475 0
12.5703 -1.8681999999999999 0.4421 130
12.5625 -1.8662 0.7363 14
12.5547 -1.8652000000000002 -1.3300999999999998 82
12.5625 -1.8672 1.0342 0
12.5625 -1.8662 -1.0342 118
12.4922 -1.8563999999999998 1.3232 176
12.5547 -1.8652000000000002 -0.7358 245
12.6328 -1.8769999999999998 1.6377000000000002 109
12.5547 -1.8652000000000002 -0.4414 9
12.6328 -1.876 1.9404 125
12.5625 -1.8662 -0.1476 202
12.898399999999999 -1.916 2.293 231
12.5547 -1.9102000000000001 0.1476 115
12.5703 -1.9121000000000001 0.4421 209
12.5703 -1.9121000000000001 0.7373000000000001 158
12.5625 -1.9111000000000002 -1.3311000000000002 43
12.5547 -1.9102000000000001 1.0332 125
12.5469 -1.9082 -1.0332 223
12.4922 -1.8994 1.3232 234
12.5469 -1.9091999999999998 -0.7358 225
12.6328 -1.9209 1.6377000000000002 154
12.5547 -1.9102000000000001 -0.44170000000000004 181
12.625 -1.9209 1.9404 161
12.5625 -1.9111000000000002 -0.1477 77
12.898399999999999 -1.9619 2.293 128
12.5703 -1.9569999999999999 0.1478 234
12.5547 -1.9550999999999998 0.44189999999999996 238
12.5625 -1.9561000000000002 0.7373000000000001 170
12.5703 -1.9569999999999999 -1.3319999999999999 203
12.5703 -1.9569999999999999 1.0352 164
12.539100000000001 -1.9521000000000002 -1.0332 98
12.4844 -1.9443000000000001 1.3232 14
12.5625 -1.9550999999999998 -0.7368000000000001 246
12.648399999999999 -1.9697 1.6416 203
12.5547 -1.9550999999999998 -0.44189999999999996 235
12.6172 -1.9638999999999998 1.9404 48
12.5547 -1.9541 -0.1477 82
12.898399999999999 -2.0078 2.293 30
12.5781 -2.002 0.1479 184
12.5547 -2.0 0.4421 144
12.5625 -2.0 0.7373000000000001 251
12.5703 -2.002 -1.3330000000000002 48
12.5625 -2.002 1.0352 155
12.5469 -1.9980000000000002 -1.0342 147
12.476600000000001 -1.9872999999999998 1.3232 101
12.5469 -1.9980000000000002 -0.7363 21
12.656199999999998 -2.0156 1.6425999999999998 133
12.5625 -2.0 -0.4424 151
12.6094 -2.0078 1.9404 151
12.5469 -1.9980000000000002 -0.1476 228
12.9219 -2.0586 2.3008 252
12.5547 -2.0449 0.1478 229
12.5625 -2.0469 0.4429 147
12.5469 -2.043 0.7368000000000001 87
12.5547 -2.0449 -1.3330000000000002 34
12.5781 -2.0488 1.0371 40
12.5547 -2.0449 -1.0352 182
12.476600000000001 -2.0312 1.3241999999999998 174
12.5469 -2.043 -0.7368000000000001 211
12.625 -2.0566 1.6396000000000002 232
12.5781 -2.0488 -0.44310000000000005 70
12.6172 -2.0547 1.9434 181
12.5469 -2.043 -0.1477 9
12.9844 -2.1152 2.3125 195
12.5469 -2.0879 0.1478 8
12.5625 -2.0918 0.4429 215
12.5547 -2.0898 0.7378 28
12.5547 -2.0898 -1.3330000000000002 242
12.5625 -2.0898 1.0361 57
12.5469 -2.0879 -1.0352 60
12.4922 -2.0801 1.3271000000000002 1
12.539100000000001 -2.0859 -0.7368000000000001 89
12.6328 -2.1035 1.6425999999999998 100
12.5625 -2.0898 -0.4429 176
12.6172 -2.0996 1.9443000000000001 8
12.5469 -2.0898 -0.1478 193
12.898399999999999 -2.1465 2.2988 146
12.5625 -2.1348 0.1481 110
12.5547 -2.1348 0.4429 38
12.5547 -2.1348 0.7383 40
12.5547 -2.1348 -1.334 254
12.5469 -2.1348 1.0361 6
12.539100000000001 -2.1328 -1.0352 95
12.4922 -2.125 1.3271000000000002 23
12.5469 -2.1328 -0.7378 93
12.648399999999999 -2.1504 1.6444999999999999 23
12.5469 -2.1328 -0.4426 219
12.6094 -2.1445 1.9443000000000001 26
12.5469 -2.1328 -0.1479 170
12.875 -2.1895 2.2949 147
12.5547 -2.1797 0.1482 163
12.5469 -2.1797 0.4429 124
12.5547 -2.1797 0.7387999999999999 195
12.5625 -2.1816 -1.3359 212
12.5625 -2.1816 1.0381 173
12.531199999999998 -2.1758 -1.0352 135
12.4844 -2.168 1.3271000000000002 84
12.539100000000001 -2.1777 -0.7378 144
12.648399999999999 -2.1953 1.6455000000000002 118
12.5547 -2.1797 -0.44310000000000005 152
12.601600000000001 -2.1875 1.9434 239
12.539100000000001 -2.1758 -0.1478 116
12.898399999999999 -2.2402 2.3008 125
12.5703 -2.2266 0.1483 80
12.5469 -2.2246 0.4434 195
12.539100000000001 -2.2227 0.7383 209
12.5625 -2.2266 -1.3369 171
12.5703 -2.2285 1.0391 171
12.539100000000001 -2.2227 -1.0361 175
12.4844 -2.2129 1.3281 54
12.539100000000001 -2.2227 -0.7383 186
12.625 -2.2363 1.6436000000000002 50
12.5625 -2.2266 -0.4436 198
12.6094 -2.2344 1.9463 106
12.531199999999998 -2.2207 -0.1479 243
12.898399999999999 -2.2871 2.3027 128
12.5625 -2.2715 0.1484 169
8.2734 -1.4961000000000002 -1.2754 177
12.5547 -2.2715 0.44380000000000003 149
12.5469 -2.2676 0.7387999999999999 111
12.5547 -2.2715 -1.3369 246
12.5703 -2.2734 1.04 184
12.5469 -2.2695 -1.0381 16
12.4844 -2.2578 1.3281 121
12.523399999999999 -2.2637 -0.7378 98
12.6406 -2.2852 1.6465 30
12.5625 -2.2715 -0.44409999999999994 57
12.6172 -2.2832 1.9491999999999998 128
12.539100000000001 -2.2676 -0.1481 93
12.8828 -2.3301 2.3008 6
12.5469 -2.3145 0.1483 25
8.2578 -1.5234 -1.2744 222
12.5547 -2.3145 0.44380000000000003 188
8.2656 -1.5253999999999999 -1.0762 193
12.5469 -2.3145 0.7397 163
8.2734 -1.5253999999999999 -0.8794 124
12.5547 -2.3164 1.0391 13
12.5547 -2.3164 -1.0391 137
12.4844 -2.3027 1.3300999999999998 13
12.523399999999999 -2.3086 -0.7383 247
12.6328 -2.3301 1.6465 142
12.5625 -2.3164 -0.4443 45
12.625 -2.3281 1.9512 118
12.531199999999998 -2.3105 -0.1481 179
12.898399999999999 -2.3789 2.3047 133
12.5547 -2.3574 0.1484 145
12.539100000000001 -2.3555 0.44380000000000003 195
12.5469 -2.3574 0.7402 179
8.2969 -1.5586000000000002 -0.8828 218
12.5469 -2.3574 1.0391 249
8.2812 -1.5556999999999999 -0.6846 69
12.5 -2.3477 1.3319999999999999 120
12.625 -2.3711 1.6465 35
12.5469 -2.3574 -0.44409999999999994 55
12.6094 -2.3691 1.9502000000000002 159
12.5469 -2.3574 -0.1484 57
12.9297 -2.4297 2.3125 218
12.5547 -2.4004 0.14859999999999998 58
12.539100000000001 -2.3984 0.44409999999999994 185
12.5625 -2.4023 0.7412000000000001 223
12.5547 -2.4023 -1.3388999999999998 200
12.5625 -2.4023 1.041 45
8.2812 -1.584 -0.6846 232
12.4922 -2.3906 1.3319999999999999 197
8.3047 -1.5888999999999998 -0.48950000000000005 126
12.6172 -2.4141 1.6475 62
8.3125 -1.5908000000000002 -0.2937 218
12.601600000000001 -2.4102 1.9491999999999998 220
12.9375 -2.4746 2.3145 147
12.585899999999999 -2.459 0.149 63
12.5469 -2.4492 0.4446 33
12.539100000000001 -2.4492 0.7406999999999999 139
12.5703 -2.4551 -1.3408000000000002 247
12.5625 -2.4531 1.042 155
12.5469 -2.4512 -1.041 35
12.468800000000002 -2.4355 1.3311000000000002 80
12.5625 -2.4531 -0.7417 29
12.625 -2.4648 1.6494 59
8.3203 -1.625 -0.2944 15
12.6094 -2.4629 1.9521000000000002 123
8.3047 -1.6221 -0.098 95
12.851600000000001 -2.5098 2.3027 245
8.3281 -1.6572 0.0984 233
8.3281 -1.6572 0.29469999999999996 121
12.6719 -2.5195 -1.3535 1
12.5625 -2.498 1.042 255
12.625 -2.5117 -1.0479 6
12.476600000000001 -2.4824 1.3330000000000002 236
12.593800000000002 -2.5059 -0.7445999999999999 95
12.6172 -2.5098 1.6494 138
12.5781 -2.502 -0.446 163
12.6172 -2.5098 1.9550999999999998 146
12.5469 -2.4961 -0.1487 175
12.789100000000001 -2.5449 2.293 155
12.593800000000002 -2.5508 0.1494 61
8.3359 -1.6894999999999998 0.2954 65
8.3438 -1.6904 0.4927 159
12.664100000000001 -2.5645 -1.3535 237
8.375 -1.6953 0.6938 151
12.7578 -2.5839999999999996 -1.0595999999999999 154
12.5156 -2.5352 1.3378999999999999 45
12.6172 -2.5547 1.6503999999999999 215
12.710899999999999 -2.5742000000000003 -0.4509 197
12.625 -2.5566 1.9569999999999999 168
12.6719 -2.5683999999999996 -0.15039999999999998 193
12.7656 -2.5858999999999996 2.2891 12
12.710899999999999 -2.6211 0.1509 197
12.6172 -2.6016000000000004 0.4482 23
12.5547 -2.5879000000000003 0.7432 221
12.664100000000001 -2.6113 -1.3544999999999998 117
8.3516 -1.7216999999999998 0.6929000000000001 179
12.6875 -2.6151999999999997 -1.0547 1
8.3828 -1.7285 0.895 67
12.718800000000002 -2.623 -0.7529 55
8.3828 -1.7285 1.0957 148
12.75 -2.6289 -0.45289999999999997 80
12.6094 -2.5995999999999997 1.9569999999999999 190
12.7422 -2.627 -0.1512 68
12.773399999999999 -2.6327999999999996 2.291 164
12.6875 -2.6582 0.4509 15
12.5547 -2.6289 0.7437 86
12.6719 -2.6543 -1.3563999999999998 247
12.539100000000001 -2.627 1.043 193
12.7422 -2.668 -1.0595999999999999 124
8.3438 -1.7471 0.8911 167
12.7578 -2.6719 -0.7559 192
8.3672 -1.7529 1.0947 78
12.773399999999999 -2.6757999999999997 -0.4539 47
12.601600000000001 -2.6406 1.9569999999999999 144
12.710899999999999 -2.6620999999999997 -0.151 18
12.773399999999999 -2.6757999999999997 2.2949 18
12.8281 -2.7305 0.1525 117
12.6875 -2.7012 0.4512 178
12.5469 -2.6719 0.7437 209
12.6797 -2.6992000000000003 -1.3574000000000002 208
12.539100000000001 -2.6699 1.043 126
12.726600000000001 -2.7089999999999996 -1.0586 46
12.476600000000001 -2.6582 1.3369 191
12.7344 -2.7108999999999996 -0.7548999999999999 143
12.625 -2.6875 1.6553 110
12.773399999999999 -2.7207 -0.4543 9
12.601600000000001 -2.6836 1.9580000000000002 27
12.7344 -2.7108999999999996 -0.1514 158
12.851600000000001 -2.7363 2.3086 167
12.710899999999999 -2.7577999999999996 0.4526 121
12.531199999999998 -2.7188 0.7437 201
12.6719 -2.748 -1.3584 95
12.539100000000001 -2.7207 1.0449 143
12.75 -2.7656 -1.0615 0
12.460899999999999 -2.7031 1.3359 56
12.726600000000001 -2.7617000000000003 -0.7548999999999999 13
12.6094 -2.7363 1.6543 223
12.7031 -2.7558999999999996 -0.4521 9
12.6094 -2.7363 1.9609 55
12.6797 -2.75 -0.1508 44
12.851600000000001 -2.7891000000000004 2.3105 123
12.7344 -2.8086 0.4536 92
12.539100000000001 -2.7656 0.7445999999999999 54
12.664100000000001 -2.793 -1.3584 115
12.5156 -2.7598000000000003 1.043 248
12.75 -2.8125 -1.0635 223
12.476600000000001 -2.7539 1.3388999999999998 199
12.7578 -2.8145 -0.7578 41
12.6172 -2.7832 1.6562000000000001 159
12.7656 -2.8164 -0.4546 44
12.6172 -2.7832 1.9638999999999998 190
12.75 -2.8125 -0.1519 88
12.914100000000001 -2.8495999999999997 2.3242 200
12.7344 -2.8535000000000004 0.4539 215
12.5469 -2.8105 0.7451000000000001 37
12.6719 -2.8379000000000003 -1.3603999999999998 17
12.5078 -2.8026999999999997 1.043 99
12.7344 -2.8535000000000004 -1.0625 148
12.476600000000001 -2.7969 1.3397999999999999 132
12.710899999999999 -2.8476999999999997 -0.7548999999999999 119
12.6172 -2.8262 1.6572 151
12.7031 -2.8476999999999997 -0.45289999999999997 109
12.601600000000001 -2.8242000000000003 1.9628999999999999 141
12.7344 -2.8535000000000004 -0.1517 40
12.8906 -2.8887 2.3223 251
12.710899999999999 -2.8926 0.4536 144
12.539100000000001 -2.8535000000000004 0.7456 225
12.6719 -2.8827999999999996 -1.3613 99
12.5078 -2.8457 1.0439 158
12.773399999999999 -2.9062 -1.0664 24
12.468800000000002 -2.8379000000000003 1.3397999999999999 190
12.789100000000001 -2.9101999999999997 -0.7603 103
12.625 -2.873 1.6602000000000001 168
12.789100000000001 -2.9101999999999997 -0.4561 196
12.593800000000002 -2.8672000000000004 1.9638999999999998 21
12.773399999999999 -2.9082 -0.1523 39
12.8906 -2.9336 2.3242 52
12.843800000000002 -2.9745999999999997 0.1533 214
12.718800000000002 -2.9473000000000003 0.45409999999999995 115
12.539100000000001 -2.9043 0.7461 101
12.6797 -2.9355 -1.3633000000000002 121
12.5156 -2.8983999999999996 1.0459 248
12.6953 -2.9414 -1.0605 124
12.468800000000002 -2.8867000000000003 1.3408000000000002 118
12.726600000000001 -2.9473000000000003 -0.7573000000000001 74
12.625 -2.9238 1.6611000000000002 174
12.781199999999998 -2.9589999999999996 -0.45630000000000004 134
12.601600000000001 -2.9199 1.9668 45
12.773399999999999 -2.9589999999999996 -0.1525 212
12.875 -2.9824 2.3223 10
12.843800000000002 -3.0214999999999996 0.1534 168
12.8047 -3.0117000000000003 0.4575 1
12.523399999999999 -2.9473000000000003 0.7461 221
12.656199999999998 -2.9785000000000004 -1.3622999999999998 230
12.5078 -2.9433999999999996 1.0459 185
12.7656 -3.0039 -1.0674 87
12.468800000000002 -2.9336 1.3418 241
12.7344 -2.9961 -0.7587999999999999 130
12.6094 -2.9668 1.6611000000000002 152
12.7422 -2.998 -0.45530000000000004 42
12.601600000000001 -2.9648000000000003 1.9678 251
12.7344 -2.9961 -0.1521 118
12.8672 -3.0273000000000003 2.3242 183
12.851600000000001 -3.0702999999999996 0.1536 85
12.773399999999999 -3.0526999999999997 0.4568 25
12.523399999999999 -2.9941000000000004 0.7465999999999999 127
12.656199999999998 -3.0254000000000003 -1.3633000000000002 116
12.5 -2.9863 1.0459 24
12.75 -3.0469 -1.0674 130
12.468800000000002 -2.9785000000000004 1.3428 254
12.7422 -3.0449 -0.7598 144
12.601600000000001 -3.0117000000000003 1.6611000000000002 60
12.7656 -3.0507999999999997 -0.45649999999999996 55
12.6094 -3.0137 1.9707 140
12.7422 -3.0449 -0.1522 230
12.8672 -3.0742000000000003 2.3242 231
12.6719 -3.0762 0.4536 197
12.531199999999998 -3.0410000000000004 0.7476 128
12.648399999999999 -3.0702999999999996 -1.3633000000000002 116
12.4922 -3.0312 1.0469 223
12.726600000000001 -3.0879000000000003 -1.0654000000000001 27
12.468800000000002 -3.0254000000000003 1.3437999999999999 10
12.7031 -3.082 -0.7578 37
12.6172 -3.0625 1.665 23
12.6953 -3.0801 -0.4543 249
12.593800000000002 -3.0566000000000004 1.9697 200
12.7344 -3.0898000000000003 -0.1523 55
12.8672 -3.123 2.3281 181
12.8047 -3.1504000000000003 0.1533 248
12.773399999999999 -3.1426 0.4578 42
12.539100000000001 -3.0839999999999996 0.7484999999999999 223
12.664100000000001 -3.1151999999999997 -1.3662 245
12.4922 -3.0723000000000003 1.0469 75
12.726600000000001 -3.1308999999999996 -1.0664 110
12.468800000000002 -3.0664 1.3447 60
12.75 -3.1367000000000003 -0.7612000000000001 20
12.6094 -3.1016000000000004 1.665 189
12.7344 -3.1327999999999996 -0.45630000000000004 54
12.601600000000001 -3.0995999999999997 1.9716999999999998 119
12.7344 -3.1327999999999996 -0.1525 200
12.8594 -3.1641000000000004 2.3281 40
12.781199999999998 -3.1895 0.4583 223
12.523399999999999 -3.125 0.748 78
12.664100000000001 -3.1601999999999997 -1.3672 65
12.5 -3.1191000000000004 1.0488 107
12.6719 -3.1601999999999997 -1.0625 194
12.4531 -3.1074 1.3447 201
12.6953 -3.168 -0.7587999999999999 64
12.6328 -3.1504000000000003 1.6688999999999998 143
12.7422 -3.1776999999999997 -0.4568 87
12.593800000000002 -3.1406 1.9716999999999998 241
12.7344 -3.1757999999999997 -0.15259999999999999 228
12.8828 -3.2148000000000003 2.334 245
12.7344 -3.2324 0.457 92
12.523399999999999 -3.1776999999999997 0.7490000000000001 135
12.648399999999999 -3.2108999999999996 -1.3672 44
12.5078 -3.1738 1.0508 61
12.773399999999999 -3.2422000000000004 -1.0732 35
12.4531 -3.1601999999999997 1.3457 92
12.781199999999998 -3.2422000000000004 -0.7642 224
12.6094 -3.2012 1.6680000000000001 155
12.781199999999998 -3.2441000000000004 -0.4587 155
12.593800000000002 -3.1973000000000003 1.9756 183
12.7344 -3.2324 -0.1527 175
12.851600000000001 -3.2617000000000003 2.3301 70
12.8906 -3.3223000000000003 0.1548 76
12.773399999999999 -3.2910000000000004 0.45899999999999996 188
12.5156 -3.2245999999999997 0.7495 182
12.648399999999999 -3.2598000000000003 -1.3681999999999999 27
12.4844 -3.2168 1.0498 147
12.710899999999999 -3.2754000000000003 -1.0684 131
12.4531 -3.2089999999999996 1.3477000000000001 224
12.726600000000001 -3.2793 -0.7617 177
12.585899999999999 -3.2441000000000004 1.6669999999999998 197
12.7656 -3.2891000000000004 -0.4585 181
12.6172 -3.25 1.9805000000000001 223
12.773399999999999 -3.2910000000000004 -0.1533 195
12.851600000000001 -3.3125 2.334 177
12.8828 -3.3594 0.1548 163
12.7422 -3.3242000000000003 0.45799999999999996 92
12.523399999999999 -3.2676 0.7505 23
