# .PCD v0.7 - Point Cloud Data file format
VERSION 0.7
FIELDS x y z intensity
SIZE 4 4 4 4
TYPE F F F F
COUNT 1 1 1 1
WIDTH 1223
HEIGHT 1
VIEWPOINT 0 0 0 1 0 0 0
POINTS 1223
DATA ascii
-12.4219 -6.042999999999999 1.4472999999999998 132
-12.023399999999999 -5.8477 1.7138999999999998 56
-12.1172 -5.894500000000001 2.0488 32
-3.2051 -1.5586000000000002 -0.0408 164
-12.210899999999999 -5.9375 2.3867 70
-3.0233999999999996 -1.4569999999999999 -0.5845 180
-3.3066000000000004 -1.5928 0.042 237
-3.0566000000000004 -1.4727000000000001 -0.5107 53
-13.25 -6.386699999999999 0.5117 214
-3.0858999999999996 -1.4872999999999998 -0.4351 203
-13.3203 -6.417999999999999 0.8573999999999999 84
-13.375 -6.4453 1.209 144
-12.375 -5.9648 1.4394999999999998 164
-12.0703 -5.8164 1.7187999999999999 190
-12.0703 -5.8164 2.0371 148
-3.1992000000000003 -1.5419999999999998 -0.0406 185
-12.210899999999999 -5.886699999999999 2.3828 198
-3.0117000000000003 -1.4385 -0.5811 184
-3.2891000000000004 -1.5713 0.0417 49
-3.0683999999999996 -1.4658000000000002 -0.5122 96
-13.3672 -6.3828 0.5156000000000001 17
-3.0702999999999996 -1.4658000000000002 -0.4321 111
-13.4219 -6.4102 0.8628 58
-13.468800000000002 -6.4336 1.2158 63
-12.3594 -5.9062 1.4355000000000002 126
-12.1094 -5.7812 1.7207 127
-12.031199999999998 -5.7461 2.0273 159
-3.2108999999999996 -1.5332 -0.0407 42
-8.3672 -3.998 1.6279 84
-3.0176 -1.4287 -0.5811 250
-3.2773000000000003 -1.5508000000000002 0.0415 3
-3.0586 -1.4482 -0.5097999999999999 149
-13.5078 -6.390599999999999 0.52 53
-3.082 -1.459 -0.43310000000000004 8
-13.5469 -6.4102 0.8691 199
-13.5625 -6.417999999999999 1.2217 66
-12.406199999999998 -5.8711 1.4375 203
-12.1406 -5.7461 1.7227000000000001 146
-8.6641 -4.1016 1.4550999999999998 251
-3.2129000000000003 -1.5205000000000002 -0.0406 54
-8.4297 -3.9922000000000004 1.6377000000000002 25
-3.0233999999999996 -1.4180000000000001 -0.5811 163
-3.2754000000000003 -1.5361000000000002 0.0414 104
-3.0507999999999997 -1.4306999999999999 -0.5073 200
-13.5703 -6.3672 0.5215 118
-3.0801 -1.4443000000000001 -0.4321 21
-13.585899999999999 -6.375 0.8706 89
-13.5703 -6.363300000000001 1.2207 248
-12.4219 -5.824199999999999 1.4375 35
-7.9765999999999995 -3.7422000000000004 1.1279000000000001 143
-8.3906 -3.9336 1.4062000000000001 194
-8.4531 -3.9648000000000003 1.6387 36
-3.0332 -1.4091999999999998 -0.5825 24
-3.2851999999999997 -1.5263999999999998 0.0414 46
-3.0566000000000004 -1.4199000000000002 -0.5073 107
-13.5625 -6.300800000000001 0.5205 63
-3.0664 -1.4247999999999998 -0.4294 56
-13.585899999999999 -6.3125 0.8687 245
-13.5703 -6.3047 1.2187999999999999 54
-12.398399999999999 -5.7578 1.4316 75
-7.9961 -3.7148000000000003 1.1289 38
-8.4219 -3.9120999999999997 1.4091999999999998 85
-8.0547 -3.7441000000000004 1.5596 151
-3.0176 -1.3896000000000002 -0.5786 157
-3.2969 -1.5175999999999998 0.0415 165
-3.0566000000000004 -1.4072 -0.5068 237
-13.5703 -6.2461 0.52 239
-3.0938 -1.4238 -0.4326 220
-13.5781 -6.25 0.8672 188
-13.5625 -6.2461 1.2158 58
-12.3906 -5.703099999999999 1.4287 76
-8.0078 -3.6875 1.1289 79
-11.851600000000001 -5.457000000000001 1.9834 71
-8.0625 -3.7108999999999996 1.5575999999999999 175
-3.0098000000000003 -1.374 -0.5761999999999999 198
-3.2695 -1.4922 0.041100000000000005 205
-3.0605 -1.3965 -0.5063 60
-13.5703 -6.1914 0.519 21
-3.1094 -1.4188999999999998 -0.4341 107
-13.5625 -6.1875 0.8647 230
-13.5703 -6.1953 1.2148 176
-12.414100000000001 -5.6640999999999995 1.4297 112
-8.0391 -3.668 1.1309 158
-11.875 -5.417999999999999 1.9844 229
-8.0625 -3.6797000000000004 1.5556999999999999 49
-3.0137 -1.3633000000000002 -0.5757 51
-3.2714999999999996 -1.4794999999999998 0.041100000000000005 111
-3.043 -1.376 -0.5029 32
-13.5781 -6.140599999999999 0.5186 80
-3.1289 -1.415 -0.4363 228
-13.5625 -6.136699999999999 0.8637999999999999 104
-13.5703 -6.140599999999999 1.2129 200
-12.3906 -5.605499999999999 1.4247999999999998 141
-8.3672 -3.7851999999999997 1.1758 11
-8.7109 -3.9414 1.4512 6
-8.1016 -3.6660000000000004 1.5605000000000002 209
-3.0351999999999997 -1.3603999999999998 -0.5791 30
-3.2870999999999997 -1.4727000000000001 0.0412 19
-3.0351999999999997 -1.3603999999999998 -0.5005 215
-13.5625 -6.078099999999999 0.5171 71
-3.0918 -1.3857 -0.4304 18
-13.5781 -6.0859000000000005 0.8633 208
-13.5625 -6.078099999999999 1.21 179
-12.398399999999999 -5.5547 1.4228999999999998 197
-8.3281 -3.7305 1.168 221
-8.6016 -3.8535000000000004 1.4306999999999999 89
-8.1016 -3.6327999999999996 1.5586000000000002 171
-3.0195 -1.3418 -0.5752 219
-3.2695 -1.4521000000000002 0.0409 220
-3.0449 -1.3525 -0.5015 228
-13.5469 -6.019500000000001 0.5161 115
-3.1035000000000004 -1.3788999999999998 -0.4314 122
-13.5625 -6.0234000000000005 0.8608 145
-13.5625 -6.0234000000000005 1.209 195
-12.406199999999998 -5.511699999999999 1.4228999999999998 224
-8.0703 -3.5839999999999996 1.1299 160
-11.8672 -5.269500000000001 1.9727000000000001 237
-8.1094 -3.5995999999999997 1.5566 73
-3.0137 -1.3252000000000002 -0.5728 47
-3.2754000000000003 -1.4404 0.0409 49
-3.0566000000000004 -1.3447 -0.5029 162
-13.5469 -5.9609000000000005 0.5151 6
-3.0547000000000004 -1.3428 -0.4236 182
-13.5703 -5.9688 0.8599 155
-13.5625 -5.9648 1.2061 77
-8.0547 -3.5410000000000004 0.9198999999999999 217
-8.0469 -3.5391000000000004 1.125 190
-8.6953 -3.8262 1.4424000000000001 160
-12.1719 -5.355499999999999 2.3379 217
-3.0058999999999996 -1.3096 -0.5708 98
-3.2401999999999997 -1.4111000000000002 0.0404 179
-3.0410000000000004 -1.3252000000000002 -0.49950000000000006 9
-13.5703 -5.9102 0.5151 57
-3.1055 -1.3535 -0.4304 196
-13.5625 -5.9062 0.8579000000000001 41
-13.601600000000001 -5.925800000000001 1.208 122
-8.0469 -3.5058999999999996 0.9179999999999999 138
-8.0391 -3.502 1.1220999999999999 17
-11.898399999999999 -5.1836 1.9727000000000001 155
-12.1797 -5.3047 2.334 48
-3.0176 -1.3027000000000002 -0.5722999999999999 14
-3.2401999999999997 -1.3984 0.0404 74
-3.0370999999999997 -1.3105000000000002 -0.4978 68
-13.6094 -5.8711 0.5156000000000001 84
-3.1543 -1.3613 -0.4365 119
-13.625 -5.8789 0.8608 131
-13.6328 -5.8828 1.209 153
-8.0469 -3.4726999999999997 0.9165000000000001 90
-8.0859 -3.4901999999999997 1.1279000000000001 255
-9.0312 -3.8983999999999996 1.4941 172
-12.164100000000001 -5.25 2.3301 80
-3.0156 -1.2891 -0.5708 115
-3.2401999999999997 -1.3847999999999998 0.0403 205
-3.0312 -1.2949000000000002 -0.4961 251
-13.6406 -5.828099999999999 0.5161 16
-3.1055 -1.3271000000000002 -0.42869999999999997 38
-13.656199999999998 -5.8359000000000005 0.8613 89
-13.648399999999999 -5.832000000000001 1.209 0
-8.0312 -3.4316000000000004 0.9131 160
-8.0938 -3.4589999999999996 1.126 35
-8.8516 -3.7832 1.4619 155
-8.8281 -3.7733999999999996 1.6855000000000002 168
-3.0195 -1.2783 -0.5708 116
-3.2441000000000004 -1.3730000000000002 0.0403 110
-3.0312 -1.2832 -0.4954 182
-13.656199999999998 -5.7773 0.5161 79
-3.1641000000000004 -1.3388999999999998 -0.4365 170
-13.664100000000001 -5.7812 0.8604 116
-13.656199999999998 -5.7773 1.207 124
-12.398399999999999 -5.25 1.4111000000000002 123
-8.1797 -3.4629000000000003 1.1377 36
-11.875 -5.0273 1.96 75
-12.1875 -5.1562 2.3262 59
-3.0117000000000003 -1.2627 -0.5684 23
-3.2461 -1.3603999999999998 0.0403 56
-3.0351999999999997 -1.2725 -0.4954 42
-13.656199999999998 -5.7265999999999995 0.5156000000000001 188
-3.125 -1.3096 -0.4304 182
-13.6719 -5.730499999999999 0.8599 12
-13.656199999999998 -5.7227 1.2061 161
-12.398399999999999 -5.1953 1.4082 148
-12.2422 -5.1289 1.7021000000000002 101
-11.8906 -4.9844 1.96 109
-12.1719 -5.1016 2.3203 103
-3.0058999999999996 -1.2470999999999999 -0.5664 164
-3.2382999999999997 -1.3437999999999999 0.0401 158
-3.0410000000000004 -1.2617 -0.4954 108
-13.6719 -5.671900000000001 0.5151 106
-3.082 -1.2793 -0.4236 137
-13.656199999999998 -5.667999999999999 0.8579000000000001 23
-13.6719 -5.675800000000001 1.2061 86
-12.398399999999999 -5.144500000000001 1.4062000000000001 39
-8.3281 -3.457 1.1543 85
-11.8672 -4.9258 1.9531 178
-12.125 -5.0312 2.3086 157
-3.0137 -1.2383 -0.5669 209
-3.2305 -1.3271000000000002 0.039900000000000005 54
-3.0293 -1.2441 -0.4927 79
-13.6797 -5.6211 0.5146000000000001 190
-3.0858999999999996 -1.2686 -0.4236 40
-12.406199999999998 -5.0977 1.4053 144
-12.226600000000001 -5.0234 1.6953 110
-11.9297 -4.9023 1.96 247
-12.1328 -4.9844 2.3047 104
-3.0098000000000003 -1.2246 -0.5654 6
-3.2285000000000004 -1.3135 0.039900000000000005 228
-3.0254000000000003 -1.2305 -0.4915 113
-12.4219 -5.0547 0.46659999999999996 93
-3.1172000000000004 -1.2676 -0.42719999999999997 4
-12.414100000000001 -5.0508 0.7768999999999999 199
-12.414100000000001 -5.0508 1.0908 166
-12.398399999999999 -5.0469 1.4022999999999999 34
-12.218800000000002 -4.9727 1.6913999999999998 67
-8.75 -3.5586 1.4336000000000002 116
-12.1406 -4.9414 2.3047 204
-3.0137 -1.2139 -0.5654 253
-3.248 -1.3086000000000002 0.04 170
-3.0273000000000003 -1.2197 -0.49119999999999997 77
-12.398399999999999 -4.9922 0.4648 112
-3.1211 -1.2568000000000001 -0.42719999999999997 165
-12.414100000000001 -5.0 0.7759 9
-12.414100000000001 -5.0 1.0889 21
-12.3828 -4.9883 1.3984 89
-12.2344 -4.9258 1.6904 147
-8.7891 -3.5391000000000004 1.4385 20
-12.1328 -4.8867 2.2988 254
-3.0 -1.1973 -0.562 234
-3.2245999999999997 -1.2861000000000002 0.0397 226
-3.0469 -1.2158 -0.49369999999999997 195
-12.4219 -4.957 0.4653 127
-3.1211 -1.2451 -0.4268 215
-12.414100000000001 -4.9531 0.7748999999999999 151
-12.4297 -4.9609 1.0898 146
-12.3828 -4.9414 1.3965 58
-12.226600000000001 -4.8789 1.6875 12
-8.8984 -3.5507999999999997 1.4541 156
-8.9844 -3.5858999999999996 1.6991999999999998 61
-3.0058999999999996 -1.1875 -0.5625 110
-3.2441000000000004 -1.2812000000000001 0.039900000000000005 91
-3.043 -1.2021 -0.4924 76
-3.4824 -1.376 0.12890000000000001 105
-3.1289 -1.2363 -0.42719999999999997 230
-12.406199999999998 -4.9023 0.7734000000000001 120
-12.4375 -4.9141 1.0889 247
-12.375 -4.8906 1.3936000000000002 170
-12.218800000000002 -4.8281 1.6846 106
-8.9141 -3.5214999999999996 1.4541 196
-8.8359 -3.4922000000000004 1.6680000000000001 234
-3.0039 -1.1748 -0.5615 35
-3.2344 -1.2637 0.0397 184
-3.0332 -1.1855 -0.49 127
-3.3672000000000004 -1.3163999999999998 0.1245 69
-3.1074 -1.2148 -0.4236 144
-12.460899999999999 -4.8711 0.7754000000000001 74
-12.5156 -4.8945 1.0937999999999999 102
-12.3906 -4.8438 1.3936000000000002 15
-12.2031 -4.7695 1.6806999999999999 222
-11.843800000000002 -4.6289 1.9325999999999999 35
-8.9062 -3.4805 1.6777000000000002 36
-3.0195 -1.168 -0.5635 148
-3.2305 -1.25 0.039599999999999996 39
-3.0233999999999996 -1.1699 -0.488 174
-3.3827999999999996 -1.3086000000000002 0.1249 177
-3.1348000000000003 -1.2129 -0.4268 160
-12.539100000000001 -4.8516 0.7793000000000001 204
-12.5625 -4.8594 1.0967 216
-12.3906 -4.793 1.3916 51
-12.210899999999999 -4.7227 1.6787 12
-11.835899999999999 -4.5781 1.9287 242
-12.1172 -4.6875 2.2832 121
-3.0137 -1.1533 -0.5615 34
-3.2363 -1.2393 0.039599999999999996 179
-3.0293 -1.1602 -0.48829999999999996 189
-3.3808999999999996 -1.2938999999999998 0.1246 187
-3.1523000000000003 -1.207 -0.42869999999999997 164
-13.531199999999998 -5.1797 0.8403 160
-13.531199999999998 -5.1797 1.1797 76
-9.0156 -3.4512 1.0098 108
-8.8828 -3.4004000000000003 1.2178 200
-11.8281 -4.5312 1.9247999999999998 42
-12.1172 -4.6367 2.2793 141
-2.9941000000000004 -1.1348 -0.5571 4
-3.248 -1.2305 0.0397 56
-3.0312 -1.1484 -0.4875 36
-3.3594 -1.2725 0.12369999999999999 153
-3.1191000000000004 -1.1816 -0.4236 83
-13.531199999999998 -5.1289 0.8393999999999999 212
-13.5469 -5.1328 1.1797 120
-8.9922 -3.4062 1.0059 209
-8.8984 -3.3691000000000004 1.2178 164
-11.843800000000002 -4.4883 1.9247999999999998 71
-10.0156 -3.7949 1.8818000000000001 10
-2.9961 -1.123 -0.5571 75
-3.2422000000000004 -1.2148 0.039599999999999996 10
-3.0410000000000004 -1.1406 -0.4888 106
-3.3926 -1.2725 0.12480000000000001 125
-3.125 -1.1709 -0.4236 84
-13.523399999999999 -5.0703 0.8373999999999999 162
-13.5469 -5.0781 1.1777 33
-8.9844 -3.3672000000000004 1.0039 24
-8.8906 -3.3339999999999996 1.2158 20
-8.8594 -3.3202999999999996 1.4365 5
-12.101600000000001 -4.5352 2.2715 219
-2.998 -1.1123 -0.5566 6
-3.2305 -1.1982 0.0394 53
-3.0370999999999997 -1.126 -0.48729999999999996 54
-3.3827999999999996 -1.2549 0.1242 80
-3.1289 -1.1602 -0.4236 237
-13.523399999999999 -5.0156 0.8369 93
-13.531199999999998 -5.0195 1.1748 184
-8.9922 -3.3358999999999996 1.0039 91
-12.0547 -4.4727 1.6484 202
-8.8516 -3.2851999999999997 1.4336000000000002 118
-9.9688 -3.6973000000000003 1.8672 88
-3.0058999999999996 -1.1035 -0.5571 38
-3.2344 -1.1865 0.0394 140
-3.0233999999999996 -1.1094 -0.48460000000000003 181
-3.3613 -1.2334 0.1232 231
-3.1327999999999996 -1.1494 -0.4236 175
-13.531199999999998 -4.9648 0.8359000000000001 49
-13.523399999999999 -4.9609 1.1729 10
-9.0078 -3.3047000000000004 1.0039 233
-12.039100000000001 -4.418 1.6436000000000002 246
-8.8672 -3.2539 1.4336000000000002 95
-12.101600000000001 -4.4414 2.2656 147
-3.0039 -1.0908 -0.5562 135
-3.25 -1.1797 0.039599999999999996 127
-3.0273000000000003 -1.0986 -0.48460000000000003 19
-3.373 -1.2246 0.1235 201
-3.1074 -1.1279000000000001 -0.41969999999999996 25
-13.539100000000001 -4.9141 0.8354 4
-13.539100000000001 -4.9141 1.1729 26
-9.0156 -3.2733999999999996 1.0039 57
-12.156199999999998 -4.4141 1.6582 159
-11.835899999999999 -4.2969 1.9131 222
-8.8672 -3.2188 1.6562000000000001 229
-2.9901999999999997 -1.0732 -0.5527000000000001 81
-3.25 -1.167 0.0395 107
-3.0351999999999997 -1.0898 -0.4851 255
-3.3613 -1.207 0.1229 167
-3.1132999999999997 -1.1181999999999999 -0.4202 65
-13.523399999999999 -4.8555 0.8334999999999999 163
-13.531199999999998 -4.8594 1.1709 202
-9.0156 -3.2363 1.002 34
-12.218800000000002 -4.3867 1.665 241
-8.0859 -2.9023000000000003 1.5078 184
-2.9901999999999997 -1.0615 -0.5522 238
-3.2245999999999997 -1.1455 0.0391 11
-3.0351999999999997 -1.0781 -0.48460000000000003 53
-3.3887 -1.2031 0.12380000000000001 64
-3.1445 -1.1162 -0.4236 8
-13.5156 -4.8008 0.8315 220
-13.531199999999998 -4.8047 1.1689 22
-9.0547 -3.2148000000000003 1.0049 63
-12.2031 -4.332 1.6602000000000001 223
-11.8203 -4.1953 1.9062000000000001 84
-8.0 -2.8418 1.4902000000000002 146
-2.9824 -1.0479 -0.5498 197
-3.2401999999999997 -1.1377 0.0392 132
-3.0273000000000003 -1.0635 -0.4829 227
-3.3594 -1.1797 0.1225 123
-3.1973000000000003 -1.123 -0.4304 253
-13.5156 -4.7461 0.8306 174
-13.5078 -4.7422 1.166 227
-9.1016 -3.1952999999999996 1.0088 166
-12.1875 -4.2812 1.6562000000000001 235
-11.843800000000002 -4.1602 1.9082 29
-8.8984 -3.125 1.6562000000000001 105
-2.998 -1.041 -0.5522 229
-3.2733999999999996 -1.1367 0.039599999999999996 180
-3.0176 -1.0479 -0.4807 186
-3.3672000000000004 -1.1689 0.12269999999999999 105
-3.1523000000000003 -1.0947 -0.4236 25
-13.523399999999999 -4.6953 0.8301000000000001 33
-13.5156 -4.6914 1.165 96
-12.375 -4.2969 1.3721 132
-12.1953 -4.2344 1.6553 245
-11.8281 -4.1094 1.9033000000000002 5
-8.9297 -3.0995999999999997 1.6591999999999998 210
-3.002 -1.0303 -0.5522 175
-3.2969 -1.1318000000000001 0.039900000000000005 42
-3.0233999999999996 -1.0381 -0.48100000000000004 40
-3.3594 -1.1533 0.1223 50
-3.1562 -1.084 -0.4236 36
-13.5547 -4.6562 0.8315 137
-9.1094 -3.127 0.7831999999999999 203
-12.3594 -4.2461 1.3691 41
-9.3281 -3.2031 1.2637 208
-8.5312 -2.9276999999999997 1.3681999999999999 232
-12.093800000000002 -4.1523 2.248 63
-2.9882999999999997 -1.0146 -0.5488000000000001 186
-3.2733999999999996 -1.1113 0.039599999999999996 146
-3.0233999999999996 -1.0264 -0.4805 74
-3.3632999999999997 -1.1416 0.1223 1
-3.1601999999999997 -1.0723 -0.4236 230
-13.6875 -4.6445 0.8384 227
-9.1172 -3.0957 0.7831999999999999 223
-9.2422 -3.1367000000000003 1.0215 129
-9.3438 -3.1719 1.2637 134
-8.0312 -2.7266000000000004 1.2861000000000002 216
-8.0625 -2.7363 1.4931999999999999 211
-2.9901999999999997 -1.0029000000000001 -0.5488000000000001 65
-3.0312 -1.0166 -0.48100000000000004 166
-3.3555 -1.126 0.12179999999999999 141
-14.0156 -4.7031 0.8573999999999999 204
-9.0938 -3.0526999999999997 0.7803 210
-9.2422 -3.1016000000000004 1.0205 138
-12.1875 -4.0898 1.6484 227
-8.0469 -2.7012 1.2881 88
-8.0938 -2.7148000000000003 1.4971 106
-2.9824 -0.9893000000000001 -0.5464 210
-3.0293 -1.0049 -0.48 182
-3.3789 -1.1211 0.1225 206
-14.218800000000002 -4.7148 0.8687 121
-9.1094 -3.0195 0.7798 115
-9.2734 -3.0762 1.0225 106
-12.2031 -4.0469 1.6484 144
-8.0859 -2.6816000000000004 1.2919999999999998 239
-8.1172 -2.6933999999999996 1.501 103
-2.9863 -0.9790000000000001 -0.5468999999999999 111
-3.0214999999999996 -0.9902 -0.4783 107
-3.3476999999999997 -1.0977 0.1213 126
-14.3281 -4.6953 0.8745 210
-9.1094 -2.9863 0.7793000000000001 139
-12.351600000000001 -4.0508 1.3613 193
-12.1875 -3.9941000000000004 1.6436000000000002 236
-8.625 -2.8281 1.3779 104
-12.085899999999999 -3.9629000000000003 2.2363 182
-2.9882999999999997 -0.9682999999999999 -0.5464 131
-3.0214999999999996 -0.9784999999999999 -0.4778 24
-3.3301 -1.0781 0.1204 165
-9.1406 -2.9608999999999996 0.5562 203
-9.1562 -2.9668 0.7827 138
-12.3594 -4.0039 1.3603999999999998 178
-12.1797 -3.9473000000000003 1.6416 161
-8.7969 -2.8495999999999997 1.4043 200
-8.8984 -2.8827999999999996 1.6425999999999998 169
-2.9707 -0.9512 -0.5425 132
-3.0332 -0.9712000000000001 -0.4792 170
-3.3476999999999997 -1.0723 0.121 252
-3.1776999999999997 -1.0176 -0.4236 229
-9.1172 -2.918 0.5542 107
-14.7578 -4.7227 1.2617 60
-12.3281 -3.9473000000000003 1.3563999999999998 180
-12.1875 -3.9004000000000003 1.6396000000000002 207
-8.9219 -2.8555 1.6436000000000002 59
-2.9668 -0.9384999999999999 -0.5415 117
-3.0156 -0.9541 -0.4758 29
-3.3632999999999997 -1.0635 0.12140000000000001 226
-9.1016 -2.8789 0.5527000000000001 136
-14.875 -4.7031 1.2705 137
-12.3281 -3.9004000000000003 1.3544999999999998 112
-12.1797 -3.8516000000000004 1.6377000000000002 157
-12.0625 -3.8145 2.2227 154
-2.9805 -0.9326000000000001 -0.5435 109
-3.0233999999999996 -0.9458 -0.47659999999999997 198
-3.3711 -1.0547 0.1215 165
-9.0859 -2.8418 0.5513 255
-15.0547 -4.7109 1.2852000000000001 19
-12.3594 -3.8651999999999997 1.3563999999999998 196
-12.1406 -3.7988 1.6309 97
-12.0703 -3.7754000000000003 2.2227 40
-2.9922000000000004 -0.9248000000000001 -0.5449 87
-3.0077999999999996 -0.9297 -0.47340000000000004 121
-3.3125 -1.0244 0.1193 61
-9.1016 -2.8145 0.5518 173
-15.25 -4.7148 1.2997999999999998 205
-12.343800000000002 -3.8164 1.3535 56
-12.1094 -3.7441000000000004 1.625 182
-8.9453 -2.7656 1.4209 220
-12.0781 -3.7344 2.2227 91
-2.9882999999999997 -0.9111 -0.5435 200
-3.0137 -0.9194 -0.47409999999999997 135
-3.3026999999999997 -1.0068000000000001 0.11869999999999999 69
-3.1914 -0.9731000000000001 -0.4236 243
-9.1094 -2.7773000000000003 0.5513 149
-9.1094 -2.7793 0.7744 247
-12.343800000000002 -3.7656 1.3525 178
-12.156199999999998 -3.707 1.6299000000000001 247
-8.9141 -2.7188 1.4141 205
-12.093800000000002 -3.6875 2.2207 40
-2.9766000000000004 -0.8965000000000001 -0.5405 166
-3.0293 -0.9120999999999999 -0.4758 123
-3.293 -0.9917 0.1183 25
-9.125 -2.7461 0.5518 122
-9.125 -2.748 0.7744 183
-12.335899999999999 -3.7148000000000003 1.3496000000000001 62
-12.1797 -3.668 1.6309 217
-12.085899999999999 -3.6387 2.2188 222
-2.9726999999999997 -0.8848 -0.5396 12
-3.0293 -0.9014 -0.4756 204
-3.3047000000000004 -0.9834 0.1186 13
-9.1484 -2.7226999999999997 0.5527000000000001 58
-9.125 -2.7148000000000003 0.7739 192
-9.0703 -2.6992000000000003 0.9902 143
-12.1797 -3.623 1.6288999999999998 129
-11.8125 -3.5137 1.8721 202
-12.085899999999999 -3.5957 2.2148 213
-2.9785000000000004 -0.8755 -0.54 35
-3.0214999999999996 -0.8881999999999999 -0.4739 21
-3.3262 -0.978 0.1193 115
-15.4375 -4.5391 0.9336 91
-9.1406 -2.6855 0.7744 129
-9.0781 -2.6699 0.9902 212
-12.1719 -3.5762 1.626 143
-11.8203 -3.4745999999999997 1.8721 89
-8.8047 -2.5879000000000003 1.6103999999999998 212
-2.9863 -0.8656999999999999 -0.541 230
-3.0058999999999996 -0.8711 -0.4707 160
-3.2891000000000004 -0.9531000000000001 0.1177 10
-9.1719 -2.6582 0.7764 93
-9.0859 -2.6327999999999996 0.9897 11
-12.1797 -3.5293 1.625 148
-11.7969 -3.4199 1.8672 197
-12.093800000000002 -3.5039 2.2129 177
-2.9863 -0.8540000000000001 -0.5405 14
-3.0077999999999996 -0.8599 -0.4705 10
-3.2891000000000004 -0.9404 0.1176 241
-3.1132999999999997 -0.8901 -0.41090000000000004 255
-15.4453 -4.418 1.3086000000000002 213
-12.3594 -3.5351999999999997 1.3466999999999998 31
-8.9609 -2.5645 1.1934 107
-8.8906 -2.543 1.4043 40
-12.085899999999999 -3.457 2.209 52
-2.9824 -0.8412999999999999 -0.5390999999999999 55
-3.0077999999999996 -0.8491 -0.4702 160
-3.2793 -0.9258 0.11720000000000001 76
-15.460899999999999 -4.3633 0.9320999999999999 111
-15.4531 -4.3633 1.3086000000000002 36
-9.2891 -2.6211 1.0098 253
-8.9688 -2.5312 1.1934 207
-8.9219 -2.5176 1.4072 253
-12.085899999999999 -3.4101999999999997 2.207 3
-2.9726999999999997 -0.8281000000000001 -0.5366 173
-3.0312 -0.8438 -0.4731 83
-3.2910000000000004 -0.9165000000000001 0.1175 228
-16.3125 -4.543 0.9829000000000001 115
-15.460899999999999 -4.3047 1.3075999999999999 229
-9.2891 -2.5858999999999996 1.0088 66
-11.8203 -3.2910000000000004 1.8643 250
-12.0703 -3.3613 2.2012 165
-2.9766000000000004 -0.8173999999999999 -0.5366 203
-3.0039 -0.8251999999999999 -0.46880000000000005 56
-3.2832 -0.9018999999999999 0.11710000000000001 199
-21.9375 -6.0273 1.3213 160
-15.4453 -4.2422 1.3047 164
-9.2969 -2.5527 1.0088 51
-12.1875 -3.3476999999999997 1.6211000000000002 149
-11.7969 -3.2401999999999997 1.8594 25
-12.0703 -3.3164 2.1992 165
-2.9785000000000004 -0.8070999999999999 -0.5366 183
-2.9922000000000004 -0.8105 -0.46630000000000005 83
-3.2812 -0.8892 0.11689999999999999 14
-20.8125 -5.636699999999999 1.252 203
-15.4453 -4.1836 1.3027000000000002 170
-9.3125 -2.5234 1.0098 1
-12.1875 -3.3026999999999997 1.6191 240
-8.8125 -2.3867 1.3847999999999998 204
-12.0703 -3.2714999999999996 2.1973 37
-2.9844 -0.7979 -0.5371 41
-3.0117000000000003 -0.8051999999999999 -0.469 183
-3.2617000000000003 -0.8721 0.1161 43
-19.5469 -5.2265999999999995 1.1748 217
-15.4531 -4.1328 1.3027000000000002 157
-9.3281 -2.4941 1.0107 146
-12.218800000000002 -3.2656 1.6211000000000002 9
-8.8828 -2.375 1.3955000000000002 196
-12.0781 -3.2305 2.1973 144
-2.9882999999999997 -0.7886 -0.5376 252
-3.0117000000000003 -0.7944 -0.4683 60
-3.2714999999999996 -0.8633 0.1164 148
-19.6562 -5.1836 1.1797 147
-15.4375 -4.0742 1.3008000000000002 229
-9.3359 -2.4648 1.0107 217
-12.218800000000002 -3.2226999999999997 1.6200999999999999 52
-9.0625 -2.3906 1.4219 159
-12.0625 -3.1816000000000004 2.1914 34
-2.9668 -0.7705 -0.5332 244
-3.0 -0.7793000000000001 -0.46630000000000005 161
-3.2714999999999996 -0.8495999999999999 0.1162 12
-3.0625 -0.7954000000000001 -0.40159999999999996 54
-19.875 -5.1602 1.1914 58
-15.5703 -4.043 1.3105000000000002 206
-9.375 -2.4355 1.0137 70
-12.218800000000002 -3.1738 1.6181999999999999 189
-9.1094 -2.3672 1.4287 6
-8.6719 -2.252 1.5732 210
-2.9726999999999997 -0.7612000000000001 -0.5337 123
-2.9961 -0.7670999999999999 -0.46509999999999996 81
-3.2812 -0.8403 0.1165 78
-3.1035000000000004 -0.7944 -0.4065 118
-12.3828 -3.1699 0.7412000000000001 187
-3.0801 -0.7881 -0.3296 91
-12.3828 -3.1719 1.041 199
-9.4141 -2.4102 1.0166 134
-12.2031 -3.125 1.6152000000000002 104
-11.7969 -3.0195 1.8496000000000001 182
-12.0 -3.0723000000000003 2.1758 161
-2.9745999999999997 -0.752 -0.5337 10
-3.0058999999999996 -0.7593000000000001 -0.46630000000000005 242
-3.2695 -0.8262 0.11599999999999999 76
-12.375 -3.125 0.7397 122
-3.1464999999999996 -0.7954000000000001 -0.3367 197
-12.351600000000001 -3.1211 1.0371 197
-3.1113 -0.7861 -0.2585 203
-9.4375 -2.3848 1.0186 96
-12.226600000000001 -3.0898000000000003 1.6162 12
-11.789100000000001 -2.9805 1.8486000000000002 166
-11.9375 -3.0156 2.1641 30
-2.9824 -0.7426999999999999 -0.5342 234
-2.9961 -0.7465999999999999 -0.4644 132
-3.252 -0.8105 0.1152 136
-12.351600000000001 -3.0762 0.7378 217
-3.1308999999999996 -0.7798 -0.3345 62
-12.3594 -3.0801 1.0371 152
-3.1094 -0.7748999999999999 -0.2581 108
-9.4766 -2.3594 1.0215 83
-3.1327999999999996 -0.7803 -0.1852 44
-12.226600000000001 -3.0469 1.6152000000000002 189
-3.125 -0.7783 -0.1107 3
-11.7656 -2.9297000000000004 1.8418 101
-11.851600000000001 -2.9531 2.1465 99
-2.9726999999999997 -0.7284999999999999 -0.5322 103
-3.0077999999999996 -0.7368000000000001 -0.4656 137
-3.252 -0.7968999999999999 0.1151 205
-12.3594 -3.0273000000000003 0.7378 95
-3.1035000000000004 -0.7603 -0.3311 21
-12.3906 -3.0370999999999997 1.0381 223
-3.1289 -0.7666 -0.2595 120
-9.5078 -2.3301 1.0244 114
-12.2344 -2.998 1.6152000000000002 209
-11.8047 -2.8926 1.8466999999999998 18
-3.1504000000000003 -0.772 -0.037000000000000005 188
-11.8203 -2.8964999999999996 2.1387 29
-2.9608999999999996 -0.7143999999999999 -0.5293 237
-3.0117000000000003 -0.7271 -0.4658 200
-3.2539 -0.7856000000000001 0.1151 33
-12.3672 -2.9844 0.7373000000000001 171
-3.125 -0.7544 -0.3333 251
-12.398399999999999 -2.9941000000000004 1.0381 182
-3.0586 -0.7383 -0.2532 95
-9.5859 -2.3145 1.0322 68
-9.6797 -2.3359 1.2754 71
-11.8672 -2.8632999999999997 1.8544999999999998 151
-9.1875 -2.2188 1.6591999999999998 58
-2.9707 -0.7061 -0.5307999999999999 177
-3.2129000000000003 -0.7637 0.0377 87
-3.002 -0.7139 -0.46409999999999996 214
-3.2617000000000003 -0.7748999999999999 0.1152 234
-12.4219 -2.9531 0.7402 90
-3.1387 -0.7461 -0.3345 120
-12.4922 -2.9688 1.0449 200
-3.1387 -0.7456 -0.25980000000000003 10
-12.3906 -2.9452999999999996 1.334 195
-9.6406 -2.291 1.2695 48
-9.6719 -2.2988 1.5097999999999998 189
-9.2031 -2.1875 1.6611000000000002 52
-2.9688 -0.6948000000000001 -0.5303 44
-3.0039 -0.7026 -0.4639 115
-3.2441000000000004 -0.7593000000000001 0.11460000000000001 135
-3.0526999999999997 -0.7143999999999999 -0.3979 199
-12.4844 -2.9219 0.7432 81
-3.0957 -0.7241 -0.3296 127
-13.460899999999999 -3.1504000000000003 1.126 59
-3.0625 -0.7168000000000001 -0.2532 197
-12.4922 -2.9238 1.3437999999999999 167
-9.6484 -2.2578 1.2695 13
-9.6719 -2.2637 1.5088 203
-11.773399999999999 -2.7539 2.125 31
-2.9785000000000004 -0.6865000000000001 -0.5317000000000001 18
-3.0 -0.6914 -0.4629 79
-3.2441000000000004 -0.748 0.11449999999999999 253
-3.125 -0.7202 -0.4072 251
-13.4844 -3.1074 0.8022 54
-3.1289 -0.7212000000000001 -0.3328 218
-13.468800000000002 -3.1055 1.125 6
-3.1074 -0.7162999999999999 -0.2568 33
-13.4844 -3.1094 1.4502000000000002 47
-9.6719 -2.2305 1.2715 183
-9.6797 -2.2324 1.5088 179
-9.6094 -2.2148 1.7305000000000001 200
-2.9608999999999996 -0.6724 -0.5283 141
-3.0137 -0.6840999999999999 -0.4648 18
-3.25 -0.7378 0.11460000000000001 58
-3.1543 -0.7162999999999999 -0.4106 127
-13.476600000000001 -3.0605 0.8012999999999999 69
-3.1113 -0.7061 -0.3308 118
-13.468800000000002 -3.0586 1.125 242
-3.1016000000000004 -0.7041 -0.2561 17
-13.468800000000002 -3.0586 1.4472999999999998 204
-3.2617000000000003 -0.7402 -0.19190000000000002 92
-9.7109 -2.2051 1.2754 200
-9.7344 -2.209 1.5146000000000002 97
-9.5781 -2.1738 1.7246000000000001 192
-2.9589999999999996 -0.6592 -0.5268999999999999 156
-3.0098000000000003 -0.6709 -0.4639 94
-3.2461 -0.7231000000000001 0.1143 104
-3.1074 -0.6923999999999999 -0.40409999999999996 209
-13.468800000000002 -3.002 0.8003 183
-3.0858999999999996 -0.6875 -0.32789999999999997 228
-13.468800000000002 -3.002 1.124 225
-3.0938 -0.6895 -0.2551 75
-13.468800000000002 -3.0 1.4453 227
-12.226600000000001 -2.7245999999999997 1.6055000000000001 104
-9.8359 -2.1914 1.5293 76
-9.5859 -2.1367 1.7246000000000001 159
-2.9668 -0.6494 -0.5283 12
-3.0077999999999996 -0.6581999999999999 -0.4629 250
-3.2344 -0.7084999999999999 0.11380000000000001 215
-3.0858999999999996 -0.6758 -0.40090000000000003 135
-13.468800000000002 -2.9492000000000003 0.7998000000000001 149
-3.1055 -0.6797 -0.3296 158
-13.460899999999999 -2.9473000000000003 1.1220999999999999 122
-3.1035000000000004 -0.6797 -0.2559 241
-13.4922 -2.9531 1.4463 56
-3.1973000000000003 -0.6997 -0.1877 241
-12.226600000000001 -2.6757999999999997 1.6044999999999998 171
-9.8906 -2.1641 1.5371000000000001 5
-9.5703 -2.0957 1.7207 132
-2.9707 -0.6411 -0.5283 186
-2.9961 -0.6465000000000001 -0.4607 22
-3.2363 -0.6981999999999999 0.11380000000000001 228
-3.1191000000000004 -0.6733 -0.405 248
-13.476600000000001 -2.9082 0.7993000000000001 99
-3.0957 -0.6679999999999999 -0.3281 241
-13.468800000000002 -2.9062 1.1220999999999999 147
-3.0938 -0.6679999999999999 -0.25489999999999996 3
-13.4922 -2.9120999999999997 1.4463 248
-3.1719 -0.6846 -0.18600000000000003 52
-12.25 -2.6426 1.6063999999999998 5
-12.039100000000001 -2.5995999999999997 1.8721 209
-9.8516 -2.125 1.7686000000000002 196
-2.9648000000000003 -0.6299 -0.5268999999999999 112
-3.0 -0.6372 -0.4612 96
-3.2285000000000004 -0.6855 0.11349999999999999 98
-3.0566000000000004 -0.6489 -0.39649999999999996 109
-13.476600000000001 -2.8632999999999997 0.7993000000000001 131
-3.0976999999999997 -0.6577 -0.3281 123
-13.460899999999999 -2.8594 1.1211 126
-3.0957 -0.6577 -0.25489999999999996 20
-13.476600000000001 -2.8613 1.4434 46
-3.1151999999999997 -0.6616 -0.1826 113
-12.25 -2.6016000000000004 1.6055000000000001 229
-12.0469 -2.5586 1.8711000000000002 178
-9.8984 -2.1016 1.7763999999999998 22
-2.9551 -0.6162 -0.5249 31
-3.0058999999999996 -0.627 -0.4617 97
-3.2245999999999997 -0.6724 0.11320000000000001 27
-3.0351999999999997 -0.6328 -0.3933 164
-13.460899999999999 -2.8086 0.7974 69
-3.0995999999999997 -0.6465000000000001 -0.3281 158
-13.468800000000002 -2.8105 1.1201 250
-3.1113 -0.6489 -0.2559 111
-13.460899999999999 -2.8066000000000004 1.4404 120
-3.1367000000000003 -0.6543000000000001 -0.1837 53
-12.2656 -2.5586 1.6063999999999998 157
-12.0703 -2.5176 1.874 142
-11.75 -2.4492 2.1074 147
-2.9589999999999996 -0.6064 -0.5254 24
-3.0098000000000003 -0.6167 -0.4619 190
-3.2226999999999997 -0.6606000000000001 0.1131 145
-3.0254000000000003 -0.6201 -0.3918 234
-13.5156 -2.7695 0.7998000000000001 128
-3.0742000000000003 -0.6299 -0.32520000000000004 114
-13.5469 -2.7754000000000003 1.126 60
-3.1406 -0.6436 -0.2581 38
-13.468800000000002 -2.7598000000000003 1.4404 12
-3.1543 -0.6465000000000001 -0.18469999999999998 71
-12.226600000000001 -2.5039 1.5996000000000001 142
-12.085899999999999 -2.4766 1.874 68
-11.7422 -2.4062 2.1055 25
-2.9589999999999996 -0.5947 -0.5244 134
-3.0 -0.6035 -0.46020000000000005 199
-3.2245999999999997 -0.6484000000000001 0.1131 109
-3.0351999999999997 -0.6103999999999999 -0.39280000000000004 233
-13.5547 -2.7266000000000004 0.8018000000000001 197
-3.0801 -0.6196 -0.3257 183
-13.5781 -2.7305 1.1279000000000001 63
-3.0839999999999996 -0.6201 -0.2532 23
-13.4531 -2.7051 1.4375 32
-3.1620999999999997 -0.6357 -0.18489999999999998 232
-12.2422 -2.4609 1.6006 146
-3.1875 -0.6411 -0.1118 154
-12.101600000000001 -2.4336 1.876 34
-11.7578 -2.3652 2.1074 102
-2.9688 -0.5859000000000001 -0.5259 80
-3.0039 -0.5932999999999999 -0.4604 180
-3.2285000000000004 -0.6372 0.1131 82
-3.1464999999999996 -0.6215999999999999 -0.4072 157
-13.593800000000002 -2.6836 0.8031999999999999 163
-3.2168 -0.6347999999999999 -0.3398 238
-13.5703 -2.6797000000000004 1.127 71
-3.125 -0.6172 -0.2566 107
-13.468800000000002 -2.6601999999999997 1.4385 55
-3.1367000000000003 -0.6191 -0.1833 176
-12.25 -2.418 1.6006 241
-3.1035000000000004 -0.6128 -0.10869999999999999 12
-12.093800000000002 -2.3887 1.874 203
-3.1757999999999997 -0.6274000000000001 -0.037000000000000005 34
-11.781199999999998 -2.3262 2.1094 43
-2.9668 -0.5757 -0.5254 149
-3.2168 -0.6245 0.0374 167
-2.998 -0.5820000000000001 -0.4592 152
-3.2188 -0.6245 0.1127 201
-13.593800000000002 -2.6367000000000003 0.8031999999999999 31
-13.593800000000002 -2.6367000000000003 1.127 19
-13.476600000000001 -2.6132999999999997 1.4375 200
-12.2578 -2.3789 1.6006 186
-12.085899999999999 -2.3438 1.8700999999999999 138
-11.773399999999999 -2.2852 2.1074 169
-2.9608999999999996 -0.564 -0.5239 107
-3.3651999999999997 -0.6411 0.0392 0
-3.0039 -0.5728 -0.46 82
-3.2324 -0.6157 0.1131 132
-13.585899999999999 -2.5879000000000003 0.8018000000000001 6
-13.593800000000002 -2.5918 1.127 222
-13.460899999999999 -2.5645 1.4355000000000002 176
-12.2656 -2.3379 1.6006 132
-11.851600000000001 -2.2598 1.8330000000000002 170
-11.773399999999999 -2.2441 2.1055 98
-2.9512 -0.5508 -0.522 176
-3.0039 -0.5605 -0.4597 97
-3.2422000000000004 -0.605 0.1133 153
-13.5781 -2.5332 0.8012999999999999 250
-13.585899999999999 -2.5352 1.125 26
-13.4531 -2.5098 1.4336000000000002 116
-12.25 -2.2852 1.5977000000000001 66
-11.851600000000001 -2.2109 1.8311000000000002 107
-11.7656 -2.1953 2.1016 53
-2.9608999999999996 -0.5415 -0.5234000000000001 107
-2.998 -0.5488000000000001 -0.4585 60
-3.2401999999999997 -0.5928 0.11320000000000001 87
-13.5781 -2.4844 0.8008 63
-13.5781 -2.4844 1.124 101
-13.4844 -2.4668 1.4355000000000002 210
-12.2344 -2.2383 1.5947 175
-11.8594 -2.1699 1.8319999999999999 88
-11.773399999999999 -2.1543 2.1035 246
-2.9589999999999996 -0.5312 -0.5225 234
-2.9941000000000004 -0.5376 -0.4575 126
-3.2188 -0.5781000000000001 0.1124 127
-13.585899999999999 -2.4395 0.8008 171
-13.5781 -2.4375 1.123 42
-13.476600000000001 -2.4199 1.4346 144
-12.2578 -2.2012 1.5966999999999998 185
-11.875 -2.1328 1.8330000000000002 197
-11.781199999999998 -2.1152 2.1035 174
-2.957 -0.5205 -0.522 51
-2.9941000000000004 -0.5273 -0.4573 231
-3.2051 -0.5645 0.1118 21
-13.585899999999999 -2.3926 0.7998000000000001 41
-13.5703 -2.3906 1.1220999999999999 9
-13.4844 -2.375 1.4346 8
-12.2656 -2.1602 1.5966999999999998 166
-12.093800000000002 -2.1289 1.8652000000000002 101
-11.773399999999999 -2.0742 2.1016 210
-2.9589999999999996 -0.5093 -0.522 33
-3.0058999999999996 -0.5176 -0.4587 73
-3.2207 -0.5547 0.11230000000000001 218
-13.5781 -2.3379 0.7988 235
-13.585899999999999 -2.3379 1.1220999999999999 158
-13.468800000000002 -2.3203 1.4325999999999999 179
-12.25 -2.1094 1.5937999999999999 94
-12.1172 -2.0859 1.8681999999999999 52
-11.773399999999999 -2.0273 2.0996 159
-2.9473000000000003 -0.4968 -0.5195000000000001 227
-3.0098000000000003 -0.5073 -0.45899999999999996 60
-3.2324 -0.5449 0.1127 195
-13.5703 -2.2871 0.7979 90
-13.593800000000002 -2.291 1.1220999999999999 196
-13.4922 -2.2754 1.4336000000000002 16
-12.2578 -2.0664 1.5937999999999999 26
-12.1172 -2.043 1.8672 74
-11.7578 -1.9824000000000002 2.0957 235
-2.9531 -0.488 -0.5205 64
-3.0 -0.49560000000000004 -0.4573 135
-3.2266000000000004 -0.5327000000000001 0.1124 97
-13.5625 -2.2402 0.7974 31
-13.539100000000001 -2.2363 1.1172 226
-13.5078 -2.2324 1.4346 11
-12.25 -2.0234 1.5918 143
-12.125 -2.002 1.8672 137
-11.7578 -1.9424000000000001 2.0938 113
-2.9648000000000003 -0.4797 -0.5225 171
-2.9961 -0.48460000000000003 -0.45630000000000004 184
-3.2089999999999996 -0.519 0.1117 131
-13.5469 -2.1914 0.7959 46
-13.5547 -2.1934 1.1181999999999999 176
-13.5156 -2.1875 1.4346 153
-12.25 -1.9824000000000002 1.5908000000000002 100
-12.1094 -1.959 1.8633000000000002 105
-11.7656 -1.9033000000000002 2.0938 11
-2.9629000000000003 -0.46880000000000005 -0.5215 52
-2.9922000000000004 -0.47340000000000004 -0.45530000000000004 211
-3.2226999999999997 -0.5097999999999999 0.1121 152
-13.539100000000001 -2.1406 0.7948999999999999 25
-13.4922 -2.1348 1.1123 49
-13.460899999999999 -2.1289 1.4277000000000002 168
-12.2656 -1.9413999999999998 1.5928 237
-12.101600000000001 -1.915 1.8613 10
-11.781199999999998 -1.8633000000000002 2.0957 195
-2.9531 -0.457 -0.5195000000000001 61
-3.0039 -0.4648 -0.4568 119
-3.2031 -0.4961 0.1114 210
-13.4453 -2.082 0.7890999999999999 133
-13.4453 -2.0801 1.1074 114
-13.4297 -2.0801 1.4238 231
-12.273399999999999 -1.8994 1.5918 19
-12.101600000000001 -1.874 1.8613 38
-11.7578 -1.8203 2.0898 114
-2.9452999999999996 -0.4448 -0.5176 27
-2.998 -0.4531 -0.4561 21
-3.2129000000000003 -0.4854 0.1117 245
-13.4375 -2.0312 0.7881 221
-13.460899999999999 -2.0332 1.1084 160
-13.4375 -2.0293 1.4238 139
-12.281199999999998 -1.8555000000000001 1.5928 227
-12.1172 -1.8300999999999998 1.8613 188
-11.7578 -1.7763999999999998 2.0898 71
-2.9492000000000003 -0.4351 -0.5186 205
-3.0058999999999996 -0.4434 -0.4568 126
-3.2188 -0.47490000000000004 0.1118 55
-13.4375 -1.9824000000000002 0.7876000000000001 177
-13.4375 -1.9824000000000002 1.1064 200
-13.4531 -1.9844 1.4247999999999998 112
-12.273399999999999 -1.8105000000000002 1.5908000000000002 161
-12.1172 -1.7871000000000001 1.8613 5
-11.7578 -1.7344 2.0898 203
-2.957 -0.425 -0.5195000000000001 201
-2.998 -0.43090000000000006 -0.45530000000000004 129
-3.2089999999999996 -0.4612 0.1114 2
-13.4453 -1.9325999999999999 0.7876000000000001 254
-13.4375 -1.9316 1.1055 136
-13.4453 -1.9336000000000002 1.4238 74
-12.281199999999998 -1.7646000000000002 1.5897999999999999 48
-12.1094 -1.7402000000000002 1.8584 66
-11.7578 -1.6894999999999998 2.0859 207
-2.9551 -0.4143 -0.5186 168
-2.9882999999999997 -0.4189 -0.4536 153
-3.1797000000000004 -0.4456 0.1103 97
-13.4531 -1.8857 0.7876000000000001 99
-13.4453 -1.8847999999999998 1.1055 23
-13.4531 -1.8857 1.4228999999999998 123
-12.281199999999998 -1.7207 1.5888999999999998 239
-12.093800000000002 -1.6953 1.8563999999999998 175
-11.7656 -1.6494 2.0879 132
-2.9531 -0.40380000000000005 -0.5181 168
-2.9922000000000004 -0.4092 -0.4539 152
-3.2207 -0.4404 0.1117 227
-13.4375 -1.8388999999999998 0.7866 24
-13.4375 -1.8378999999999999 1.1045 43
-13.4297 -1.8378999999999999 1.4199000000000002 224
-12.273399999999999 -1.6787 1.5878999999999999 243
-12.1094 -1.6562000000000001 1.8574000000000002 153
-11.7578 -1.6094 2.0859 111
-2.9375 -0.3921 -0.5151 63
-2.9941000000000004 -0.3997 -0.45409999999999995 98
-3.1973000000000003 -0.4268 0.1108 142
-13.4297 -1.7919999999999998 0.7856000000000001 80
-12.5078 -1.6688999999999998 1.0273 45
-12.5078 -1.6688999999999998 1.3213 125
-12.2656 -1.6366999999999998 1.5869 64
-12.125 -1.6172 1.8584 215
-11.7422 -1.5663999999999998 2.0801 67
-2.9433999999999996 -0.38130000000000003 -0.5161 81
-2.9941000000000004 -0.38770000000000004 -0.4539 198
-3.2226999999999997 -0.4175 0.1117 130
-12.5 -1.6181999999999999 0.7304999999999999 38
-12.5 -1.6191 1.0264 123
-12.5156 -1.6200999999999999 1.3213 163
-12.2578 -1.5878999999999999 1.585 107
-12.125 -1.5703 1.8574000000000002 81
-11.7422 -1.5215 2.0801 27
-2.9531 -0.3721 -0.5176 209
-2.9863 -0.3762 -0.4524 1
-3.1933999999999996 -0.4021 0.1106 245
-12.5156 -1.5762 0.731 115
-12.5 -1.5752000000000002 1.0254 246
-12.4297 -1.5663999999999998 1.3125 68
-12.2578 -1.5438999999999998 1.584 94
-11.9375 -1.5038999999999998 1.8281 55
-11.7578 -1.4805000000000001 2.082 117
-2.9492000000000003 -0.3618 -0.5166 208
-2.9941000000000004 -0.36719999999999997 -0.4536 79
-3.1973000000000003 -0.3921 0.1107 5
-12.3906 -1.5194999999999999 0.7236 203
-12.3906 -1.5194999999999999 1.0156 246
-12.351600000000001 -1.5146000000000002 1.3037 189
-12.2656 -1.5038999999999998 1.584 119
-11.8672 -1.4550999999999998 1.8163999999999998 185
-11.7578 -1.4413999999999998 2.082 199
-2.9473000000000003 -0.35159999999999997 -0.5161 24
-2.9922000000000004 -0.3567 -0.45289999999999997 196
-3.1952999999999996 -0.3811 0.1106 123
-12.3125 -1.4678 0.7188 240
-12.3047 -1.4668 1.0088 156
-12.3281 -1.4697 1.3008000000000002 187
-12.273399999999999 -1.4628999999999999 1.584 180
-11.8828 -1.4169999999999998 1.8184 19
-11.7578 -1.4013999999999998 2.0801 153
-2.9316000000000004 -0.3386 -0.5127 89
-3.0058999999999996 -0.3472 -0.4548 125
-3.1933999999999996 -0.3689 0.1104 160
-12.273399999999999 -1.4180000000000001 0.7162999999999999 222
-12.3281 -1.4238 1.0098 121
-12.281199999999998 -1.4188999999999998 1.2949000000000002 112
-12.2578 -1.416 1.5819999999999999 31
-11.8906 -1.374 1.8184 157
-11.7422 -1.3563999999999998 2.0762 101
-2.9375 -0.32909999999999995 -0.5136999999999999 136
-2.9882999999999997 -0.3347 -0.4521 235
-3.2108999999999996 -0.3594 0.111 239
-12.289100000000001 -1.376 0.7168000000000001 214
-12.2969 -1.3769999999999998 1.0068000000000001 16
-12.3125 -1.3788999999999998 1.2978999999999998 228
-12.25 -1.3721 1.5800999999999998 57
-12.1094 -1.3555000000000001 1.8516 143
-11.75 -1.3154 2.0781 25
-2.9531 -0.32030000000000003 -0.5161 174
-2.9805 -0.3232 -0.45039999999999997 96
-3.1992000000000003 -0.3469 0.1106 239
-12.3047 -1.335 0.7173 56
-12.3203 -1.3359 1.0088 55
-12.351600000000001 -1.3397999999999999 1.3008000000000002 51
-12.2578 -1.3291 1.5811000000000002 182
-12.1094 -1.3135 1.8516 85
-11.75 -1.2744 2.0762 7
-2.9531 -0.31010000000000004 -0.5161 27
-2.9922000000000004 -0.314 -0.4524 6
-3.1973000000000003 -0.3354 0.1104 225
-12.3281 -1.2938999999999998 0.7188 118
-12.351600000000001 -1.2959 1.0107 211
-12.3672 -1.2969 1.3018 77
-12.2656 -1.2871000000000001 1.5811000000000002 227
-12.101600000000001 -1.2695 1.8486000000000002 144
-11.7578 -1.2334 2.0762 194
-2.9452999999999996 -0.2986 -0.5146000000000001 107
-2.998 -0.304 -0.45289999999999997 251
-3.1973000000000003 -0.32420000000000004 0.1104 76
-12.351600000000001 -1.2529000000000001 0.7197 68
-12.4375 -1.2617 1.0176 228
-12.468800000000002 -1.2646 1.3125 210
-12.3203 -1.25 1.5878999999999999 187
-12.093800000000002 -1.2266 1.8477000000000001 144
-11.7422 -1.1914 2.0742 171
-2.9316000000000004 -0.2871 -0.5122 14
-2.9961 -0.2932 -0.4526 74
-3.1914 -0.3123 0.11019999999999999 131
-12.4453 -1.2178 0.7245999999999999 196
-12.5078 -1.2236 1.0225 170
-12.4922 -1.2227 1.3144999999999998 195
-12.4219 -1.2158 1.5996000000000001 126
-12.1172 -1.1855 1.8496000000000001 240
-11.7422 -1.1494 2.0723 247
-2.9414 -0.2781 -0.5136999999999999 35
-2.9901999999999997 -0.2827 -0.4514 179
-3.1992000000000003 -0.3025 0.1104 201
-12.5078 -1.1826 0.7284999999999999 233
-12.4922 -1.1806999999999999 1.0215 48
-12.5078 -1.1826 1.3154 28
-12.406199999999998 -1.1729 1.5977000000000001 111
-12.1094 -1.1445 1.8486000000000002 142
-11.718800000000002 -1.1084 2.0684 9
-2.957 -0.2698 -0.5161 96
-2.9766000000000004 -0.27149999999999996 -0.4495 205
-3.1816000000000004 -0.29 0.1097 217
-12.5 -1.1396 0.7275 160
-12.4844 -1.1387 1.0205 87
-12.5078 -1.1406 1.3154 15
-12.476600000000001 -1.1377 1.6063999999999998 202
-12.335899999999999 -1.125 1.8818000000000001 9
-11.7422 -1.0703 2.0703 94
-2.9473000000000003 -0.25780000000000003 -0.5142 28
-2.9805 -0.2607 -0.4497 86
-3.1855 -0.2788 0.1099 111
-12.4922 -1.0928 0.7271 49
-12.5 -1.0937999999999999 1.0215 247
-12.4922 -1.0928 1.3135 159
-12.4922 -1.0928 1.6074000000000002 26
-12.343800000000002 -1.0801 1.8828 200
-11.7422 -1.0273 2.0703 9
-2.9433999999999996 -0.24719999999999998 -0.5136999999999999 102
-2.9882999999999997 -0.251 -0.4509 173
-3.2108999999999996 -0.2695 0.1107 84
-12.4922 -1.0488 0.7265999999999999 123
-12.4922 -1.0488 1.0205 139
-12.468800000000002 -1.0469 1.3105000000000002 247
-12.460899999999999 -1.0469 1.6035 27
-12.335899999999999 -1.0361 1.8818000000000001 18
-11.7344 -0.9854 2.0684 57
-2.9297000000000004 -0.2357 -0.5107 142
-2.9961 -0.24100000000000002 -0.4517 17
-3.2108999999999996 -0.2583 0.1107 21
-12.4375 -1.0 0.7231000000000001 103
-12.4531 -1.002 1.0166 151
-12.476600000000001 -1.0039 1.3115 132
-12.4297 -1.0 1.5986000000000002 173
-12.343800000000002 -0.9932 1.8818000000000001 6
-11.726600000000001 -0.9438 2.0664 30
-2.9375 -0.2261 -0.5122 189
-2.9824 -0.22949999999999998 -0.4497 36
-3.2129000000000003 -0.24719999999999998 0.1107 101
-12.476600000000001 -0.96 0.7256 207
-12.4844 -0.9609000000000001 1.0195 20
-12.5078 -0.9623999999999999 1.3135 190
-12.468800000000002 -0.9595 1.6035 150
-12.335899999999999 -0.9492 1.8799000000000001 191
-11.7344 -0.9028 2.0684 121
-2.9433999999999996 -0.2161 -0.5127 32
-2.9745999999999997 -0.21850000000000003 -0.4485 145
-3.1895 -0.2343 0.1099 185
-12.4922 -0.9175 0.7261 240
-12.4844 -0.917 1.0186 49
-12.5 -0.9179999999999999 1.3125 64
-12.468800000000002 -0.9155 1.6025 98
-12.335899999999999 -0.9057999999999999 1.8788999999999998 0
-11.7344 -0.8613 2.0664 108
-2.9473000000000003 -0.2061 -0.5136999999999999 171
-2.9785000000000004 -0.20829999999999999 -0.4487 9
-3.1973000000000003 -0.2236 0.11019999999999999 62
-12.4922 -0.8734999999999999 0.7256 59
-12.4844 -0.873 1.0186 245
-12.4922 -0.8734999999999999 1.3115 250
-12.4922 -0.873 1.6044999999999998 158
-12.351600000000001 -0.8637999999999999 1.8818000000000001 56
-11.7422 -0.8208 2.0684 244
-2.9316000000000004 -0.19469999999999998 -0.5107 60
-2.9882999999999997 -0.1985 -0.45020000000000004 147
-3.1836 -0.2114 0.1096 226
-12.4922 -0.8295999999999999 0.7256 72
-12.4922 -0.8295999999999999 1.0186 224
-12.476600000000001 -0.8291 1.3096 209
-12.476600000000001 -0.8291 1.6035 197
-12.460899999999999 -0.8276 1.8984 210
-11.8594 -0.7881 2.0898 29
-2.9257999999999997 -0.1841 -0.5093 233
-2.9863 -0.18789999999999998 -0.4497 114
-3.1914 -0.20079999999999998 0.1099 19
-12.476600000000001 -0.7852 0.7245999999999999 80
-12.5 -0.7866 1.0195 134
-12.4844 -0.7852 1.3096 163
-12.468800000000002 -0.7847 1.6025 187
-12.406199999999998 -0.7807999999999999 1.8896000000000002 122
-12.3281 -0.7759 2.1699 119
-2.9336 -0.1748 -0.5107 119
-2.9805 -0.1776 -0.4487 68
-3.2012 -0.1907 0.11019999999999999 201
-12.4844 -0.7437 0.7245999999999999 61
-12.4844 -0.7441 1.0186 154
-12.4922 -0.7445999999999999 1.3105000000000002 151
-12.460899999999999 -0.7426999999999999 1.6006 196
-12.468800000000002 -0.7426999999999999 1.8984 57
-10.1797 -0.6069 1.791 90
-2.9375 -0.1653 -0.5112 123
-2.9726999999999997 -0.1672 -0.4475 78
-3.1776999999999997 -0.1787 0.1093 3
-12.4922 -0.7026 0.7251000000000001 7
-12.468800000000002 -0.7017 1.0166 164
-12.5 -0.7031000000000001 1.3115 127
-12.468800000000002 -0.7012 1.6006 235
-12.476600000000001 -0.7017 1.8984 112
-10.1797 -0.5728 1.79 151
-2.9512 -0.1552 -0.5136999999999999 33
-2.9726999999999997 -0.1564 -0.4475 247
-3.1914 -0.1678 0.10980000000000001 241
-12.4922 -0.6567000000000001 0.7251000000000001 105
-12.476600000000001 -0.6562 1.0166 121
-12.476600000000001 -0.6557999999999999 1.3086000000000002 29
-12.476600000000001 -0.6557999999999999 1.6016 133
-12.460899999999999 -0.6553 1.8955000000000002 122
-12.3828 -0.6514 2.1797 194
-2.9452999999999996 -0.1445 -0.5127 4
-2.9901999999999997 -0.1467 -0.45 226
-3.1914 -0.1567 0.10980000000000001 205
-12.4844 -0.6128 0.7245999999999999 150
-12.4844 -0.6128 1.0176 102
-12.476600000000001 -0.6123 1.3086000000000002 44
-12.468800000000002 -0.6123 1.6006 111
-12.460899999999999 -0.6113000000000001 1.8955000000000002 71
-10.25 -0.5034000000000001 1.8027000000000002 156
-2.9316000000000004 -0.13419999999999999 -0.5103 84
-2.9863 -0.1366 -0.4495 42
-3.2012 -0.1465 0.1101 44
-12.468800000000002 -0.5703 0.7236 167
-12.4922 -0.5718 1.0176 6
-12.476600000000001 -0.5708 1.3075999999999999 197
-12.476600000000001 -0.5708 1.6006 63
-12.468800000000002 -0.5708 1.8975 108
-10.1875 -0.4661 1.79 59
-2.9355 -0.1246 -0.5107 149
-2.9805 -0.1265 -0.4485 63
-3.1914 -0.1354 0.1097 76
-12.476600000000001 -0.5293 0.7236 190
-12.476600000000001 -0.5293 1.0166 193
-12.5 -0.5303 1.3105000000000002 1
-12.468800000000002 -0.5293 1.5996000000000001 18
-12.4844 -0.5297999999999999 1.8984 75
-12.3828 -0.5254 2.1777 138
-2.9395 -0.11349999999999999 -0.5112 66
-2.9805 -0.1151 -0.4485 184
-3.1914 -0.1232 0.1097 198
-12.4844 -0.4819 0.7241 76
-12.460899999999999 -0.48100000000000004 1.0146 204
-12.4922 -0.4819 1.3096 170
-12.460899999999999 -0.48100000000000004 1.5986000000000002 78
-12.476600000000001 -0.4814 1.8975 66
-12.375 -0.4775 2.1758 191
-2.9492000000000003 -0.1035 -0.5127 121
-2.9707 -0.1042 -0.4465 229
-3.1738 -0.1114 0.1091 102
-12.4844 -0.43799999999999994 0.7241 244
-12.460899999999999 -0.4375 1.0156 78
-12.4922 -0.4385 1.3096 252
-12.468800000000002 -0.43770000000000003 1.5996000000000001 88
-12.460899999999999 -0.4375 1.8955000000000002 10
-12.3828 -0.4346 2.1777 184
-2.9414 -0.09300000000000001 -0.5112 253
-2.9901999999999997 -0.09449999999999999 -0.4497 175
-3.1914 -0.1008 0.1097 106
-12.476600000000001 -0.39399999999999996 0.7231000000000001 185
-12.4844 -0.3945 1.0166 133
-12.4844 -0.3945 1.3086000000000002 223
-12.476600000000001 -0.39399999999999996 1.5996000000000001 60
