# .PCD v0.7 - Point Cloud Data file format
VERSION 0.7
FIELDS x y z intensity
SIZE 4 4 4 4
TYPE F F F F
COUNT 1 1 1 1
WIDTH 1382
HEIGHT 1
VIEWPOINT 0 0 0 1 0 0 0
POINTS 1382
DATA ascii
-4.2656 8.7891 -1.251 29
-28.625 59.0 3.8125 46
-5.0586 10.4219 -1.2129 150
-6.1953 12.7656 -1.1553 200
-12.476600000000001 25.7031 3.0 95
-7.890599999999999 16.25 -1.0488 142
-12.476600000000001 25.7031 3.6699 246
-11.5078 23.7031 -0.9185 217
-12.0625 24.8594 4.207 194
-3.252 6.765599999999999 -1.3163999999999998 222
-3.6797000000000004 7.6523 -1.2881 123
-4.2383 8.8125 -1.2529000000000001 81
-28.3438 58.9688 3.8047000000000004 84
-5.0273 10.4531 -1.2148 160
-12.1172 25.2031 2.2812 56
-6.136699999999999 12.7578 -1.1523 167
-13.0625 27.1719 3.1641000000000004 197
-7.8438 16.3125 -1.0508 86
-12.3203 25.6094 3.6504000000000003 209
-12.4844 25.9531 4.3867 205
-12.1953 25.3594 4.9531 74
-3.2245999999999997 6.765599999999999 -1.3144999999999998 38
-3.6504000000000003 7.6602 -1.2871000000000001 30
-4.1992 8.8125 -1.25 218
-28.125 59.0 3.8007999999999997 34
-4.9844 10.460899999999999 -1.2129 228
-12.0 25.1719 2.2754 235
-6.082000000000001 12.7656 -1.1514 238
-12.9375 27.1406 3.1562 67
-7.7773 16.3125 -1.0488 89
-12.1797 25.5625 3.6367000000000003 45
-12.343800000000002 25.9062 4.3711 24
-12.1172 25.4219 4.957 227
-3.1952999999999996 6.765599999999999 -1.3115 70
-3.627 7.6797 -1.2881 250
-4.168 8.8203 -1.25 146
-27.8594 58.9688 3.793 141
-4.9453 10.468800000000002 -1.2129 30
-11.898399999999999 25.1875 2.2715 152
-6.0312 12.7656 -1.1494 36
-7.707000000000001 16.3125 -1.0479 106
-12.039100000000001 25.5 3.6211 235
-12.210899999999999 25.8438 4.3516 206
-3.1660000000000004 6.761699999999999 -1.3096 174
-3.5995999999999997 7.6914 -1.2881 96
-4.1367 8.8438 -1.25 35
-27.5938 58.9375 3.7851999999999997 62
-4.9023 10.476600000000001 -1.2109 255
-11.7969 25.2031 2.2695 62
-5.984400000000001 12.789100000000001 -1.1494 218
-12.1094 25.875 2.998 125
-7.640599999999999 16.3281 -1.0459 163
-11.9297 25.5 3.6151999999999997 254
-11.085899999999999 23.6875 -0.9116 78
-12.2031 26.0781 4.3828 252
-3.1464999999999996 6.7852 -1.3115 247
-3.5586 7.675800000000001 -1.2832 248
-4.1094 8.8594 -1.251 244
-27.3281 58.9375 3.7773000000000003 68
-4.8594 10.476600000000001 -1.209 132
-5.9336 12.7969 -1.1484 107
-7.5938 16.375 -1.0479 71
-11.773399999999999 25.3906 3.5957 53
-11.0 23.7344 -0.9116 213
-12.0703 26.0312 4.3672 187
-3.1211 6.792999999999999 -1.3105000000000002 108
-3.5351999999999997 7.6914 -1.2841999999999998 225
-4.0703 8.8594 -1.249 200
-27.0938 58.9688 3.7733999999999996 189
-4.8203 10.4922 -1.209 131
-5.8828 12.8047 -1.1475 251
-11.8594 25.8125 2.9805 9
-7.5390999999999995 16.4062 -1.0479 24
-12.0703 26.2656 3.7129000000000003 135
-10.898399999999999 23.7188 -0.9097 10
-12.0078 26.125 4.3789 91
-3.1074 6.824199999999999 -1.3154 83
-3.5117000000000003 7.7148 -1.2861000000000002 69
-4.0352 8.8672 -1.2470999999999999 106
-4.793 10.523399999999999 -1.2109 255
-5.828099999999999 12.8047 -1.1455 158
-7.4688 16.4062 -1.0459 244
-11.7578 25.8281 3.6445 69
-10.7969 23.7188 -0.9081999999999999 255
-11.914100000000001 26.1719 4.3789 112
-3.0702999999999996 6.8047 -1.3086000000000002 136
-3.4824 7.7188 -1.2852000000000001 40
-4.0039 8.875 -1.2470999999999999 197
-12.7578 28.2812 1.8027000000000002 178
-4.75 10.531199999999998 -1.21 136
-5.792999999999999 12.843800000000002 -1.1475 5
-7.4023 16.4062 -1.0449 200
-10.7031 23.7344 -0.9072 167
-11.7578 26.0625 4.3516 251
-12.781199999999998 28.3281 -0.3625 5
-3.0469 6.8164 -1.3096 85
-12.718800000000002 28.4375 0.3635 141
-3.4531 7.7227 -1.2832 255
-12.6797 28.3594 1.083 5
-3.9726999999999997 8.8828 -1.2461 66
-12.6875 28.375 1.8056999999999999 144
-4.707 10.531199999999998 -1.208 182
-5.7461 12.851600000000001 -1.1465 53
-7.3398 16.4062 -1.043 251
-11.7031 26.1719 3.6836 91
-10.601600000000001 23.7031 -0.9053 254
-11.664100000000001 26.0781 4.3516 15
-12.7031 28.4062 -0.363 179
-10.375 23.2031 4.4727 69
-3.0233999999999996 6.824199999999999 -1.3086000000000002 8
-3.4316000000000004 7.7461 -1.2852000000000001 36
-3.9473000000000003 8.9062 -1.248 220
-26.1094 58.9062 3.7461 52
-4.6641 10.523399999999999 -1.2051 254
-5.6875 12.835899999999999 -1.1436 25
-7.2890999999999995 16.4531 -1.0439 115
-10.5156 23.7344 -0.9043000000000001 38
-11.5547 26.0781 4.3438 158
-3.0039 6.8477 -1.3115 254
-3.4004000000000003 7.7539 -1.2852000000000001 34
-3.9062 8.9062 -1.2461 204
-25.8594 58.9375 3.7422000000000004 74
-4.6211 10.539100000000001 -1.2051 0
-5.6289 12.835899999999999 -1.1416 37
-7.2265999999999995 16.4844 -1.0439 81
-35.75 81.5 11.4453 192
-10.406199999999998 23.7188 -0.9028 245
-11.4531 26.125 4.3438 52
-2.9805 6.863300000000001 -1.3115 224
-3.3711 7.7578 -1.2832 146
-3.8672000000000004 8.9062 -1.2431999999999999 14
-25.6094 58.9375 3.7363 113
-4.5898 10.5625 -1.2061 4
-5.578099999999999 12.835899999999999 -1.1396 251
-7.1640999999999995 16.4844 -1.043 10
-35.3125 81.25 11.3906 102
-10.3281 23.7812 -0.9033 60
-10.468800000000002 24.0938 4.0 141
-2.9512 6.855499999999999 -1.3086000000000002 36
-3.3476999999999997 7.7773 -1.2852000000000001 11
-3.8398000000000003 8.9219 -1.2441 168
-10.4922 24.375 1.5419999999999998 116
-4.5508 10.5781 -1.2051 60
-5.5352 12.8594 -1.1396 105
-7.0977 16.4844 -1.042 74
-10.2344 23.7812 -0.9023 207
-10.4844 24.3438 -0.3091 61
-2.9276999999999997 6.863300000000001 -1.3086000000000002 63
-3.3242000000000003 7.792999999999999 -1.2852000000000001 192
-10.3828 24.3438 0.9224 225
-3.8086 8.9297 -1.2431999999999999 147
-10.375 24.3281 1.5361000000000002 169
-4.5039 10.5625 -1.2021 53
-10.3828 24.3438 2.1582 90
-5.488300000000001 12.8672 -1.1387 78
-10.398399999999999 24.375 2.7812 106
-7.046900000000001 16.5156 -1.043 201
-10.3594 24.2812 3.3906 247
-10.1406 23.7812 -0.9009 129
-10.3828 24.3281 -0.30829999999999996 137
-2.9023000000000003 6.875 -1.3086000000000002 152
-10.3047 24.4062 0.3091 114
-3.2891000000000004 7.7890999999999995 -1.2832 15
-10.289100000000001 24.375 0.9224 91
-3.7695 8.9297 -1.2412 201
-10.2969 24.3906 1.5371000000000001 91
-4.4688 10.5781 -1.2021 209
-5.4336 12.875 -1.1377 215
-6.9727 16.5156 -1.04 226
-10.0547 23.8125 -0.9009 32
-10.3047 24.4062 -0.3091 158
-10.25 24.2656 4.6367 128
-2.8808999999999996 6.890599999999999 -1.3096 6
-3.2577999999999996 7.7890999999999995 -1.2812000000000001 158
-3.7422000000000004 8.9531 -1.2422 114
-24.625 58.875 3.7108999999999996 50
-4.4258 10.585899999999999 -1.2012 209
-5.386699999999999 12.8828 -1.1367 120
-6.9062 16.5156 -1.0391 151
-9.9453 23.7812 -0.8984000000000001 126
-11.7969 28.2188 4.6562 227
-10.2422 24.4844 4.6719 242
-2.8574 6.9062 -1.3105000000000002 55
-3.2324 7.8125 -1.2832 138
-3.7089999999999996 8.9609 -1.2422 156
-11.789100000000001 28.4844 1.791 92
-4.3867 10.601600000000001 -1.2012 6
-11.7422 28.3906 2.5059 2
-5.3359000000000005 12.898399999999999 -1.1367 7
-6.855499999999999 16.5625 -1.04 213
-11.6875 28.2344 3.9257999999999997 171
-9.8516 23.7969 -0.8975 230
-11.6719 28.2188 4.6484 105
-10.2031 24.6562 4.6992 217
-2.8281 6.9023 -1.3086000000000002 124
-3.2012 7.8125 -1.2812000000000001 142
-3.6641000000000004 8.9453 -1.2383 162
-11.648399999999999 28.4375 1.7852000000000001 0
-4.3516 10.625 -1.2021 248
-11.6172 28.3594 2.5 230
-5.3047 12.9453 -1.1396 42
-6.7773 16.5312 -1.0371 40
-10.0 24.4062 3.3867000000000003 98
-9.7734 23.8438 -0.8984000000000001 13
-11.5781 28.25 4.6484 106
-2.8007999999999997 6.9023 -1.3056999999999999 18
-3.1776999999999997 7.832000000000001 -1.2822 222
-23.9375 58.9688 2.2207 181
-3.6308999999999996 8.9453 -1.2363 75
-9.9375 24.4844 1.5352000000000001 44
-4.3125 10.625 -1.2002 46
-11.531199999999998 28.4062 2.502 169
-5.2461 12.9297 -1.1357 70
-6.7227 16.5625 -1.0381 195
-9.6797 23.8438 -0.897 49
-11.5 28.3281 4.6562 49
-2.7812 6.921900000000001 -1.3075999999999999 174
-3.1562 7.8515999999999995 -1.2841999999999998 218
-3.6074 8.9688 -1.2383 190
-9.8594 24.5312 1.5352000000000001 78
-4.2695 10.625 -1.1992 16
-11.4375 28.4531 2.502 207
-5.199199999999999 12.9375 -1.1348 211
-6.6562 16.5625 -1.0361 178
-9.5938 23.8594 -0.8959999999999999 58
-11.406199999999998 28.375 4.6562 117
-2.7617000000000003 6.9414 -1.3096 77
-3.1172000000000004 7.8359000000000005 -1.2793 215
-3.5742000000000003 8.9844 -1.2383 143
-9.8594 24.7812 1.5488 184
-4.2383 10.656199999999998 -1.2012 97
-11.343800000000002 28.5156 2.5039 29
-5.1523 12.9531 -1.1348 181
-6.5977 16.5938 -1.0361 191
-11.3203 28.4531 3.9336 225
-9.5078 23.8906 -0.8965000000000001 172
-11.3125 28.4375 4.6602 191
-2.7363 6.949199999999999 -1.3096 138
-3.0957 7.859400000000001 -1.2822 101
-3.543 9.0 -1.2383 214
-11.289100000000001 28.6719 1.79 94
-4.1953 10.656199999999998 -1.1992 209
-11.2578 28.5938 2.5059 72
-5.0977 12.9531 -1.1328 36
-6.5390999999999995 16.6094 -1.0361 50
-11.226600000000001 28.5156 3.9355 203
-9.4297 23.9531 -0.897 255
-11.210899999999999 28.4844 4.6602 189
-2.7089999999999996 6.953099999999999 -1.3086000000000002 183
-3.0625 7.855499999999999 -1.2793 22
-11.218800000000002 28.7969 1.0771 101
-3.498 8.9766 -1.2334 242
-11.1953 28.7344 1.791 239
-4.1562 10.664100000000001 -1.1982 239
-11.164100000000001 28.6562 2.5078 93
-5.0508 12.960899999999999 -1.1328 109
-6.4609000000000005 16.5781 -1.0332 133
-11.1328 28.5625 3.9395 19
-9.3359 23.9531 -0.8959999999999999 169
-11.125 28.5469 4.6641 211
-2.6797000000000004 6.949199999999999 -1.3056999999999999 8
-3.0410000000000004 7.886699999999999 -1.2822 121
-3.4688 8.9922 -1.2344 219
-11.093800000000002 28.7812 1.7919999999999998 142
-4.1133 10.664100000000001 -1.1973 253
-11.0781 28.7188 2.5098 20
-5.0 12.968800000000002 -1.1318000000000001 96
-6.4140999999999995 16.625 -1.0342 119
-11.039100000000001 28.625 3.9414 224
-9.2578 24.0 -0.8965000000000001 212
-11.031199999999998 28.5938 4.668 194
-2.6582 6.9609000000000005 -1.3066 161
-3.0156 7.894500000000001 -1.2822 49
-3.4375 9.0078 -1.2344 29
-11.0078 28.8281 1.7930000000000001 146
-4.0703 10.664100000000001 -1.1953 191
-10.9844 28.75 2.5117 87
-4.9609 12.9922 -1.1328 197
-6.3438 16.6094 -1.0322 61
-10.9531 28.6719 3.9433999999999996 51
-9.1719 24.0156 -0.8959999999999999 1
-10.9453 28.6719 4.6719 169
-2.6348000000000003 6.9688 -1.3066 14
-2.9824 7.886699999999999 -1.2793 235
-22.2344 58.7812 2.1934 8
-3.4101999999999997 9.0156 -1.2354 157
-10.9219 28.8906 1.7949000000000002 44
-4.0352 10.6719 -1.1943000000000001 243
-10.8906 28.8125 2.5137 3
-4.9102 12.9844 -1.1299 3
-6.2890999999999995 16.6406 -1.0322 202
-10.8672 28.75 3.9473000000000003 245
-9.1016 24.0625 -0.8965000000000001 65
-10.8594 28.7188 4.6758 186
-2.6132999999999997 6.9961 -1.3096 214
-2.9512 7.894500000000001 -1.2783 42
-22.0 58.875 2.1934 0
-3.375 9.0312 -1.2344 151
-10.8281 28.9688 1.7969 200
-3.9901999999999997 10.6797 -1.1934 94
-10.789100000000001 28.875 2.5137 127
-4.8516 12.9844 -1.1289 103
-6.2148 16.6406 -1.0303 193
-10.773399999999999 28.8281 3.9531 147
-9.0156 24.125 -0.8975 164
-10.773399999999999 28.8281 4.6836 205
-2.5839999999999996 6.988300000000001 -1.3066 134
-10.968800000000002 29.6719 0.3689 33
-2.9276999999999997 7.917999999999999 -1.2803 222
-3.3398000000000003 9.0312 -1.2334 36
-10.726600000000001 29.0312 1.7978999999999998 20
-3.9492000000000003 10.6797 -1.1924 235
-10.710899999999999 28.9688 2.5195 117
-4.8086 13.0078 -1.1289 4
-6.1484000000000005 16.6406 -1.0293 113
-8.9531 24.2188 -0.8998999999999999 7
-11.093800000000002 30.0 4.8711 149
-10.968800000000002 29.6719 -0.3689 54
-2.5586 6.988300000000001 -1.3047 110
-10.875 29.7344 0.36939999999999995 159
-2.8945 7.9102 -1.2783 204
-3.3026999999999997 9.0234 -1.2314 144
-3.9160000000000004 10.7031 -1.1934 71
-21.4844 58.6875 5.1016 2
-4.7617 13.0156 -1.1279000000000001 39
-6.0898 16.6406 -1.0283 46
-8.9062 24.3281 -0.9028 9
-10.843800000000002 29.625 4.8047 211
-10.8672 29.7031 -0.3689 182
-2.5391 7.0078 -1.3066 96
-10.7422 29.6562 0.3679 186
-2.8672000000000004 7.9140999999999995 -1.2773 182
-3.2754000000000003 9.0469 -1.2324 58
-21.3125 58.8438 3.6387 23
-3.8672000000000004 10.6797 -1.1895 62
-21.25 58.6875 5.0938 230
-4.7109 13.0 -1.126 16
-6.019500000000001 16.625 -1.0254 86
-8.8359 24.3906 -0.9037999999999999 28
-2.5176 7.0312 -1.3096 96
-10.6406 29.7188 0.3682 233
-2.8339999999999996 7.9140999999999995 -1.2754 50
-21.0625 58.8125 2.1797 18
-3.248 9.0703 -1.2344 60
-3.832 10.7031 -1.1904000000000001 128
-20.9844 58.625 5.082 184
-4.6602 13.0156 -1.125 103
-5.9765999999999995 16.6875 -1.0283 231
-8.7578 24.4531 -0.9053 3
-10.6875 29.8594 4.8281 123
-11.1328 31.0938 -0.38530000000000003 1
-2.4902 7.0312 -1.3075999999999999 186
-2.8086 7.9297 -1.2764 208
-3.2108999999999996 9.0703 -1.2324 21
-20.8125 58.75 3.623 14
-3.7988 10.726600000000001 -1.1914 247
-4.6016 13.0 -1.123 26
-5.886699999999999 16.625 -1.0234 236
-8.6719 24.4844 -0.9053 183
-10.4922 29.6406 4.7891 208
-2.4629 7.0234000000000005 -1.3047 170
-2.7910000000000004 7.9609000000000005 -1.2803 158
-10.6953 30.5156 1.127 154
-3.1797000000000004 9.0703 -1.2305 204
-10.6953 30.5156 1.8788999999999998 197
-3.7558999999999996 10.710899999999999 -1.1885 12
-4.5664 13.023399999999999 -1.124 64
-5.828099999999999 16.625 -1.0225 224
-11.1094 31.7031 4.3164 212
-8.5859 24.5 -0.9048 216
-10.539100000000001 30.0625 4.8516 206
-2.4375 7.0273 -1.3047 46
-2.7539 7.9414 -1.2754 100
-10.6797 30.7812 1.1357 16
-3.1483999999999996 9.0781 -1.2305 52
-10.6875 30.8125 1.8944999999999999 216
-3.7129000000000003 10.7031 -1.1865 28
-4.5273 13.0547 -1.125 99
-5.7734000000000005 16.6406 -1.0225 211
-10.9844 31.6562 4.3047 137
-8.5625 24.6875 -0.9106000000000001 189
-10.4531 30.1406 4.8594 47
-10.1094 29.1562 5.4336 131
-2.4121 7.0390999999999995 -1.3047 88
-2.7207 7.9414 -1.2734 59
-20.1562 58.7812 2.168 42
-3.1151999999999997 9.0859 -1.2305 42
-3.6719 10.710899999999999 -1.1855 180
-20.1094 58.6562 5.0625 209
-4.4805 13.0703 -1.125 54
-10.6719 31.125 3.4551 235
-5.699199999999999 16.625 -1.0195 207
-10.789100000000001 31.4688 4.2734 14
-8.4453 24.6406 -0.9081999999999999 98
-9.9609 29.0625 5.4102 156
-2.3867 7.042999999999999 -1.3037 42
-2.6933999999999996 7.9453 -1.2725 204
-19.9219 58.7812 2.166 146
-3.0858999999999996 9.1094 -1.2314 241
-19.9062 58.7188 3.6055 201
-3.6327999999999996 10.718800000000002 -1.1845999999999999 24
-19.875 58.625 5.0547 78
-4.4297 13.0703 -1.123 128
-10.6172 31.3438 3.4726999999999997 123
-5.6289 16.6094 -1.0186 155
-10.710899999999999 31.625 4.2891 34
-8.3906 24.7656 -0.9116 168
-10.1406 29.9219 4.8125 32
-9.8516 29.0625 5.4023 198
-2.3633 7.0586 -1.3047 209
-2.668 7.9648 -1.2744 63
-19.6875 58.7812 2.1621 237
-3.0469 9.1016 -1.2285 49
-19.6562 58.6875 3.5995999999999997 157
-3.5976999999999997 10.7422 -1.1855 33
-10.523399999999999 31.4219 2.7031 61
-4.375 13.0547 -1.1211 248
-10.125 30.2188 3.3457 147
-5.5703 16.625 -1.0176 3
-10.0547 30.0156 4.0664 152
-8.3047 24.7969 -0.9116 236
-9.9453 29.6875 4.7695 0
-9.7891 29.2188 5.425800000000001 141
-2.334 7.050800000000001 -1.3018 80
-2.6464999999999996 7.9922 -1.2773 30
-3.0117000000000003 9.0938 -1.2266 54
-19.4375 58.6875 3.5957 45
-3.5645 10.7656 -1.1875 111
-4.3398 13.1094 -1.124 94
-5.5039 16.625 -1.0156 87
-9.9062 29.9375 4.0508 56
-8.2109 24.7969 -0.9106000000000001 99
-9.8203 29.6562 4.7578 153
-9.6406 29.1094 5.3984000000000005 86
-2.3105 7.0586 -1.3027000000000002 182
-2.6094 7.9765999999999995 -1.2734 19
-2.9785000000000004 9.1016 -1.2266 28
-19.2031 58.6562 3.5898000000000003 218
-3.5176 10.75 -1.1845999999999999 171
-10.1406 31.0 2.6601999999999997 209
-4.2891 13.1094 -1.123 146
-9.8203 30.0156 3.3145 124
-5.4414 16.625 -1.0146 55
-9.9219 30.3125 4.0977 80
-9.5078 29.0469 4.6562 249
-9.6719 29.5469 5.4727 38
-2.2832 7.0625 -1.3008000000000002 200
-19.0312 58.875 0.7227 125
-2.5781 7.9727 -1.2705 101
-19.0 58.75 2.1543 142
-2.9531 9.1328 -1.2295 39
-18.9844 58.6875 3.5858999999999996 30
-3.4745999999999997 10.7422 -1.1826 51
-4.2383 13.101600000000001 -1.1211 98
-5.3711 16.6094 -1.0127 112
-10.625 32.875 4.4375 140
-8.0781 24.9844 -0.915 237
-9.5781 29.6094 5.480499999999999 112
-2.2598 7.074199999999999 -1.3018 225
-18.8125 58.875 0.7222 155
-2.5449 7.9648 -1.2686 40
-18.7812 58.75 2.1523 209
-2.9219 9.1484 -1.2295 124
-8.3438 26.1094 1.5918 65
-3.4433999999999996 10.773399999999999 -1.1845999999999999 64
-4.1914 13.1094 -1.1211 57
-5.3086 16.6094 -1.0117 228
-8.3984 26.2812 3.5449 205
-9.5078 29.75 5.5 19
-2.2344 7.082000000000001 -1.3018 108
-18.5781 58.875 0.7212000000000001 207
-2.5254 8.0 -1.2725 136
-18.5312 58.7188 2.1484 2
-2.8848000000000003 9.1328 -1.2266 225
-8.2344 26.0938 1.5888999999999998 83
-3.4043 10.781199999999998 -1.1845999999999999 31
-4.1406 13.1172 -1.1201 6
-8.25 26.125 2.875 154
-5.234400000000001 16.5781 -1.0088 87
-8.2969 26.2812 3.5391000000000004 158
-9.6953 30.7031 4.9023 46
-9.3125 29.4844 5.4453 35
-2.209 7.082000000000001 -1.3008000000000002 156
-2.4922 7.984400000000001 -1.2695 148
-18.3281 58.7188 2.1465 12
-2.8495999999999997 9.1328 -1.2246 203
-8.1406 26.0781 1.5869 168
-3.3651999999999997 10.781199999999998 -1.1826 124
-4.1016 13.1406 -1.1211 197
-5.1836 16.6094 -1.0098 76
-8.2031 26.2969 3.5370999999999997 21
-9.2031 29.4844 5.4375 84
-2.1816 7.074199999999999 -1.2978999999999998 2
-2.4648 7.9922 -1.2695 211
-18.1094 58.7188 2.1445 244
-2.8183999999999996 9.1406 -1.2246 77
-8.0469 26.0938 1.5859 25
-3.3301 10.7969 -1.1836 121
-4.0586 13.164100000000001 -1.1211 218
-5.1172 16.5938 -1.0078 115
-8.1094 26.2969 3.5332 20
-9.6719 31.3594 4.9961 184
-2.1562 7.0859000000000005 -1.2988 220
-2.4414 8.0156 -1.2715 7
-8.0938 26.5781 0.9682999999999999 187
-2.7891000000000004 9.1641 -1.2266 56
-8.0312 26.3906 1.6025 200
-3.2832 10.789100000000001 -1.1806999999999999 236
-4.0039 13.148399999999999 -1.1191 69
-5.0508 16.5938 -1.0059 184
-8.0 26.2812 3.5293 174
-8.0625 26.4844 -0.32299999999999995 176
-2.1309 7.0898 -1.2978999999999998 158
-7.9727 26.5312 0.32299999999999995 87
-2.4043 8.0 -1.2676 57
-7.949199999999999 26.4531 0.9623999999999999 84
-2.7577999999999996 9.1719 -1.2266 112
-7.949199999999999 26.4375 1.6035 111
-3.252 10.8125 -1.1826 67
-3.9648000000000003 13.1875 -1.1211 209
-4.9961 16.625 -1.0068000000000001 32
-7.8984000000000005 26.2812 3.5254000000000003 8
-7.5586 25.1406 -0.915 121
-7.9609000000000005 26.4844 -0.3225 191
-2.1055 7.0938 -1.2978999999999998 130
-2.375 8.0 -1.2656 59
-7.8711 26.5156 0.9643999999999999 78
-2.7245999999999997 9.1797 -1.2266 16
-7.875 26.5312 1.6074000000000002 200
-3.2148000000000003 10.8281 -1.1826 141
-3.9141000000000004 13.1875 -1.1201 196
-8.6953 29.2969 3.207 176
-4.9258 16.5938 -1.0049 52
-7.8047 26.2969 3.5233999999999996 214
-7.8789 26.5469 -0.32299999999999995 158
-2.0781 7.0938 -1.2959 42
-17.2344 58.8438 0.7158 240
-2.3418 7.9922 -1.2637 125
-2.6895 9.1797 -1.2246 170
-3.168 10.8125 -1.1797 189
-17.1562 58.5625 4.9805 189
-3.8613 13.1797 -1.1181999999999999 219
-8.5391 29.125 3.1855 232
-4.8477 16.5469 -1.0 97
-7.707000000000001 26.2969 3.5195 102
-2.0508 7.0938 -1.2949000000000002 111
-2.3262 8.0469 -1.2705 14
-2.6582 9.1875 -1.2246 40
-16.9531 58.625 3.5488 161
-3.1327999999999996 10.8281 -1.1806999999999999 199
-16.9219 58.5312 4.9727 245
-3.8183999999999996 13.2031 -1.1191 19
-8.4844 29.3438 3.207 26
-4.8008 16.6094 -1.0029000000000001 88
-7.605499999999999 26.2969 3.5156 214
-7.2578 25.0938 -0.9106000000000001 109
-2.0254 7.0977 -1.2938999999999998 162
-2.2871 8.0156 -1.2646 59
-16.6875 58.4688 2.1211 16
-2.627 9.2031 -1.2256 123
-16.7344 58.625 3.543 71
-3.0938 10.835899999999999 -1.1797 94
-16.7031 58.5312 4.9688 109
-3.7714999999999996 13.210899999999999 -1.1191 122
-8.7656 30.7031 3.3516000000000004 62
-4.7344 16.5938 -1.001 245
-7.5039 26.2812 3.5098000000000003 140
-10.6328 37.25 -0.4521 130
-2.002 7.109400000000001 -1.2949000000000002 95
-2.2578 8.0156 -1.2627 123
-2.5918 9.2031 -1.2246 75
-16.5 58.5938 3.5391000000000004 168
-3.0469 10.8203 -1.1768 140
-16.5 58.5625 4.9648 178
-3.7266000000000004 13.2344 -1.1191 37
-8.1641 28.9844 3.1620999999999997 47
-4.6758 16.5938 -1.0 88
-7.0352 24.9844 -0.9043000000000001 101
-10.585899999999999 37.5938 -0.4558 207
-1.9794999999999998 7.1211 -1.2959 43
-2.2305 8.0234 -1.2637 30
-2.5605 9.2109 -1.2246 92
-16.2812 58.625 3.5370999999999997 66
-3.0137 10.843800000000002 -1.1787 160
-16.25 58.5 4.957 239
-3.668 13.2031 -1.1152 147
-8.0781 29.0625 3.1660000000000004 195
-4.6094 16.5938 -0.9990000000000001 30
-6.894500000000001 24.8125 -0.8975 11
-9.1094 32.7812 5.1797 92
-8.8281 31.7656 5.8047 198
-1.9512 7.1172 -1.2938999999999998 151
-2.2012 8.0312 -1.2627 127
-2.5234 9.2031 -1.2217 5
-8.5859 31.3125 1.8866999999999998 29
-2.9805 10.875 -1.1806999999999999 150
-16.0469 58.5625 4.957 54
-3.627 13.226600000000001 -1.1172 241
-7.9765999999999995 29.1094 3.168 212
-4.5508 16.6094 -0.9990000000000001 155
-8.9766 32.75 4.3633 181
-6.8086 24.8438 -0.8975 66
-8.0781 29.4844 4.6562 22
-7.9062 28.8438 -0.3489 219
-8.6953 31.7188 5.792999999999999 73
-1.9238 7.113300000000001 -1.2919999999999998 237
-8.4922 31.4062 0.3796 214
-2.1777 8.0547 -1.2656 41
-8.4922 31.4062 1.1338 150
-2.4922 9.2188 -1.2227 164
-8.3906 31.0469 1.8681999999999999 20
-2.9375 10.8672 -1.1787 135
-15.8281 58.5625 4.9492 182
-3.5801 13.2422 -1.1172 80
-8.3672 30.9375 3.3632999999999997 150
-4.4922 16.6094 -0.9984999999999999 212
-8.8828 32.8438 4.3711 213
-7.980499999999999 29.5156 4.6562 104
-7.800800000000001 28.8594 -0.3486 110
-8.5859 31.7656 5.792999999999999 24
-1.9033000000000002 7.1328 -1.2938999999999998 203
-8.3828 31.4062 0.37920000000000004 94
-2.1387 8.0156 -1.2578 34
-8.3672 31.375 1.1318000000000001 4
-2.459 9.2188 -1.2217 144
-8.2891 31.0625 1.8681999999999999 106
-2.8945 10.851600000000001 -1.1758 195
-15.625 58.5625 4.9492 89
-3.5273000000000003 13.218800000000002 -1.1133 174
-8.0547 30.2031 3.2793 60
-4.4375 16.6406 -0.9990000000000001 7
-8.5078 31.8906 4.2422 75
-6.582000000000001 24.6562 -0.8896 184
-7.8438 29.4062 4.6328 117
-7.7109000000000005 28.9062 -0.3489 141
-1.8779 7.1328 -1.2930000000000001 86
-8.2891 31.4844 0.3799 168
-2.1172 8.0469 -1.2617 87
-8.2734 31.4375 1.1338 193
-2.4297 9.2344 -1.2227 189
-8.1953 31.125 1.8700999999999999 167
-2.8632999999999997 10.875 -1.1777 182
-8.3438 31.6875 2.6738 96
-3.4726999999999997 13.1875 -1.1104 226
-7.9688 30.2656 3.2851999999999997 181
-4.375 16.6094 -0.9965999999999999 161
-7.6172 28.9219 -0.3489 217
-1.8525 7.144500000000001 -1.2938999999999998 227
-15.2344 58.7188 0.7084999999999999 39
-2.0859 8.0391 -1.2607 43
-2.3945 9.2344 -1.2217 83
-8.0938 31.2188 1.874 198
-2.8262 10.8906 -1.1787 242
-8.1875 31.5781 2.6601999999999997 95
-3.4316000000000004 13.226600000000001 -1.1123 74
-4.3125 16.6406 -0.9971 215
-7.796900000000001 30.0625 3.9882999999999997 210
-6.3672 24.5469 -0.8837999999999999 203
-7.730499999999999 29.8125 4.6875 241
-1.8252000000000002 7.140599999999999 -1.2919999999999998 74
-15.0078 58.7188 0.7075 226
-2.0566 8.0469 -1.2598 193
-2.3535 9.2109 -1.2168 17
-2.7851999999999997 10.8906 -1.1768 207
-3.3789 13.210899999999999 -1.1104 184
-8.3047 32.5 3.5214999999999996 101
-4.25 16.625 -0.9956 174
-7.738300000000001 30.2656 4.0156 156
-6.230499999999999 24.375 -0.8765000000000001 217
-7.5664 29.5938 4.6523 5
-1.7969 7.1328 -1.2891 136
-14.8203 58.8125 0.7084999999999999 98
-2.0293 8.0547 -1.2598 89
-2.3242 9.2266 -1.2187999999999999 221
-2.7401999999999997 10.875 -1.1738 211
-7.949199999999999 31.5625 2.6543 146
-3.3379000000000003 13.25 -1.1123 95
-4.1875 16.625 -0.9951000000000001 217
-6.144500000000001 24.3906 -0.8765000000000001 155
-7.417999999999999 29.4375 4.625 197
-7.9336 31.5 5.7188 242
-1.7753999999999999 7.1523 -1.2919999999999998 134
-1.9961000000000002 8.0391 -1.2568000000000001 160
-14.5547 58.625 2.1074 74
-2.2891 9.2188 -1.2168 52
-2.6973000000000003 10.8672 -1.1729 141
-14.5156 58.4688 4.918 90
-3.2870999999999997 13.2422 -1.1104 33
-4.1367 16.6719 -0.9965999999999999 121
-7.5390999999999995 30.375 4.0195 242
-6.0352 24.3125 -0.873 147
-7.363300000000001 29.6719 4.6562 157
-6.519500000000001 26.2656 4.7656 205
-1.7480000000000002 7.1484000000000005 -1.29 251
-1.9647999999999999 8.0391 -1.2549 8
-14.3281 58.5938 2.1055 194
-2.2617 9.25 -1.2197 87
-2.6641000000000004 10.898399999999999 -1.1748 180
-14.2969 58.4688 4.9141 150
-3.2324 13.218800000000002 -1.1084 65
-7.9922 32.6875 3.5332 85
-4.0703 16.6406 -0.9941 223
-8.1016 33.1562 4.3828 218
-5.917999999999999 24.2031 -0.8682 251
-7.2578 29.6875 4.6523 191
-6.417999999999999 26.25 4.7578 107
-1.7236000000000002 7.1562 -1.29 72
-1.9365 8.0391 -1.2549 68
-14.1172 58.625 2.1035 162
-2.2246 9.2344 -1.2168 246
-2.623 10.8906 -1.1729 20
-14.093800000000002 58.5312 4.9141 94
-3.1797000000000004 13.2031 -1.1055 215
-7.863300000000001 32.6562 3.5254000000000003 192
-4.0117 16.6562 -0.9945999999999999 147
-8.1094 33.6875 4.4531 130
-5.8359000000000005 24.2344 -0.8691 161
-7.144500000000001 29.6719 4.6484 26
-6.328099999999999 26.2656 4.7578 244
-1.6953 7.1484000000000005 -1.2881 165
-13.9531 58.8438 0.7061 72
-1.9102000000000001 8.0547 -1.2559 150
-13.8906 58.5938 2.1016 32
-2.1855 9.2109 -1.2129 85
-2.5879000000000003 10.914100000000001 -1.1738 198
-7.542999999999999 31.8125 2.6660000000000004 3
-3.1367000000000003 13.2344 -1.1074 55
-3.9589999999999996 16.6875 -0.9956 246
-7.8789 33.2188 4.3867 254
-5.7422 24.2188 -0.8672 229
-7.2890999999999995 30.7344 4.8125 90
-6.2265999999999995 26.2656 4.75 94
-1.666 7.136699999999999 -1.2841999999999998 66
-13.7031 58.6875 0.7041 27
-1.8809 8.0547 -1.2549 167
-13.6875 58.625 2.0996 28
-2.1562 9.2344 -1.2139 251
-2.5449 10.898399999999999 -1.1719 48
-7.4336 31.8438 2.668 41
-3.0898000000000003 13.2344 -1.1064 3
-13.0 55.7188 6.0078 154
-3.8983999999999996 16.7031 -0.9951000000000001 131
-7.550800000000001 32.3438 4.2695 158
-5.6484000000000005 24.2031 -0.8662000000000001 237
-1.6436000000000002 7.1562 -1.2871000000000001 203
-1.8516 8.0547 -1.2539 191
-2.1211 9.2344 -1.2129 85
-13.468800000000002 58.625 3.4961 110
-2.5059 10.898399999999999 -1.1709 144
-3.0469 13.2578 -1.1074 171
-3.8339999999999996 16.6875 -0.9932 89
-7.3984000000000005 32.1875 4.2461 155
-5.5390999999999995 24.1094 -0.8618000000000001 33
-1.6152000000000002 7.144500000000001 -1.2841999999999998 100
-1.8203 8.0547 -1.252 185
-2.0898 9.2422 -1.2139 244
-13.2422 58.5625 3.4901999999999997 15
-2.4707 10.9297 -1.1729 167
-13.2344 58.5625 4.8984 180
-2.9961 13.25 -1.1055 71
-7.2265999999999995 31.9688 3.4395 232
-3.7793 16.7188 -0.9945999999999999 114
-11.1172 49.1562 6.4765999999999995 88
-5.425800000000001 24.0 -0.8573999999999999 47
-6.7890999999999995 30.0312 4.6875 219
-1.5928 7.1523 -1.2852000000000001 39
-1.7938999999999998 8.0625 -1.2529000000000001 179
-2.0566 9.2344 -1.2119 140
-13.031199999999998 58.5625 3.4882999999999997 222
-2.4355 10.9375 -1.1729 100
-2.9492000000000003 13.25 -1.1045 192
-7.1875 32.2812 3.4707 1
-3.7285000000000004 16.75 -0.9956 249
-6.8984000000000005 30.9844 4.0781 90
-5.3359000000000005 23.9688 -0.8554999999999999 160
-6.859400000000001 30.8125 5.5586 57
-1.5663999999999998 7.1484000000000005 -1.2832 69
-1.7715 8.0859 -1.2559 46
-2.0254 9.2422 -1.2109 83
-12.8281 58.5312 3.4844 222
-2.3945 10.9297 -1.1719 124
-2.9023000000000003 13.25 -1.1045 245
-3.6660000000000004 16.7344 -0.9937 169
-6.792999999999999 31.0 4.0742 199
-5.265599999999999 24.0312 -0.8569 241
-6.769500000000001 30.8906 5.5664 2
-1.5371000000000001 7.140599999999999 -1.2803 101
-1.7402000000000002 8.0859 -1.2539 241
-1.9902000000000002 9.2422 -1.2109 144
-12.601600000000001 58.5312 3.4824 198
-2.3555 10.9375 -1.1719 221
-2.8495999999999997 13.2422 -1.1025 202
-12.375 57.5 6.175800000000001 195
-3.5938 16.6875 -0.9906999999999999 132
-6.6875 31.0625 4.082 85
-5.1602 23.9688 -0.8540000000000001 10
-7.296900000000001 33.9062 5.2812 134
-8.4688 39.3438 -0.4697 189
-6.6953 31.1094 5.6015999999999995 30
-1.5137 7.1523 -1.2822 156
-1.7069999999999999 8.0625 -1.25 214
-1.9550999999999998 9.2344 -1.209 112
-12.3906 58.5312 3.4785000000000004 55
-2.3145 10.9375 -1.1699 113
-2.8086 13.273399999999999 -1.1045 80
-3.5410000000000004 16.7344 -0.9926999999999999 191
-6.6172 31.2656 4.1055 23
-5.0586 23.8906 -0.8511 234
-6.332000000000001 29.9219 4.6562 190
-6.546900000000001 30.9219 5.5664 152
-1.4872999999999998 7.1484000000000005 -1.2803 50
-1.6777000000000002 8.0703 -1.25 40
-1.9258000000000002 9.2578 -1.2109 7
-12.1797 58.5625 3.4785000000000004 125
-2.2734 10.9297 -1.1689 76
-2.7539 13.2422 -1.1006 245
-3.4766000000000004 16.7188 -0.9902 50
-6.7461 32.4375 4.2578 153
-4.9492 23.7969 -0.8472 109
-6.230499999999999 29.9531 4.6602 70
-8.2422 39.625 -0.47240000000000004 90
-1.4647999999999999 7.167999999999999 -1.2822 71
-1.6503999999999999 8.0703 -1.25 54
-11.906199999999998 58.2812 2.0762 68
-1.8857 9.2266 -1.2061 216
-11.968800000000002 58.5625 3.4766000000000004 186
-2.2383 10.9531 -1.1699 37
-2.7129000000000003 13.273399999999999 -1.1025 43
-10.3594 50.6875 5.4336 62
-3.4238 16.75 -0.9922 46
-6.328099999999999 30.9531 4.0586 208
-4.8633 23.7969 -0.8467 9
-6.125 29.9688 4.6562 226
-1.4394999999999998 7.1562 -1.2793 49
-1.624 8.0781 -1.249 6
-1.8584 9.2422 -1.207 92
-7.9765999999999995 39.6562 2.3516 168
-2.2012 10.9453 -1.1689 178
-2.668 13.2656 -1.1016 223
-3.3651999999999997 16.7344 -0.9902 169
-6.6953 33.2812 4.3633 82
-4.7617 23.6875 -0.8418000000000001 133
-6.3711 31.6719 4.9219 151
-6.636699999999999 33.0 5.9297 10
-1.4121000000000001 7.144500000000001 -1.2773 150
-1.5977000000000001 8.0859 -1.25 55
-1.8281 9.25 -1.207 109
-7.8438 39.6875 2.3516 79
-2.166 10.9531 -1.1689 136
-2.6211 13.2656 -1.1006 9
-9.9062 50.125 5.3672 152
-3.3066000000000004 16.7188 -0.9893000000000001 251
-6.7188 34.0 4.4531 121
-4.6836 23.7031 -0.8418000000000001 42
-5.957000000000001 30.1406 4.6758 161
-6.515599999999999 32.9688 5.917999999999999 70
-1.3838 7.1523 -1.2773 91
-1.5625 8.0781 -1.248 4
-1.791 9.2578 -1.207 106
-11.3203 58.5 3.4648000000000003 39
-2.1172 10.9453 -1.167 19
-2.5664 13.2578 -1.0996 140
-3.2305 16.7031 -0.9868000000000001 161
-4.5898 23.7188 -0.8418000000000001 60
-5.9648 30.8438 4.7812 163
-6.8359000000000005 35.3438 -0.4199 60
-5.8984000000000005 30.4844 5.4688 103
-1.3584 7.1640999999999995 -1.2783 35
-1.5303 8.0625 -1.2451 62
-1.7578 9.2656 -1.208 244
-11.093800000000002 58.5 3.4608999999999996 127
-2.0742 10.9375 -1.166 236
-2.5137 13.2578 -1.0986 37
-9.7578 51.4375 5.5 231
-3.1699 16.7031 -0.9868000000000001 57
-6.0390999999999995 31.8438 4.1641 129
-4.5 23.7188 -0.8412999999999999 202
-6.0703 32.0 4.9609 222
-6.7109000000000005 35.375 -0.4202 251
-5.769500000000001 30.4219 5.453099999999999 162
-1.3359 7.175800000000001 -1.2793 187
-1.5059 8.0859 -1.248 100
-1.7246000000000001 9.2578 -1.2061 242
-10.898399999999999 58.5 3.4608999999999996 8
-2.0469 10.9844 -1.1699 115
-2.4727 13.281199999999998 -1.0996 221
-3.1113 16.7031 -0.9863 186
-4.4219 23.75 -0.8418000000000001 184
-5.6484000000000005 30.3281 4.6992 193
-5.6875 30.5312 5.4688 159
-1.3075999999999999 7.1562 -1.2754 153
-1.4766 8.0859 -1.2470999999999999 164
-1.6894999999999998 9.25 -1.2041 82
-2.0039 10.976600000000001 -1.168 246
-9.2109 50.4375 4.1836 104
-2.4199 13.25 -1.0967 165
-3.0507999999999997 16.7031 -0.9854 158
-5.7773 31.6406 4.1328 42
-4.3203 23.6562 -0.8384 147
-5.574199999999999 30.5312 4.7266 60
-6.453099999999999 35.3438 -0.4192 168
-5.5547 30.4219 5.4453 118
-1.2861000000000002 7.171900000000001 -1.2773 116
-1.4512 8.0859 -1.2461 199
-1.6611000000000002 9.2578 -1.2051 228
-1.9647999999999999 10.9531 -1.165 235
-9.0625 50.5 4.1875 89
-2.3828 13.289100000000001 -1.0986 164
-2.9961 16.7031 -0.9849 28
-5.671900000000001 31.6094 4.125 179
-4.2305 23.5781 -0.835 180
-5.574199999999999 31.0781 4.8086 212
-6.332000000000001 35.2812 -0.41850000000000004 22
-9.2266 51.4375 9.2109 149
-1.2627 7.171900000000001 -1.2773 198
-1.4247999999999998 8.0938 -1.2470999999999999 121
-1.6318000000000001 9.2734 -1.2061 126
-1.9287 10.960899999999999 -1.165 229
-2.3418 13.3047 -1.0996 208
-2.9433999999999996 16.7344 -0.9854 44
-8.625 49.0 6.394500000000001 37
-5.4765999999999995 31.1094 4.8125 9
-6.2148 35.3438 -0.41869999999999996 229
-9.1719 52.125 9.3281 248
-1.2354 7.175800000000001 -1.2764 221
-6.078099999999999 35.2812 0.418 77
-1.3925999999999998 8.0938 -1.2451 227
-1.5966999999999998 9.2734 -1.2051 39
-1.8877000000000002 10.968800000000002 -1.165 201
-8.9375 51.9062 4.2969 177
-2.2891 13.2969 -1.0986 78
-2.8827999999999996 16.7344 -0.9854 236
-8.4453 49.0312 6.394500000000001 142
-4.0352 23.4375 -0.8291 235
-8.5547 49.6875 7.6836 116
-6.0859000000000005 35.3438 -0.41869999999999996 178
-8.9531 52.0 9.2969 98
-1.2109 7.1836 -1.2773 142
-5.949199999999999 35.2812 0.4175 95
-1.3643 8.0859 -1.2441 114
-1.5635 9.2734 -1.2041 52
-9.0859 53.9062 3.1776999999999997 144
-1.8496000000000001 10.968800000000002 -1.1641 3
-8.7812 52.0625 4.3086 136
-2.2383 13.273399999999999 -1.0957 65
-2.8242000000000003 16.75 -0.9854 67
-5.9765999999999995 35.4688 -0.41969999999999996 67
-8.75 51.9062 9.2734 51
-1.1845999999999999 7.1797 -1.2754 103
-5.828099999999999 35.3125 0.4177 30
-1.3378999999999999 8.1016 -1.2461 30
-1.5303 9.2734 -1.2031 209
-1.8125 10.9844 -1.166 90
-2.1934 13.289100000000001 -1.0967 46
-2.7558999999999996 16.7031 -0.9819 224
-3.8516000000000004 23.3438 -0.8242 203
-5.9765999999999995 36.2188 -0.4282 163
-1.1572 7.167999999999999 -1.2734 250
-1.3105000000000002 8.1172 -1.2470999999999999 133
-1.4961000000000002 9.2656 -1.2021 137
-1.7744 10.9922 -1.166 197
-2.1445 13.281199999999998 -1.0957 71
-2.7012 16.7344 -0.9834 58
-7.988300000000001 49.5 6.4414 72
-3.7754000000000003 23.3906 -0.8251999999999999 3
-8.7422 54.1562 8.3594 103
-5.824199999999999 36.0938 -0.4265 87
-8.4141 52.125 9.3047 91
-1.1348 7.1953 -1.2773 254
-1.2812000000000001 8.125 -1.248 202
-1.4638999999999998 9.2891 -1.2041 157
-1.7305000000000001 10.976600000000001 -1.1631 169
-2.0938 13.281199999999998 -1.0947 64
-2.6445 16.7656 -0.9854 39
-7.800800000000001 49.4688 6.4375 174
-3.6776999999999997 23.3281 -0.8231999999999999 81
-8.5391 54.1562 8.3516 187
-5.640599999999999 35.7812 -0.4229 49
-8.2188 52.125 9.2969 231
-1.1113 7.2148 -1.2793 129
-1.25 8.1094 -1.2451 126
-8.1875 53.125 1.876 60
-1.4316 9.2891 -1.2041 16
-8.1172 52.6562 3.0976999999999997 201
-1.6934 10.9922 -1.1641 14
-8.0625 52.3125 4.3203 216
-2.0469 13.281199999999998 -1.0937999999999999 217
-8.0234 52.0625 5.5352 229
-2.582 16.7656 -0.9839 177
-8.0078 51.9688 6.7578 67
-3.5957 23.3281 -0.8223 196
-5.480499999999999 35.5625 -0.4199 160
-1.0889 7.2265999999999995 -1.2812000000000001 134
-1.2236 8.125 -1.2461 34
-7.9961 53.0625 1.8721 94
-1.4013999999999998 9.2969 -1.2041 39
-7.953099999999999 52.7812 3.1035000000000004 177
-1.6562000000000001 10.9922 -1.1641 161
-2.002 13.289100000000001 -1.0937999999999999 161
-7.421900000000001 49.25 5.230499999999999 18
-2.5293 16.7812 -0.9849 76
-7.7188 51.2188 6.6562 129
-3.5312 23.4375 -0.8256999999999999 78
-7.234400000000001 48.0 7.394500000000001 225
-7.8477 52.0625 9.2734 118
-1.0645 7.2265999999999995 -1.2803 4
-1.1963 8.125 -1.2451 146
-7.8164 53.0625 1.8711000000000002 16
-1.3662 9.2734 -1.2002 239
-1.6200999999999999 11.0 -1.1641 127
-7.644500000000001 51.9062 4.2812 17
-1.9580000000000002 13.289100000000001 -1.0937999999999999 211
-7.3086 49.625 5.265599999999999 255
-2.4727 16.7812 -0.9843999999999999 211
-6.9375 47.0938 6.1172 21
-3.4414 23.375 -0.8231999999999999 149
-7.0625 47.9375 7.3828 246
-7.550800000000001 51.25 9.125 149
-1.0352 7.2227 -1.2793 114
-1.165 8.125 -1.2451 150
-1.3330000000000002 9.2969 -1.2031 0
-1.5752000000000002 10.9844 -1.1621 37
-1.9033000000000002 13.273399999999999 -1.0918 75
-7.8515999999999995 54.75 5.8086 251
-2.4062 16.7812 -0.9834 134
-6.738300000000001 47.0 6.1015999999999995 113
-3.3476999999999997 23.3438 -0.8218000000000001 99
-6.8672 47.9062 7.3711 218
-7.355499999999999 51.2812 9.1328 60
-1.0107 7.230499999999999 -1.2793 172
-1.1357 8.1172 -1.2441 250
-1.3018 9.3125 -1.2041 131
-1.5322 10.960899999999999 -1.1582 248
-1.8584 13.289100000000001 -1.0928 24
-2.3438 16.7656 -0.9819 217
-6.5703 46.9688 6.0977 201
-3.2656 23.3594 -0.8218000000000001 148
-6.699199999999999 47.9062 7.3711 151
-5.3828 38.5 -0.4539 144
-7.1836 51.375 9.1406 233
-0.9917 7.2578 -1.2841999999999998 64
-1.1113 8.1328 -1.2451 180
-1.2734 9.3203 -1.2051 64
-1.499 10.976600000000001 -1.1592 100
-1.8135 13.273399999999999 -1.0908 245
-2.291 16.7656 -0.9819 159
-3.1895 23.3438 -0.8208 249
-6.609400000000001 48.375 7.4414 213
-5.292999999999999 38.7188 -0.45630000000000004 76
-7.144500000000001 52.2812 9.2969 139
-0.9668000000000001 7.2578 -1.2832 14
-1.084 8.1328 -1.2451 30
-1.2412 9.3125 -1.2031 89
-1.4647999999999999 10.9922 -1.1611 120
-1.7675999999999998 13.2656 -1.0898 68
-2.2363 16.7812 -0.9829000000000001 231
-6.2578 46.9688 6.0898 236
-3.1094 23.3281 -0.8203 67
-6.984400000000001 52.4375 9.3203 16
-0.9384999999999999 7.2461 -1.2812000000000001 247
-1.0547 8.1406 -1.2451 36
-1.209 9.3359 -1.2051 102
-1.4238 10.9922 -1.1611 243
-7.0078 54.0938 4.4531 160
-1.7197 13.281199999999998 -1.0898 210
-6.5898 50.875 5.386699999999999 150
-2.168 16.7344 -0.9795 179
-6.1640999999999995 47.5625 6.1640999999999995 195
-3.0098000000000003 23.2344 -0.8164 89
-6.3515999999999995 49.0312 7.5352 199
-6.636699999999999 51.25 9.1016 147
-0.9126000000000001 7.2461 -1.2803 206
-1.0312000000000001 8.1875 -1.252 107
-1.1748 9.3281 -1.2031 184
-1.3838 10.9844 -1.1592 179
-1.6758000000000002 13.3047 -1.0918 222
-6.421900000000001 50.9688 5.394500000000001 197
-2.1055 16.7188 -0.9775 123
-5.980499999999999 47.4688 6.1523 17
-2.9375 23.3281 -0.8193 34
-6.4453 51.1562 9.0859 151
-0.8876999999999999 7.2578 -1.2822 37
-0.9984999999999999 8.1641 -1.248 133
-1.1416 9.3359 -1.2051 63
-1.3418 10.976600000000001 -1.1572 237
-1.624 13.281199999999998 -1.0889 158
-2.0469 16.75 -0.9790000000000001 253
-5.824199999999999 47.6562 6.167999999999999 7
-2.8535000000000004 23.3438 -0.8193 253
-6.675800000000001 54.5938 8.3828 153
-6.2852 51.4062 9.125 197
-0.8628 7.265599999999999 -1.2832 4
-6.2265999999999995 52.4688 0.6167 135
-0.9702 8.1719 -1.249 66
-7.1523 60.2188 2.1172 88
-1.1123 9.3672 -1.208 101
-1.3037 10.9844 -1.1582 197
-1.5771000000000002 13.281199999999998 -1.0889 9
-1.9853999999999998 16.7188 -0.9771 88
-5.730499999999999 48.2812 6.2461 248
-2.7656 23.2969 -0.8173999999999999 208
-5.8359000000000005 49.1875 7.542999999999999 208
-6.1172 51.5312 9.1406 190
-0.8393999999999999 7.2773 -1.2841999999999998 14
-6.0664 52.5625 0.6182 84
-0.9438 8.1797 -1.249 127
-1.0811 9.375 -1.208 244
-6.9062 59.875 3.5039 158
-1.2666 10.9844 -1.1572 91
-1.5303 13.2656 -1.0869 115
-6.261699999999999 54.2812 5.738300000000001 22
-1.9287 16.7188 -0.9765999999999999 130
-5.5703 48.2812 6.2461 220
-2.6797000000000004 23.2188 -0.8145 207
-5.6562 49.0312 7.519500000000001 99
-5.9609000000000005 51.6875 9.1641 124
-0.8145 7.2734000000000005 -1.2832 79
-5.8828 52.5 0.6172 173
-0.9155 8.1797 -1.248 140
-1.0469 9.3516 -1.2051 54
-1.2305 10.9922 -1.1582 194
-1.4872999999999998 13.281199999999998 -1.0879 223
-6.074199999999999 54.2188 5.730499999999999 202
-1.8700999999999999 16.7031 -0.9751000000000001 68
-5.3984000000000005 48.1875 6.234400000000001 148
-2.5995999999999997 23.2188 -0.8140000000000001 156
-5.5352 49.4062 7.578099999999999 191
-5.738300000000001 51.25 9.0859 65
-0.7886 7.269500000000001 -1.2822 100
-5.6836 52.4062 0.6157 171
-0.8881999999999999 8.1875 -1.25 109
-1.0156 9.3672 -1.207 201
-7.574199999999999 69.8125 4.0859 1
-1.1924 10.9922 -1.1582 239
-1.4404 13.281199999999998 -1.0879 72
-1.8154 16.7344 -0.9765999999999999 111
-2.5156 23.2031 -0.813 119
-5.359400000000001 49.4062 7.5703 101
-5.5547 51.2188 9.0781 239
-0.7661 7.2852 -1.2841999999999998 227
-5.511699999999999 52.4688 0.6157 72
-0.8589 8.1719 -1.2461 218
-7.5703 72.0625 2.5273 203
-0.9839 9.3594 -1.2051 89
-7.3398 69.8125 4.082 65
-1.1572 11.0156 -1.1592 12
-1.4013999999999998 13.3281 -1.0908 64
-5.7734000000000005 54.9062 5.796900000000001 179
-1.7559 16.7031 -0.9745999999999999 21
-5.144500000000001 48.9688 6.328099999999999 106
-2.4375 23.1875 -0.8125 156
-5.1836 49.3125 7.5547 62
-5.425800000000001 51.625 9.1484 44
-0.7402 7.300800000000001 -1.2871000000000001 153
-5.3203 52.4688 0.6157 57
-0.8301000000000001 8.1875 -1.248 53
-0.9501999999999999 9.375 -1.2061 36
-7.082000000000001 69.8125 4.082 77
-1.1152 10.9922 -1.1572 174
-1.3486000000000002 13.3047 -1.0889 30
-1.6924000000000001 16.6875 -0.9731000000000001 84
-2.3574 23.2344 -0.8140000000000001 93
-5.0195 49.5 7.582000000000001 200
-5.207000000000001 51.3438 9.0938 147
-0.7148 7.3047 -1.2871000000000001 85
-0.7998000000000001 8.1719 -1.2451 67
-2.5898000000000003 26.4688 0.9268000000000001 45
-0.917 9.3672 -1.2051 79
-9.2812 94.8125 5.542999999999999 99
-1.0771 11.0078 -1.1582 147
-1.2997999999999998 13.281199999999998 -1.0859 96
-1.6347999999999998 16.7031 -0.9736 216
-4.7969 49.0 6.328099999999999 157
-2.2754 23.25 -0.8140000000000001 123
-4.8516 49.5938 7.5898 217
-2.5858999999999996 26.4219 -0.3096 81
-5.0664 51.75 9.1641 204
-0.687 7.292999999999999 -1.2841999999999998 188
-2.4883 26.4219 0.3096 108
-0.772 8.1953 -1.249 227
-2.4941 26.4844 0.9268000000000001 149
-0.8837999999999999 9.3828 -1.207 10
-1.041 11.0469 -1.1621 79
-1.252 13.2969 -1.0869 222
-1.5732 16.7031 -0.9736 149
-4.6289 49.1562 6.3438 228
-2.1875 23.2188 -0.813 215
-2.4922 26.4688 -0.31010000000000004 14
-0.6606000000000001 7.2890999999999995 -1.2832 213
-2.375 26.2031 0.3069 177
-0.7437 8.2031 -1.25 83
-0.8495999999999999 9.3672 -1.2051 113
-1.002 11.0469 -1.1611 77
-1.2061 13.3047 -1.0879 214
-1.5107 16.6562 -0.9706999999999999 42
-4.4688 49.3125 6.363300000000001 22
-2.1016 23.1875 -0.8115000000000001 17
-2.3535 25.9688 -0.304 100
-0.6367 7.292999999999999 -1.2832 217
-2.2734 26.0312 0.30469999999999997 198
-0.7158 8.1953 -1.248 112
-0.8203 9.3906 -1.207 97
-0.9662999999999999 11.0625 -1.1631 242
-1.1621 13.3125 -1.0879 148
-4.7188 54.0312 5.6953 247
-1.4569999999999999 16.6875 -0.9722 8
-4.3164 49.4688 6.3789 190
-2.0234 23.1719 -0.8105 21
-4.3672 50.0 7.6484000000000005 211
-2.2754 26.0625 -0.3049 223
-0.6128 7.296900000000001 -1.2841999999999998 199
-2.1875 26.0625 0.3049 64
-0.6865000000000001 8.1719 -1.2441 236
-0.7890999999999999 9.3984 -1.208 149
-0.9297 11.0703 -1.1631 79
-1.1172 13.3125 -1.0869 91
-1.4022999999999999 16.7031 -0.9727 209
-1.9375 23.0781 -0.8070999999999999 43
-0.5854 7.3047 -1.2852000000000001 98
-0.6567000000000001 8.2031 -1.248 221
-0.752 9.3828 -1.2061 124
-0.8896 11.1094 -1.167 145
-1.0664 13.3125 -1.0869 27
-1.3378999999999999 16.7031 -0.9722 144
-4.1562 51.875 6.6875 194
-1.8457 23.0469 -0.8057 219
-4.1172 51.4062 7.855499999999999 47
-0.5586 7.292999999999999 -1.2822 112
-0.6284000000000001 8.2031 -1.248 50
-0.7188 9.3828 -1.2051 49
-0.8501000000000001 11.101600000000001 -1.165 253
-1.0205 13.3203 -1.0879 185
-1.2773 16.6875 -0.9706999999999999 57
-1.7675999999999998 23.0781 -0.8066 117
-3.9414 51.4375 7.863300000000001 188
-0.5342 7.292999999999999 -1.2822 207
-5.269500000000001 71.9375 0.8428 93
-0.6021 8.2188 -1.25 183
-0.6884999999999999 9.3984 -1.2061 63
-0.812 11.0781 -1.1631 213
-0.9756 13.3203 -1.0869 118
-1.2217 16.6875 -0.9706999999999999 5
-1.6904 23.0781 -0.8062 206
-3.7754000000000003 51.5312 7.875 191
-0.5097999999999999 7.2890999999999995 -1.2812000000000001 242
-0.5742 8.2109 -1.249 28
-6.4297 91.9375 3.2168 133
-0.6572 9.3984 -1.207 175
-0.7754000000000001 11.085899999999999 -1.1641 66
-0.9320999999999999 13.3281 -1.0879 147
-1.166 16.6719 -0.9702 221
-3.9882999999999997 57.0312 7.3477 15
-1.6074000000000002 22.9844 -0.8027 141
-0.4844 7.292999999999999 -1.2812000000000001 4
-0.5435 8.1875 -1.2441 133
-0.6245 9.4062 -1.207 104
-0.7363 11.085899999999999 -1.1631 137
-0.8837999999999999 13.3047 -1.0859 143
-4.668 70.25 7.394500000000001 223
-1.1084 16.6875 -0.9706999999999999 236
-1.5293 23.0312 -0.8042 233
-3.5762 53.8438 8.2188 145
-0.4604 7.296900000000001 -1.2822 107
-0.5186 8.2188 -1.249 59
-0.5932999999999999 9.3984 -1.2061 88
-0.7012 11.1172 -1.166 34
-0.8423 13.351600000000001 -1.0889 84
-1.0537 16.7031 -0.9712000000000001 62
-1.4531 23.0312 -0.8037000000000001 195
-3.3926 53.7812 8.2109 99
-0.4343 7.3125 -1.2841999999999998 234
-0.488 8.2188 -1.249 252
-0.5576 9.3906 -1.2041 81
-0.6597 11.101600000000001 -1.1641 114
-0.7925 13.343800000000002 -1.0879 7
-0.9897 16.6562 -0.9682999999999999 97
-3.3495999999999997 56.4062 7.261699999999999 133
-1.3681999999999999 23.0312 -0.8037000000000001 26
-3.1914 53.7188 8.2031 135
-0.4082 7.300800000000001 -1.2822 132
-0.4595 8.2188 -1.249 165
-0.5259 9.4062 -1.2061 79
-0.6206 11.101600000000001 -1.1641 207
-0.7465999999999999 13.351600000000001 -1.0889 22
-0.9316 16.6719 -0.9688 87
-3.0312 54.2188 6.980499999999999 190
-1.2881 23.0312 -0.8037000000000001 72
-0.38530000000000003 7.3515999999999995 -1.29 151
-0.43189999999999995 8.2422 -1.252 35
-0.49369999999999997 9.4141 -1.208 63
-0.5811 11.093800000000002 -1.1631 41
-0.7001999999999999 13.3594 -1.0889 192
-0.8755 16.7031 -0.9706999999999999 60
-2.8379000000000003 54.1562 6.9688 92
-1.2061 23.0156 -0.8027 3
-2.8457 54.3125 8.2891 165
-0.40159999999999996 8.2109 -1.2470999999999999 107
-0.4607 9.4219 -1.208 208
-0.5439 11.125 -1.166 115
-0.6533 13.3594 -1.0889 92
-0.8184 16.7344 -0.9722 93
-2.6367000000000003 53.9375 6.9375 89
-1.1220999999999999 22.9531 -0.8008 164
-0.3726 8.2031 -1.2461 134
-0.4275 9.4141 -1.207 247
-0.5044 11.1094 -1.1641 180
-0.6054999999999999 13.335899999999999 -1.0869 111
-0.7612000000000001 16.7656 -0.9736 27
-2.4512 53.9688 6.9414 91
-1.0449 23.0 -0.8022 140
-0.3452 8.2422 -1.251 254
-0.3948 9.4219 -1.207 240
-0.46659999999999996 11.125 -1.166 5
-0.5600999999999999 13.3672 -1.0889 69
-0.7017 16.75 -0.9722 51
-2.3086 55.0625 7.082000000000001 237
-0.9614 22.9375 -0.7998000000000001 17
-0.31620000000000004 8.2266 -1.249 130
-0.36210000000000003 9.4219 -1.208 243
-0.42719999999999997 11.125 -1.165 142
-0.5136999999999999 13.3672 -1.0889 34
-0.6426000000000001 16.7188 -0.9712000000000001 171
-2.1094 54.9062 7.0625 170
-0.8837999999999999 23.0 -0.8022 158
-0.2876 8.2344 -1.25 32
-0.3293 9.4297 -1.209 132
-0.38789999999999997 11.1094 -1.1641 209
-0.4675 13.3906 -1.0908 110
-0.5845 16.7344 -0.9717 1
-0.8022 22.9844 -0.8012999999999999 181
-0.2588 8.2344 -1.25 237
-0.2961 9.4219 -1.208 9
-0.3494 11.1094 -1.1641 138
-0.4202 13.3672 -1.0889 236
-0.5254 16.7188 -0.9706999999999999 127
-0.7206999999999999 22.9219 -0.7993000000000001 193
-0.2297 8.2266 -1.248 219
-0.2632 9.4219 -1.207 165
-0.3105 11.1172 -1.1641 247
-0.373 13.3594 -1.0879 12
-0.4683 16.7656 -0.9731000000000001 86
-0.6420999999999999 23.0 -0.8018000000000001 177
-0.0182 0.7383 -0.1229 155
-0.2028 8.2344 -1.25 13
-0.2318 9.4219 -1.207 36
-0.2732 11.101600000000001 -1.1621 163
-0.3293 13.3828 -1.0898 228
-0.41259999999999997 16.7656 -0.9731000000000001 214
-0.5674 23.0469 -0.8037000000000001 88
-0.015700000000000002 0.7383 -0.1229 181
-0.17550000000000002 8.2422 -1.25 225
-0.20079999999999998 9.4297 -1.208 235
-0.23670000000000002 11.1172 -1.1641 254
-0.2852 13.3906 -1.0898 240
-0.3564 16.7344 -0.9712000000000001 253
-0.4902 23.0156 -0.8022 226
-0.1454 8.2422 -1.251 86
-0.1663 9.4297 -1.208 183
-0.1956 11.085899999999999 -1.1611 152
-0.2357 13.3672 -1.0889 190
-0.2952 16.75 -0.9717 111
-0.40549999999999997 23.0 -0.8018000000000001 223
-0.0104 0.7387999999999999 -0.1229 1
-0.1165 8.2422 -1.25 233
-0.1335 9.4453 -1.21 231
-0.1572 11.1172 -1.1641 39
-0.1891 13.3672 -1.0889 203
-0.2368 16.75 -0.9722 56
-0.32539999999999997 23.0156 -0.8022 161
-0.0083 0.7778 -0.1298 38
-0.0876 8.2344 -1.249 107
-0.1003 9.4219 -1.2061 187
-0.1183 11.1094 -1.1631 249
-0.1422 13.351600000000001 -1.0869 148
-0.17809999999999998 16.7344 -0.9706999999999999 11
-0.2455 23.0625 -0.8037000000000001 147
-0.0053 0.7387999999999999 -0.1229 153
-0.7212000000000001 100.75 1.1777 120
-0.0591 8.2578 -1.2529000000000001 190
-0.0674 9.4219 -1.2061 193
-0.0795 11.101600000000001 -1.1621 94
-0.0955 13.351600000000001 -1.0869 142
