# .PCD v0.7 - Point Cloud Data file format
VERSION 0.7
FIELDS x y z intensity
SIZE 4 4 4 4
TYPE F F F F
COUNT 1 1 1 1
WIDTH 1335
HEIGHT 1
VIEWPOINT 0 0 0 1 0 0 0
POINTS 1335
DATA ascii
45.5938 22.4531 1.7734 17
46.3438 22.8281 3.0039 210
8.5938 4.2305 -1.002 248
99.9375 49.2188 9.0938 240
8.625 4.2461 -0.7812 233
8.5312 4.2031 -0.5508 132
8.4297 4.1484 -0.3262 148
8.5 4.1875 -0.1099 210
45.875 22.3906 1.7812000000000001 118
8.6484 4.2188 -1.0068000000000001 205
100.0 48.8125 9.0859 238
8.6719 4.2344 -0.7847 35
8.5781 4.1875 -0.5527000000000001 39
8.4375 4.1172 -0.3259 217
8.5547 4.1758 -0.1105 12
47.125 22.7969 1.8262 252
100.0625 48.4062 6.4648 40
12.406199999999998 6.0 -1.4434 160
99.9375 48.375 9.0703 104
8.6719 4.1953 -0.5581 208
8.4531 4.0898 -0.3262 65
8.5859 4.1523 -0.1106 11
47.0312 22.5625 1.8203 219
100.0 47.9688 6.449199999999999 201
12.4375 5.9648 -1.4453 35
100.0 47.9688 9.0547 43
8.5 4.0781 -0.3274 228
8.6094 4.1289 -0.1108 88
100.125 47.5938 6.4453 100
12.468800000000002 5.9297 -1.4463 236
8.5469 4.0625 -0.3286 202
8.6328 4.1055 -0.1109 247
55.5 26.1562 2.1406 66
100.1875 47.25 6.4414 72
12.468800000000002 5.8789 -1.4443000000000001 51
99.875 47.0938 9.0156 110
8.5625 4.0352 -0.3286 112
12.4922 5.8359000000000005 -1.4443000000000001 124
99.9375 46.6875 9.0078 5
8.6406 4.0352 -0.3311 221
56.5 26.1562 2.1719 211
12.531199999999998 5.800800000000001 -1.4463 135
56.9375 26.1094 2.1855 169
12.5547 5.7578 -1.4472999999999998 60
57.8125 26.2656 0.7417 197
99.8125 45.3438 8.9531 89
19.4531 8.8359 -1.2402 36
99.875 44.5625 6.359400000000001 125
99.9375 44.5938 8.9375 242
14.9844 6.6875 -1.3359 63
14.960899999999999 6.6797 -0.9506999999999999 29
99.8125 44.125 6.3477 213
99.8125 44.125 8.9141 250
14.9219 6.5938 -1.3291 117
14.9297 6.5977 -0.9468000000000001 39
15.0 6.6289 -0.5708 4
99.875 43.7188 6.3398 206
99.875 43.7188 8.8984 153
14.8828 6.515599999999999 -1.3232 154
14.8672 6.5078 -0.9414 236
14.906199999999998 6.5234000000000005 -0.5664 230
55.5 24.0625 2.1113 75
100.0625 43.375 6.3438 141
99.8125 43.2812 8.8828 58
14.898399999999999 6.4609000000000005 -1.3222999999999998 77
14.8672 6.4453 -0.9404 7
14.9219 6.4727 -0.5664 88
14.8672 6.3828 -1.3174000000000001 134
14.8828 6.390599999999999 -0.9399 23
14.906199999999998 6.4023 -0.5649000000000001 222
61.4375 26.125 0.7798 109
55.8125 23.7344 2.1172 102
99.75 42.4375 8.8516 238
14.914100000000001 6.3438 -1.3203 65
14.8906 6.332000000000001 -0.9384999999999999 30
14.8594 6.3203 -0.562 148
56.9062 23.9688 2.1543 107
99.75 42.0312 8.8359 30
14.906199999999998 6.2773 -1.3174000000000001 225
14.9219 6.2852 -0.9395 195
14.8906 6.269500000000001 -0.5625 149
99.6875 41.5938 8.8203 162
14.9531 6.238300000000001 -1.3193000000000001 95
15.0469 6.2773 -0.9462999999999999 43
14.960899999999999 6.238300000000001 -0.564 15
99.8125 41.2188 8.8203 32
15.0 6.1953 -1.3213 60
15.0703 6.2227 -0.9462999999999999 216
15.039100000000001 6.2109000000000005 -0.5664 29
99.8125 40.8125 8.8047 97
15.0547 6.1602 -1.3252000000000002 37
15.093800000000002 6.175800000000001 -0.9462999999999999 56
65.125 26.6406 -0.8223 27
99.75 40.4062 8.7891 206
15.1875 6.1523 -1.335 141
16.1094 6.5312 -0.2024 8
16.125 6.4648 0.2023 246
16.1406 6.4727 0.6054999999999999 213
16.1875 6.488300000000001 1.0117 128
16.2188 6.5039 1.4238 25
16.0938 6.453099999999999 -1.4131 175
16.0938 6.457000000000001 -1.0068000000000001 57
16.1094 6.457000000000001 -0.604 115
16.1094 6.457000000000001 -0.20199999999999999 180
16.125 6.4023 0.20199999999999999 87
16.1094 6.390599999999999 0.603 226
16.1406 6.4023 1.0068000000000001 113
16.125 6.3984000000000005 1.4131 109
16.1094 6.394500000000001 -1.4121000000000001 154
16.1406 6.4023 1.8203 159
16.125 6.3984000000000005 -1.0068000000000001 25
16.1094 6.3984000000000005 2.2246 104
16.125 6.3984000000000005 -0.604 213
16.125 6.3984000000000005 2.6387 106
16.1094 6.394500000000001 -0.2018 46
16.1406 6.4023 3.0526999999999997 61
16.125 6.3398 0.2018 88
16.1094 6.332000000000001 0.6025 167
16.1094 6.332000000000001 1.0049 46
16.1094 6.332000000000001 1.4102000000000001 140
16.1562 6.3438 -1.4141 160
16.1094 6.328099999999999 1.8144999999999998 170
16.1562 6.3438 -1.0068000000000001 39
16.1094 6.328099999999999 2.2207 53
16.1406 6.3398 -0.604 225
16.1094 6.332000000000001 2.6327999999999996 186
16.1094 6.328099999999999 -0.20149999999999998 55
16.125 6.3359000000000005 3.0469 78
16.1562 6.2852 0.20190000000000002 134
16.1406 6.2773 0.603 251
16.125 6.2734000000000005 1.0039 222
16.125 6.2734000000000005 1.4102000000000001 249
16.2031 6.3047 -1.4169999999999998 7
16.1406 6.2773 1.8154 96
16.2031 6.3047 -1.0098 52
16.125 6.269500000000001 2.2207 125
16.2031 6.300800000000001 -0.6054999999999999 75
16.125 6.2734000000000005 2.6327999999999996 90
16.1719 6.2852 -0.20190000000000002 198
16.1406 6.2734000000000005 3.0449 253
16.2188 6.238300000000001 0.2023 255
16.1875 6.230499999999999 0.604 116
16.1719 6.2265999999999995 1.0059 36
16.1562 6.2188 1.4102000000000001 59
16.2969 6.269500000000001 -1.4219 172
16.1719 6.2227 1.8163999999999998 155
19.25 7.4062 -1.1973 152
16.1562 6.2148 2.2207 18
16.2969 6.269500000000001 -0.6079 12
16.1875 6.230499999999999 2.6387 86
16.25 6.2539 -0.2028 226
16.1719 6.2227 3.0469 38
16.25 6.1875 0.6054999999999999 218
16.2656 6.1914 1.0098 124
16.2344 6.1836 1.416 137
16.2812 6.203099999999999 1.8271000000000002 178
19.2969 7.3477 -1.1982 59
16.2188 6.175800000000001 2.2266 21
16.2812 6.203099999999999 2.6504000000000003 213
57.8125 21.8125 3.5938 86
100.0 37.7188 8.7266 202
19.3125 7.2852 -1.1982 169
58.3125 21.7812 2.1719 135
17.9375 6.703099999999999 1.1123 11
17.8281 6.6562 -0.6626000000000001 197
17.8125 6.6523 -0.2214 55
17.8594 6.5938 0.2218 209
17.8438 6.5859000000000005 0.6626000000000001 95
17.9062 6.613300000000001 1.1084 76
99.9375 36.875 8.6953 88
19.5 7.1953 -1.2061 155
17.8438 6.5898 -0.2217 11
17.9375 6.550800000000001 1.1084 139
100.0 36.5 8.6875 139
19.5938 7.1562 -1.2109 84
17.9375 6.480499999999999 1.1074 31
100.0 36.125 8.6797 148
99.9375 35.75 8.6641 40
21.8125 7.800800000000001 -0.27 16
68.8125 24.3125 2.5469 251
99.875 35.3125 8.6484 117
20.2188 7.144500000000001 -1.2451 22
21.8438 7.7188 -0.27 244
68.6875 24.0 2.5391 28
71.125 24.8438 4.3789 129
99.875 34.9062 8.6406 211
20.4844 7.1562 -1.2598 142
99.875 34.5 8.625 202
20.7188 7.1562 -0.7637 55
99.9375 34.1562 8.625 168
20.6875 7.0664 -0.7612000000000001 234
68.375 23.125 4.1992 131
99.875 33.7812 8.6094 174
20.7188 7.0039 -0.7617 246
67.8125 22.6875 2.4961 12
70.6875 23.6406 4.3359 163
99.8125 33.375 8.5938 229
20.7656 6.9453 -0.7626999999999999 203
68.3125 22.5469 4.1836 66
99.875 32.9375 8.5859 31
67.8125 22.1094 2.4902 1
68.4375 22.2969 4.1836 26
99.875 32.5312 8.5781 175
69.75 22.4844 4.2617 100
67.5625 21.5469 2.4746 124
101.0 32.1875 8.6562 188
69.4375 21.875 4.2344 238
22.4688 7.078099999999999 -1.3681999999999999 54
68.0 21.1719 2.4863 214
100.9375 31.4219 6.1484000000000005 188
100.9375 31.4219 8.6328 196
67.9375 20.8594 2.4805 116
22.9062 7.0352 -1.3916 35
23.0 7.0625 -0.8384 180
71.6875 21.75 4.3594 20
23.2344 7.046900000000001 -1.4102000000000001 169
107.5625 31.4219 6.515599999999999 56
107.6875 31.0781 6.519500000000001 172
25.7188 7.3164 -0.9320999999999999 229
25.7656 7.234400000000001 -0.9326000000000001 86
24.7031 6.2109000000000005 -0.8876999999999999 64
25.3281 6.265599999999999 -0.3042 113
25.3438 6.175800000000001 0.3042 24
25.3125 6.1640999999999995 0.9081999999999999 37
25.375 6.1797 1.5166 158
25.3594 6.1797 2.1289 154
25.3281 6.167999999999999 3.3476999999999997 52
25.2969 6.1640999999999995 -0.9077 141
25.3125 6.167999999999999 3.9668 64
25.2812 6.1562 -0.3035 187
25.2969 6.1640999999999995 4.5859 36
25.3281 6.074199999999999 0.3037 165
25.2812 6.0664 0.9062 53
25.2969 6.0703 1.5107 112
25.3125 6.0703 2.123 100
25.2969 6.0664 2.7285000000000004 118
25.2812 6.0664 3.3398000000000003 22
25.3594 6.082000000000001 -0.9087000000000001 116
25.2812 6.0625 3.957 83
25.2969 6.0703 -0.3032 108
25.2812 6.0664 4.5781 144
25.3594 5.988300000000001 0.3037 25
25.3125 5.980499999999999 0.9062 99
25.3125 5.9765999999999995 1.5107 215
25.3281 5.984400000000001 2.123 118
25.3125 5.980499999999999 2.7305 114
25.2969 5.9727 3.3379000000000003 175
25.4688 6.015599999999999 -0.9120999999999999 60
25.3281 5.984400000000001 3.9629000000000003 171
25.375 5.9922 -0.304 41
25.2969 5.9765999999999995 4.5781 174
25.375 5.9062 0.9081999999999999 0
25.3906 5.9102 1.5146000000000002 5
12.6875 2.9512 -1.3643 157
25.3594 5.9023 2.123 229
12.6953 2.9551 -1.0615 70
12.585899999999999 2.9297000000000004 1.3535 235
12.656199999999998 2.9452999999999996 -0.7534000000000001 67
12.5547 2.9219 1.6522999999999999 182
12.718800000000002 2.9608999999999996 -0.4543 242
12.6719 2.9043 -1.3622999999999998 126
12.6875 2.9082 -1.0595999999999999 10
12.625 2.8926 1.3563999999999998 41
12.6875 2.9082 -0.7544 222
12.5703 2.8808999999999996 1.6533000000000002 20
12.6797 2.9062 -0.4524 233
12.6797 2.9062 -0.1512 11
12.6875 2.8594 0.1512 168
12.664100000000001 2.8555 0.4517 253
12.6875 2.8594 0.7539 110
12.6797 2.8574 -1.3613 128
12.664100000000001 2.8555 1.0566 115
12.664100000000001 2.8555 -1.0566 149
12.601600000000001 2.8398000000000003 1.3525 250
12.6719 2.8555 -0.7534000000000001 125
12.585899999999999 2.8358999999999996 1.6543 245
12.6875 2.8594 -0.4524 235
12.656199999999998 2.8535000000000004 -0.1509 194
12.6875 2.8125 0.151 189
12.6797 2.8105 0.4517 173
12.6797 2.8105 0.7529 241
12.6875 2.8125 -1.3613 58
12.6875 2.8125 1.0576 250
12.6719 2.8086 -1.0566 76
12.601600000000001 2.793 1.3516 215
12.664100000000001 2.8066000000000004 -0.752 153
12.585899999999999 2.7910000000000004 1.6533000000000002 216
12.6953 2.8145 -0.4521 135
12.664100000000001 2.8086 1.9716999999999998 238
12.656199999999998 2.8066000000000004 -0.1508 250
12.648399999999999 2.8047000000000004 2.2773 116
12.6797 2.7695 0.1509 211
12.6797 2.7695 0.4514 68
12.6719 2.7676 0.752 205
12.6797 2.7695 -1.3594 249
12.6797 2.7695 1.0566 64
12.6875 2.7714999999999996 -1.0576 6
12.601600000000001 2.752 1.3506 240
12.648399999999999 2.7617000000000003 -0.7505 64
12.5703 2.7461 1.6494 51
12.6953 2.7733999999999996 -0.45189999999999997 25
12.656199999999998 2.7656 1.9697 0
12.664100000000001 2.7656 -0.1508 64
12.6406 2.7617000000000003 2.2754 80
12.6719 2.7245999999999997 0.1508 119
12.6797 2.7266000000000004 0.4512 31
12.6719 2.7245999999999997 0.7515000000000001 253
12.6719 2.7226999999999997 -1.3574000000000002 167
12.6797 2.7245999999999997 1.0556999999999999 168
12.6719 2.7245999999999997 -1.0556999999999999 175
12.6094 2.7108999999999996 1.3506 32
12.656199999999998 2.7207 -0.7505 126
12.5625 2.7012 1.6475 13
12.6797 2.7245999999999997 -0.4509 80
12.656199999999998 2.7207 1.9678 118
12.6719 2.7226999999999997 -0.1506 65
12.664100000000001 2.7226999999999997 2.2773 37
12.6797 2.6757999999999997 0.1506 103
12.6719 2.6757999999999997 0.4507 176
12.6797 2.6757999999999997 0.7509999999999999 51
12.6797 2.6776999999999997 -1.3574000000000002 2
12.664100000000001 2.6738 1.0537 56
12.656199999999998 2.6719 -1.0537 234
12.6094 2.6620999999999997 1.3496000000000001 108
12.664100000000001 2.6738 -0.7505 163
12.5703 2.6523000000000003 1.6465 33
12.6719 2.6757999999999997 -0.4507 87
12.648399999999999 2.6699 1.9647999999999999 118
12.6719 2.6757999999999997 -0.1506 250
12.664100000000001 2.6738 2.2754 197
12.6875 2.6308999999999996 0.1506 186
12.664100000000001 2.627 0.4497 131
12.6797 2.6308999999999996 0.7509999999999999 159
12.6797 2.6308999999999996 -1.3563999999999998 0
12.6719 2.6289 1.0537 72
12.664100000000001 2.627 -1.0527 160
12.601600000000001 2.6151999999999997 1.3486000000000002 83
12.664100000000001 2.627 -0.7495 91
12.5781 2.6094 1.6465 153
12.6797 2.6289 -0.45020000000000004 162
12.648399999999999 2.625 1.9638999999999998 91
12.656199999999998 2.627 -0.1503 169
12.6719 2.6289 2.2734 88
12.6719 2.5839999999999996 0.15039999999999998 149
12.6719 2.582 0.4497 90
12.6719 2.5839999999999996 0.75 227
12.6875 2.5858999999999996 -1.3563999999999998 166
12.6797 2.5839999999999996 1.0537 243
12.656199999999998 2.5801 -1.0518 234
12.601600000000001 2.5683999999999996 1.3466999999999998 28
12.656199999999998 2.5801 -0.7490000000000001 213
12.5703 2.5625 1.6444999999999999 93
12.6719 2.582 -0.4497 116
12.656199999999998 2.5801 1.9628999999999999 196
12.664100000000001 2.582 -0.1503 25
12.648399999999999 2.5781 2.2695 151
12.6719 2.5371 0.1503 251
12.6719 2.5371 0.4495 134
12.656199999999998 2.5332 0.7484999999999999 26
12.6797 2.5391 -1.3544999999999998 126
12.6797 2.5391 1.0527 105
12.6719 2.5371 -1.0518 131
12.593800000000002 2.5215 1.3457 61
12.648399999999999 2.5312 -0.7476 164
12.5625 2.5156 1.6425999999999998 242
12.6797 2.5391 -0.45 85
12.656199999999998 2.5332 1.9619 174
12.656199999999998 2.5332 -0.15 97
12.6406 2.5312 2.2656 167
12.664100000000001 2.4902 0.15 239
12.6719 2.4922 0.44920000000000004 11
12.664100000000001 2.4902 0.7484999999999999 12
12.6719 2.4902 -1.3525 26
12.6719 2.4922 1.0518 145
12.6719 2.4902 -1.0518 108
12.601600000000001 2.4766 1.3457 254
12.664100000000001 2.4883 -0.748 179
12.5547 2.4688 1.6406 36
12.6719 2.4922 -0.44920000000000004 225
12.656199999999998 2.4883 1.96 179
12.664100000000001 2.4883 -0.15 27
12.648399999999999 2.4863 2.2656 0
12.664100000000001 2.4434 0.1499 91
12.6719 2.4453 0.4487 171
12.6719 2.4453 0.748 25
12.664100000000001 2.4434 -1.3506 143
12.656199999999998 2.4434 1.0498 45
12.656199999999998 2.4414 -1.0498 42
12.585899999999999 2.4297 1.3428 90
12.664100000000001 2.4434 -0.7476 215
12.5625 2.4238 1.6396000000000002 159
12.656199999999998 2.4414 -0.4482 168
12.648399999999999 2.4395 1.9569999999999999 230
12.6719 2.4453 -0.15 159
12.648399999999999 2.4414 2.2637 132
12.6875 2.4004 0.15 159
12.656199999999998 2.3965 0.4482 249
12.6719 2.4004 0.748 45
12.6797 2.4004 -1.3516 137
12.664100000000001 2.3965 1.0488 173
12.656199999999998 2.3965 -1.0488 227
12.585899999999999 2.3828 1.3418 49
12.664100000000001 2.3965 -0.7471 9
12.5703 2.3809 1.6406 80
12.664100000000001 2.3984 -0.4482 128
12.6406 2.3926 1.9561000000000002 214
12.664100000000001 2.3965 -0.14980000000000002 175
12.648399999999999 2.3945 2.2637 208
12.6719 2.3535 0.14980000000000002 8
12.664100000000001 2.3516 0.44799999999999995 142
12.6719 2.3535 0.7471 108
12.6875 2.3555 -1.3516 21
12.6719 2.3535 1.0488 252
12.664100000000001 2.3516 -1.0488 231
12.5781 2.3359 1.3397999999999999 216
12.656199999999998 2.3496 -0.7461 148
12.5703 2.334 1.6387 101
12.6719 2.3535 -0.4482 59
12.6406 2.3477 1.9541 98
12.648399999999999 2.3477 -0.1495 131
12.6406 2.3477 2.2598 21
12.6719 2.3086 0.14980000000000002 196
12.664100000000001 2.3047 0.44780000000000003 23
12.656199999999998 2.3047 0.7461 73
12.664100000000001 2.3066 -1.3486000000000002 222
12.664100000000001 2.3066 1.0479 92
12.6719 2.3086 -1.0488 95
12.5781 2.291 1.3388999999999998 110
12.648399999999999 2.3027 -0.7451000000000001 149
12.5547 2.2871 1.6366999999999998 138
12.6797 2.3086 -0.4482 3
12.648399999999999 2.3027 1.9541 88
12.648399999999999 2.3027 -0.1494 250
12.625 2.2988 2.2559 56
12.664100000000001 2.2598 0.1495 40
12.664100000000001 2.2598 0.4475 138
12.656199999999998 2.2598 0.7456 165
12.664100000000001 2.2598 -1.3466999999999998 87
12.656199999999998 2.2598 1.0469 80
12.6719 2.2617 -1.0479 49
12.585899999999999 2.2461 1.3388999999999998 12
12.648399999999999 2.2578 -0.7445999999999999 102
12.5547 2.2402 1.6347999999999998 210
12.664100000000001 2.2598 -0.4475 143
12.656199999999998 2.2598 1.9541 9
12.648399999999999 2.2578 -0.1494 100
12.6406 2.2559 2.2559 41
12.664100000000001 2.2129 0.1494 78
12.648399999999999 2.2109 0.4468 60
12.664100000000001 2.2129 0.7451000000000001 108
12.664100000000001 2.2129 -1.3466999999999998 167
12.6406 2.209 1.0449 222
12.664100000000001 2.2129 -1.0469 5
12.593800000000002 2.1992 1.3388999999999998 137
12.6719 2.2129 -0.7456 202
12.5547 2.1934 1.6338 141
12.664100000000001 2.2129 -0.447 86
12.648399999999999 2.209 1.9512 64
12.656199999999998 2.2109 -0.1494 3
12.6406 2.209 2.2559 42
12.664100000000001 2.168 0.1494 132
12.656199999999998 2.166 0.4465 119
12.6719 2.168 0.7456 28
12.664100000000001 2.168 -1.3457 17
12.656199999999998 2.166 1.0449 126
12.664100000000001 2.166 -1.0459 127
12.585899999999999 2.1543 1.3369 16
12.664100000000001 2.166 -0.7445999999999999 42
12.5625 2.1504 1.6338 40
12.664100000000001 2.166 -0.4468 115
12.6406 2.1621 1.9482 25
12.6406 2.1641 -0.149 216
12.648399999999999 2.1641 2.2559 197
12.6719 2.127 0.1493 116
12.648399999999999 2.123 0.446 200
12.664100000000001 2.127 0.7445999999999999 15
12.6719 2.127 -1.3457 149
12.656199999999998 2.125 1.0449 55
12.664100000000001 2.127 -1.0449 236
12.5703 2.1113 1.3359 200
12.656199999999998 2.125 -0.7441 178
12.5625 2.1094 1.6328 9
12.6719 2.127 -0.4468 136
12.648399999999999 2.123 1.9491999999999998 124
12.625 2.1191 -0.14880000000000002 115
12.6328 2.1211 2.252 56
12.6719 2.084 0.1493 102
12.656199999999998 2.082 0.446 28
12.648399999999999 2.0801 0.7432 133
12.664100000000001 2.084 -1.3447 27
12.656199999999998 2.082 1.0439 105
12.6719 2.084 -1.0459 128
12.5781 2.0684 1.335 74
12.6406 2.0801 -0.7426999999999999 215
12.5547 2.0645 1.6309 141
12.6797 2.0859 -0.4468 178
12.648399999999999 2.0801 1.9472999999999998 191
12.6328 2.0781 -0.14880000000000002 182
12.6328 2.0781 2.25 70
12.648399999999999 2.0312 0.1489 239
12.656199999999998 2.0352 0.4458 196
12.648399999999999 2.0332 0.7426999999999999 239
12.656199999999998 2.0352 -1.3428 1
12.656199999999998 2.0332 1.0439 254
12.6719 2.0371 -1.0449 45
12.585899999999999 2.0234 1.3359 34
12.648399999999999 2.0332 -0.7426999999999999 251
12.5469 2.0176 1.6299000000000001 112
12.664100000000001 2.0352 -0.44630000000000003 57
12.656199999999998 2.0332 1.9472999999999998 94
12.648399999999999 2.0332 -0.1489 60
12.6328 2.0293 2.248 216
12.656199999999998 1.9883000000000002 0.1489 180
12.648399999999999 1.9883000000000002 0.44530000000000003 87
12.6719 1.9912 0.7437 164
12.656199999999998 1.9893 -1.3418 194
12.648399999999999 1.9872999999999998 1.042 232
12.664100000000001 1.9893 -1.043 107
12.593800000000002 1.9794999999999998 1.3359 22
12.656199999999998 1.9883000000000002 -0.7426999999999999 224
12.5547 1.9727000000000001 1.6288999999999998 225
12.656199999999998 1.9883000000000002 -0.4456 194
12.648399999999999 1.9872999999999998 1.9463 195
12.6406 1.9863 -0.1487 107
12.6406 1.9863 2.248 217
12.6719 1.9453 0.1489 31
12.6406 1.9413999999999998 0.4448 155
12.664100000000001 1.9443000000000001 0.7426999999999999 215
12.664100000000001 1.9443000000000001 -1.3418 233
12.648399999999999 1.9424000000000001 1.042 39
12.648399999999999 1.9424000000000001 -1.042 211
12.5781 1.9316 1.3330000000000002 223
12.664100000000001 1.9443000000000001 -0.7426999999999999 112
12.5547 1.9277000000000002 1.6279 223
12.648399999999999 1.9424000000000001 -0.4451 222
12.625 1.9394999999999998 1.9413999999999998 97
12.6406 1.9413999999999998 -0.1487 54
12.6406 1.9413999999999998 2.248 86
12.6719 1.9003999999999999 0.1489 34
12.648399999999999 1.8965 0.4448 35
12.664100000000001 1.8994 0.7426999999999999 99
12.6719 1.9003999999999999 -1.3418 215
12.664100000000001 1.8994 1.043 169
12.656199999999998 1.8984 -1.042 70
12.5625 1.8838 1.3300999999999998 128
12.656199999999998 1.8975 -0.7417 221
12.5547 1.8828 1.6279 41
12.6797 1.9013999999999998 -0.4458 135
12.6328 1.8955000000000002 1.9413999999999998 186
12.6328 1.8944999999999999 -0.1484 75
12.6328 1.8944999999999999 2.2441 105
12.656199999999998 1.8525 0.1487 149
12.648399999999999 1.8516 0.4446 139
12.648399999999999 1.8516 0.7412000000000001 227
12.664100000000001 1.8544999999999998 -1.3408000000000002 82
12.6719 1.8555000000000001 1.042 93
12.656199999999998 1.8525 -1.041 19
12.5781 1.8418 1.3311000000000002 3
12.6328 1.8496000000000001 -0.7402 37
12.5547 1.8378999999999999 1.6269999999999998 238
12.6719 1.8555000000000001 -0.44530000000000003 143
12.6406 1.8506 1.9413999999999998 106
12.6406 1.8506 -0.1484 182
12.625 1.8486000000000002 2.2422 219
12.648399999999999 1.8066 0.1484 43
12.656199999999998 1.8086000000000002 0.4448 226
12.648399999999999 1.8066 0.7406999999999999 108
12.656199999999998 1.8086000000000002 -1.3397999999999999 134
12.656199999999998 1.8086000000000002 1.041 197
12.656199999999998 1.8086000000000002 -1.041 163
12.5781 1.7959 1.3300999999999998 145
12.6406 1.8056999999999999 -0.7402 60
12.5469 1.7930000000000001 1.625 227
12.648399999999999 1.8066 -0.4443 54
12.6406 1.8066 1.9413999999999998 129
12.6406 1.8056999999999999 -0.1484 105
12.6328 1.8047 2.2422 47
12.656199999999998 1.7627000000000002 0.1484 240
12.648399999999999 1.7616999999999998 0.44409999999999994 55
12.656199999999998 1.7627000000000002 0.7406999999999999 208
12.664100000000001 1.7646000000000002 -1.3397999999999999 118
12.6328 1.7588 1.0381 0
12.648399999999999 1.7627000000000002 -1.04 66
12.5781 1.7519999999999998 1.3300999999999998 12
12.648399999999999 1.7627000000000002 -0.7406999999999999 48
12.5469 1.7480000000000002 1.624 164
12.6406 1.7607 -0.44380000000000003 159
12.648399999999999 1.7616999999999998 1.9404 118
12.648399999999999 1.7616999999999998 -0.1484 7
12.625 1.7588 2.2402 18
12.664100000000001 1.7187999999999999 0.14859999999999998 42
12.6328 1.7147999999999999 0.4434 203
12.656199999999998 1.7178 0.7406999999999999 11
12.664100000000001 1.7187999999999999 -1.3388999999999998 224
12.648399999999999 1.7178 1.0391 197
12.648399999999999 1.7168 -1.0391 140
12.5781 1.7069999999999999 1.3291 31
12.648399999999999 1.7168 -0.7402 117
12.5547 1.7041 1.624 59
12.648399999999999 1.7178 -0.44409999999999994 48
12.625 1.7138999999999998 1.9365 185
12.6406 1.7158000000000002 -0.1482 139
12.6406 1.7158000000000002 2.2422 18
12.656199999999998 1.6728999999999998 0.1483 211
12.6406 1.6709 0.4434 61
12.648399999999999 1.6719 0.7397 116
12.664100000000001 1.6738 -1.3378999999999999 167
12.648399999999999 1.6719 1.0381 34
12.6406 1.6709 -1.0381 244
12.5469 1.6591999999999998 1.3262 96
12.6328 1.6699000000000002 -0.7387999999999999 180
12.5625 1.6611000000000002 1.625 19
12.656199999999998 1.6728999999999998 -0.44409999999999994 75
12.6328 1.6699000000000002 1.9365 117
12.6406 1.6709 -0.1482 160
12.625 1.6688999999999998 2.2383 55
12.656199999999998 1.6279 0.1483 100
12.648399999999999 1.6269999999999998 0.4436 241
12.6406 1.626 0.7387999999999999 238
12.656199999999998 1.6288999999999998 -1.3369 254
12.648399999999999 1.6269999999999998 1.0381 165
12.656199999999998 1.6279 -1.0381 98
12.5625 1.6152000000000002 1.3262 130
12.625 1.624 -0.7378 22
12.5547 1.6152000000000002 1.6230000000000002 237
12.664100000000001 1.6288999999999998 -0.44409999999999994 207
12.6328 1.626 1.9365 29
12.6328 1.625 -0.1481 128
12.601600000000001 1.6211000000000002 2.2324 19
12.6406 1.584 0.1481 223
12.648399999999999 1.585 0.4434 170
12.6406 1.5830000000000002 0.7383 38
12.656199999999998 1.585 -1.3359 139
12.6406 1.5830000000000002 1.0371 238
12.648399999999999 1.585 -1.0381 248
12.5703 1.5752000000000002 1.3271000000000002 136
12.6406 1.5830000000000002 -0.7383 254
12.539100000000001 1.5713 1.6200999999999999 166
12.648399999999999 1.584 -0.4434 85
12.6406 1.5830000000000002 1.9355000000000002 46
12.6406 1.5830000000000002 -0.1481 225
12.6172 1.5800999999999998 2.2344 158
12.648399999999999 1.5419999999999998 0.1481 195
12.648399999999999 1.5419999999999998 0.44310000000000005 197
12.648399999999999 1.5419999999999998 0.7387999999999999 124
12.648399999999999 1.5419999999999998 -1.335 95
12.6328 1.54 1.0361 87
12.6406 1.541 -1.0371 5
12.5625 1.5312000000000001 1.3262 254
12.6406 1.54 -0.7378 166
12.5469 1.5293 1.6200999999999999 75
12.6406 1.541 -0.4429 241
12.6328 1.54 1.9336000000000002 250
12.6406 1.541 -0.1481 173
8.1797 0.9976 1.4463 161
12.656199999999998 1.4950999999999999 0.1481 128
12.6328 1.4931999999999999 0.4426 85
12.656199999999998 1.4950999999999999 0.7387999999999999 200
12.664100000000001 1.4971 -1.3359 69
12.6328 1.4931999999999999 1.0361 123
12.625 1.4922 -1.0352 94
12.5625 1.4844 1.3252000000000002 128
12.6406 1.4931999999999999 -0.7378 251
12.5547 1.4834 1.6211000000000002 241
12.6406 1.4941 -0.4426 65
12.6094 1.4902000000000002 1.9297 133
12.6328 1.4931999999999999 -0.1478 248
12.601600000000001 1.4893 2.2305 193
12.6406 1.4491999999999998 0.1479 32
12.6406 1.4491999999999998 0.4424 51
12.6406 1.4491999999999998 0.7378 244
12.664100000000001 1.4521000000000002 -1.335 234
12.664100000000001 1.4512 1.0371 41
12.6328 1.4482 -1.0352 214
12.5547 1.4394999999999998 1.3241999999999998 29
12.6328 1.4482 -0.7373000000000001 229
12.5547 1.4394999999999998 1.6200999999999999 105
12.648399999999999 1.4502000000000002 -0.4429 217
12.625 1.4472999999999998 1.9306999999999999 84
12.6328 1.4482 -0.1478 20
12.6328 1.4482 2.2344 130
12.648399999999999 1.4053 0.1478 139
12.648399999999999 1.4053 0.4426 85
12.6406 1.4043 0.7373000000000001 231
12.656199999999998 1.4062000000000001 -1.334 163
12.648399999999999 1.4053 1.0361 141
12.6406 1.4043 -1.0352 118
12.5469 1.3944999999999999 1.3222999999999998 181
12.625 1.4033000000000002 -0.7368000000000001 88
12.539100000000001 1.3936000000000002 1.6172 124
12.656199999999998 1.4062000000000001 -0.4429 94
12.625 1.4022999999999999 1.9306999999999999 236
12.6328 1.4033000000000002 -0.1477 76
8.3359 0.9268000000000001 1.4716999999999998 40
12.648399999999999 1.3603999999999998 0.1478 249
12.648399999999999 1.3603999999999998 0.4424 46
12.6328 1.3584 0.7363 151
12.648399999999999 1.3613 -1.3330000000000002 139
12.6406 1.3603999999999998 1.0352 219
12.6328 1.3594 -1.0342 26
12.5625 1.3516 1.3232 197
12.6328 1.3584 -0.7363 50
12.539100000000001 1.3486000000000002 1.6162 177
12.6328 1.3584 -0.44189999999999996 117
12.6328 1.3594 1.9316 53
12.6328 1.3594 -0.1477 38
8.3516 0.8984000000000001 1.4736000000000002 248
12.648399999999999 1.3154 0.1478 125
12.6406 1.3154 0.4421 72
12.6406 1.3154 0.7368000000000001 142
12.6406 1.3154 -1.3311000000000002 232
12.625 1.3135 1.0332 47
12.6328 1.3144999999999998 -1.0342 25
12.5703 1.3075999999999999 1.3232 70
12.6328 1.3144999999999998 -0.7363 37
12.539100000000001 1.3047 1.6162 240
12.6172 1.3135 -0.4412 149
12.6328 1.3144999999999998 1.9306999999999999 223
12.6406 1.3154 -0.1477 201
8.3438 0.8687 1.4727000000000001 181
12.6406 1.2705 0.1477 171
12.625 1.2695 0.4414 221
12.648399999999999 1.2715 0.7368000000000001 179
12.656199999999998 1.2725 -1.3330000000000002 8
12.6328 1.2695 1.0332 207
12.6328 1.2695 -1.0332 60
12.5469 1.2617 1.3213 173
12.6406 1.2705 -0.7363 186
12.5547 1.2617 1.6172 43
12.6328 1.2695 -0.44170000000000004 116
12.6172 1.2686 1.9268 177
12.6328 1.2695 -0.1476 31
8.1953 0.8231999999999999 1.4443000000000001 178
12.656199999999998 1.2275 0.1478 10
12.6406 1.2256 0.44170000000000004 80
12.6328 1.2256 0.7358 137
12.664100000000001 1.2275 -1.3319999999999999 119
12.6406 1.2256 1.0342 105
12.6406 1.2256 -1.0342 38
12.5469 1.2168 1.3203 53
12.625 1.2246 -0.7354 179
12.5625 1.2187999999999999 1.6181999999999999 227
12.6328 1.2246 -0.4412 44
12.625 1.2246 -0.1475 74
8.1484 0.79 1.4355000000000002 83
12.6328 1.1806999999999999 0.1475 173
12.6406 1.1816 0.44170000000000004 232
12.6406 1.1816 0.7358 72
12.648399999999999 1.1826 -1.3311000000000002 94
12.648399999999999 1.1816 1.0342 74
12.6406 1.1816 -1.0332 18
12.5469 1.1729 1.3203 137
12.625 1.1797 -0.7349 81
12.5547 1.1738 1.6162 160
12.6328 1.1806999999999999 -0.4412 219
9.0703 0.8477 1.3818000000000001 240
12.625 1.1797 -0.14730000000000001 57
7.8672 0.7354 1.3857 110
12.625 1.1357 0.14730000000000001 20
12.6328 1.1367 0.4412 129
12.6328 1.1357 0.7354 102
12.6406 1.1367 -1.3291 28
12.6406 1.1367 1.0332 69
12.648399999999999 1.1377 -1.0332 118
12.5547 1.1299 1.3203 216
12.625 1.1357 -0.7349 199
12.539100000000001 1.1279000000000001 1.6143 47
12.6328 1.1357 -0.4409 228
8.1641 0.7343999999999999 1.2431999999999999 106
12.625 1.1357 -0.14730000000000001 67
7.8398 0.7051000000000001 1.3809 117
12.6328 1.0918 0.1475 217
12.6406 1.0928 0.4412 14
12.648399999999999 1.0937999999999999 0.7363 63
12.6328 1.0918 -1.3281 117
12.625 1.0908 1.0312000000000001 199
12.6406 1.0928 -1.0332 11
12.5625 1.0859 1.3203 84
12.6406 1.0928 -0.7354 52
12.5547 1.085 1.6152000000000002 223
12.625 1.0908 -0.4407 87
8.0312 0.6943 1.2236 153
12.6328 1.0918 -0.14730000000000001 244
7.9023 0.6831 1.3916 146
12.6406 1.0479 0.1475 211
12.625 1.0469 0.4404 3
12.6406 1.0479 0.7354 179
12.648399999999999 1.0488 -1.3291 5
12.625 1.0469 1.0312000000000001 154
12.6328 1.0479 -1.0322 159
12.5547 1.041 1.3193000000000001 217
12.6406 1.0479 -0.7354 139
12.5625 1.042 1.6162 25
12.625 1.0469 -0.4407 36
8.0391 0.6665000000000001 1.2236 117
12.6172 1.0459 -0.1471 251
7.925800000000001 0.6572 1.3944999999999999 167
12.6328 1.0029000000000001 0.14730000000000001 184
12.6328 1.0029000000000001 0.4407 94
12.625 1.0029000000000001 0.7343999999999999 250
12.648399999999999 1.0039 -1.3291 137
12.6328 1.0029000000000001 1.0322 12
12.6328 1.0029000000000001 -1.0312000000000001 223
12.5547 0.9965999999999999 1.3193000000000001 241
12.625 1.0029000000000001 -0.7343999999999999 50
9.0312 0.7173 1.1602 1
12.6406 1.0039 -0.4412 134
8.0625 0.6406000000000001 1.2275 131
12.601600000000001 1.001 -0.147 207
7.9922 0.6347999999999999 1.4062000000000001 148
12.6328 0.9614 0.14730000000000001 209
12.6328 0.9609000000000001 0.4404 184
12.6172 0.96 0.7334 30
12.6328 0.9609000000000001 -1.3271000000000002 39
12.6406 0.9614 1.0322 53
12.6328 0.9609000000000001 -1.0312000000000001 216
9.0469 0.688 0.9487000000000001 92
12.625 0.96 -0.7339 155
9.0078 0.6851 1.1562000000000001 122
12.648399999999999 0.9623999999999999 -0.4412 134
12.718800000000002 0.9678 1.9394999999999998 83
12.6172 0.96 -0.1471 118
8.1328 0.6187 1.4306999999999999 85
12.625 0.9185 0.1472 39
12.6406 0.9194 0.4409 189
12.6328 0.9185 0.7339 29
12.625 0.9185 -1.3262 175
12.625 0.9179999999999999 1.0303 156
12.6406 0.9194 -1.0322 86
9.0234 0.6562 0.9462999999999999 178
12.6172 0.9175 -0.7334 241
8.9844 0.6537999999999999 1.1533 177
12.6328 0.9185 -0.4404 19
12.718800000000002 0.9253 1.9385 43
12.6172 0.9179999999999999 -0.1471 211
8.0391 0.5845 1.4141 189
12.6406 0.8706 0.14730000000000001 33
12.625 0.8691 0.4399 200
12.6328 0.8701000000000001 0.7339 36
12.6328 0.8701000000000001 -1.3262 64
12.625 0.8695999999999999 1.0303 170
12.6328 0.8701000000000001 -1.0312000000000001 252
9.0078 0.6206 0.9443 243
12.6172 0.8691 -0.7334 32
9.0078 0.6201 1.1553 184
12.6172 0.8691 -0.4399 40
9.1406 0.6299 1.3906 193
12.625 0.8695999999999999 -0.1471 245
7.9102 0.5449 1.3906 43
12.6406 0.8262 0.1472 92
12.6172 0.8247 0.4397 229
12.6406 0.8262 0.7343999999999999 80
12.6406 0.8262 -1.3271000000000002 182
8.9609 0.5859000000000001 0.73 225
12.625 0.8251999999999999 -1.0303 175
9.0078 0.5889 0.9443 87
12.6406 0.8262 -0.7343999999999999 97
12.6875 0.8295999999999999 1.6309 86
12.625 0.8251999999999999 -0.4399 214
12.718800000000002 0.8315 1.9375 190
12.6172 0.8247 -0.147 161
7.8984000000000005 0.5161 1.3887 214
12.648399999999999 0.7847 0.14730000000000001 115
12.625 0.7831999999999999 0.4399 227
12.625 0.7831999999999999 0.7329000000000001 44
12.6406 0.7842 -1.3262 136
8.9453 0.5552 0.7284999999999999 230
12.6328 0.7837000000000001 -1.0303 133
9.0234 0.5596 0.9458 62
12.6172 0.7827 -0.7329000000000001 113
12.6953 0.7876000000000001 1.6309 53
12.6328 0.7837000000000001 -0.44020000000000004 251
12.710899999999999 0.7886 1.9355000000000002 26
12.601600000000001 0.7822 -0.1467 167
7.8515999999999995 0.48729999999999996 1.3799000000000001 19
12.625 0.7412000000000001 0.147 247
12.625 0.7412000000000001 0.4399 241
12.6094 0.7406999999999999 0.7323999999999999 116
12.625 0.7412000000000001 -1.3241999999999998 51
8.9219 0.5239 0.7265999999999999 124
12.6328 0.7417 -1.0303 148
12.5469 0.7363 1.3163999999999998 255
12.6172 0.7406999999999999 -0.7329000000000001 16
12.6875 0.7451000000000001 1.6299000000000001 104
12.6406 0.7422 -0.44020000000000004 242
12.7422 0.748 1.9394999999999998 49
12.601600000000001 0.7397 -0.1467 150
7.875 0.46240000000000003 1.3838 76
12.6328 0.6953 0.1471 191
12.625 0.6948000000000001 0.4397 181
12.625 0.6948000000000001 0.7329000000000001 61
12.6172 0.6943 -1.3232 144
8.8984 0.48969999999999997 0.7245999999999999 106
12.6406 0.6953 -1.0303 125
12.5625 0.6914 1.3174000000000001 223
12.625 0.6948000000000001 -0.7329000000000001 141
12.6797 0.6978 1.6279 6
12.6328 0.6953 -0.4399 53
12.718800000000002 0.6997 1.9355000000000002 230
12.6094 0.6938 -0.1467 133
8.5469 0.4702 1.5019999999999998 141
12.625 0.6509 0.147 80
12.625 0.6504000000000001 0.4395 101
12.625 0.6504000000000001 0.7329000000000001 28
12.625 0.6504000000000001 -1.3241999999999998 175
8.8984 0.4585 0.7241 151
12.6328 0.6509 -1.0293 168
12.5625 0.6475 1.3174000000000001 172
12.6328 0.6509 -0.7334 185
12.6875 0.6537999999999999 1.6288999999999998 179
12.6172 0.6504000000000001 -0.4395 207
12.710899999999999 0.6548 1.9346 142
12.6094 0.6498999999999999 -0.1467 128
8.6016 0.44310000000000005 1.5107 176
12.6172 0.6064 0.1469 42
12.601600000000001 0.6054999999999999 0.4387 41
12.6328 0.6069 0.7329000000000001 5
12.625 0.6064 -1.3241999999999998 222
12.625 0.6064 1.0283 139
12.6172 0.606 -1.0283 178
12.5547 0.603 1.3163999999999998 80
12.6328 0.6064 -0.7329000000000001 140
12.6953 0.6099 1.6288999999999998 132
12.6328 0.6069 -0.4399 135
8.8125 0.4233 1.3388999999999998 171
12.6094 0.6054999999999999 -0.1467 215
8.6172 0.4138 1.5137 201
12.6328 0.5625 0.147 62
12.6172 0.5615 0.43920000000000003 217
12.6328 0.5625 0.7329000000000001 193
12.6328 0.5625 -1.3241999999999998 99
12.625 0.562 1.0283 72
12.625 0.5625 -1.0283 131
12.539100000000001 0.5586 1.3144999999999998 7
12.6172 0.562 -0.7319 19
12.6953 0.5654 1.6288999999999998 190
12.625 0.562 -0.4395 92
8.7969 0.3918 1.3359 208
12.593800000000002 0.561 -0.1466 229
8.6562 0.38549999999999995 1.5194999999999999 230
12.6172 0.5181 0.1467 239
12.6172 0.5176 0.43920000000000003 67
8.9062 0.3655 0.5161 126
12.625 0.5181 -1.3232 19
12.625 0.5181 1.0283 110
12.6328 0.5186 -1.0293 194
12.5469 0.5151 1.3154 188
12.6094 0.5176 -0.7314 11
12.6953 0.521 1.6288999999999998 169
12.6328 0.5186 -0.4397 24
8.8125 0.3616 1.3388999999999998 218
12.6094 0.5176 -0.1466 142
8.6641 0.3557 1.5225 214
12.601600000000001 0.4731 0.1466 89
12.625 0.4739 0.43920000000000003 214
8.9062 0.3342 0.5156000000000001 94
12.6172 0.4736 -1.3222999999999998 189
12.6094 0.4736 1.0273 100
12.625 0.4739 -1.0283 183
12.5469 0.47119999999999995 1.3154 217
12.6094 0.47340000000000004 -0.7314 95
12.6797 0.47609999999999997 1.6269999999999998 29
12.625 0.4739 -0.43920000000000003 202
8.8359 0.3318 1.3418 160
12.6094 0.47340000000000004 -0.1466 184
8.8281 0.33149999999999996 1.5508000000000002 75
12.625 0.42969999999999997 0.1467 100
12.6094 0.4294 0.439 170
8.8984 0.303 0.5151 61
12.6172 0.42969999999999997 -1.3222999999999998 109
12.6172 0.4294 1.0273 37
12.625 0.42969999999999997 -1.0283 35
12.5547 0.4275 1.3163999999999998 212
12.625 0.4299 -0.7323999999999999 146
12.6797 0.4316 1.626 16
12.6172 0.42969999999999997 -0.439 158
8.8516 0.3015 1.3447 253
12.6094 0.4294 -0.1467 44
8.8438 0.301 1.5527000000000002 232
12.625 0.3857 0.1467 82
12.601600000000001 0.385 0.4385 102
8.8984 0.2717 0.5151 153
12.625 0.3857 -1.3222999999999998 218
12.6172 0.38549999999999995 1.0273 20
12.6094 0.38530000000000003 -1.0273 29
12.5469 0.3833 1.3144999999999998 46
12.6172 0.38549999999999995 -0.7319 43
8.9688 0.27390000000000003 1.1484 15
12.625 0.3857 -0.43920000000000003 128
8.8828 0.27149999999999996 1.3486000000000002 137
12.6094 0.38530000000000003 -0.1466 216
8.8516 0.2703 1.5537 118
12.625 0.34159999999999996 0.1469 129
12.6094 0.3411 0.4387 103
8.8828 0.2402 0.5142 174
12.625 0.34159999999999996 -1.3222999999999998 169
12.625 0.34159999999999996 1.0273 211
12.6172 0.34130000000000005 -1.0273 171
12.5469 0.3394 1.3144999999999998 81
12.6172 0.34130000000000005 -0.7314 44
8.9531 0.24230000000000002 1.1465 161
12.6328 0.3418 -0.4395 85
8.9844 0.243 1.3633000000000002 255
12.601600000000001 0.3408 -0.1465 35
8.8203 0.23850000000000002 1.5478999999999998 225
12.6094 0.29710000000000003 0.1466 127
12.6172 0.2974 0.439 160
8.8828 0.2094 0.5142 93
12.6172 0.2974 -1.3222999999999998 140
12.625 0.29760000000000003 1.0283 67
12.6172 0.2974 -1.0273 124
12.539100000000001 0.2954 1.3135 84
12.601600000000001 0.29710000000000003 -0.731 198
8.9297 0.2104 1.1436 16
12.625 0.29760000000000003 -0.43920000000000003 223
9.25 0.21789999999999998 1.4043 77
12.593800000000002 0.2969 -0.1465 123
9.6562 0.22769999999999999 1.6963 136
12.6172 0.2576 0.1466 40
12.6172 0.25780000000000003 0.439 36
8.8984 0.1818 0.5151 157
12.6094 0.2576 -1.3213 201
12.6172 0.25780000000000003 1.0273 246
12.625 0.25780000000000003 -1.0283 130
12.5469 0.2561 1.3144999999999998 221
12.601600000000001 0.25730000000000003 -0.7304999999999999 127
8.9141 0.182 1.1416 25
12.625 0.25780000000000003 -0.43920000000000003 26
9.4688 0.1934 1.4375 63
12.601600000000001 0.25730000000000003 -0.1465 112
9.25 0.18899999999999997 1.624 168
12.6172 0.2158 0.1467 41
12.601600000000001 0.21559999999999999 0.4382 129
8.9062 0.1523 0.5156000000000001 216
12.6094 0.2157 -1.3213 166
12.6094 0.2157 1.0264 11
12.6094 0.2157 -1.0264 169
8.9844 0.1537 0.9399 216
12.601600000000001 0.21559999999999999 -0.7304999999999999 149
8.9141 0.1525 1.1416 140
12.6094 0.2157 -0.4387 125
9.4844 0.16219999999999998 1.4394999999999998 103
12.601600000000001 0.21559999999999999 -0.1465 94
9.1875 0.15710000000000002 1.6122999999999998 22
12.625 0.1697 0.1467 167
12.601600000000001 0.1693 0.4382 204
8.9062 0.1198 0.5156000000000001 49
12.6172 0.1696 -1.3213 54
12.6094 0.1696 1.0264 234
12.593800000000002 0.1693 -1.0254 233
8.9375 0.1201 0.9346 248
12.6094 0.1696 -0.731 188
8.9453 0.1202 1.1455 173
12.6094 0.16940000000000002 -0.4387 123
9.4375 0.1268 1.4325999999999999 112
12.601600000000001 0.1693 -0.1465 236
9.2969 0.1249 1.6318000000000001 70
12.6328 0.12560000000000002 0.1469 159
8.9375 0.0889 0.3103 252
8.9141 0.08869999999999999 0.5161 207
12.6172 0.1255 -1.3213 249
8.9531 0.0891 0.7275 188
12.601600000000001 0.12539999999999998 -1.0264 44
8.9141 0.08869999999999999 0.9326000000000001 176
12.601600000000001 0.12539999999999998 -0.7304999999999999 0
8.9453 0.08900000000000001 1.1455 12
12.625 0.12560000000000002 -0.439 218
9.4609 0.0941 1.4365 42
12.585899999999999 0.1252 -0.1464 67
9.2031 0.0916 1.6152000000000002 48
8.9531 0.057800000000000004 0.1038 143
8.8906 0.0574 -1.3496000000000001 53
8.8984 0.0575 0.30879999999999996 222
8.8906 0.0574 0.5142 48
12.6406 0.0816 -1.3241999999999998 123
8.9297 0.0576 0.7256 30
12.6094 0.0814 -1.0264 109
8.9141 0.0576 0.9326000000000001 188
8.9375 0.057699999999999994 -0.5176 96
8.9375 0.057699999999999994 1.1436 154
8.9609 0.0579 -0.311 194
9.0234 0.0583 1.3691 228
8.9141 0.0576 -0.10339999999999999 215
8.8672 0.057300000000000004 1.5566 243
8.9219 0.0265 0.1035 98
8.8438 0.0262 -1.3418 247
8.8828 0.0264 0.30829999999999996 63
8.875 0.0263 -1.1367 253
8.8984 0.0264 0.5151 112
8.8672 0.0263 -0.9277 108
8.9297 0.0265 0.7256 210
8.9297 0.0265 -0.7256 90
8.9141 0.0264 0.9326000000000001 242
8.8984 0.0264 -0.5151 196
8.9141 0.0264 1.1406 78
8.9062 0.0264 -0.3093 126
9.0 0.026699999999999998 1.3652000000000002 154
8.9062 0.0264 -0.1033 156
8.7578 0.026000000000000002 1.5371000000000001 68
8.9062 -0.004699999999999999 0.1033 48
8.7969 -0.0046 -1.335 116
8.875 -0.004699999999999999 0.30829999999999996 195
8.8516 -0.0046 -1.1328 196
8.9219 -0.004699999999999999 0.5166 38
8.8516 -0.0046 -0.9258 116
8.9062 -0.004699999999999999 0.7236 81
8.8828 -0.004699999999999999 -0.7217 215
8.9375 -0.004699999999999999 0.9351 172
8.8828 -0.004699999999999999 -0.5142 80
8.9062 -0.004699999999999999 1.1406 140
8.8906 -0.004699999999999999 -0.3086 65
8.9531 -0.004699999999999999 1.3584 165
8.8906 -0.004699999999999999 -0.10310000000000001 166
8.7656 -0.0046 1.5381 223
8.9062 -0.0358 0.1033 76
8.7891 -0.0353 -1.334 217
8.8828 -0.0356 0.30829999999999996 200
8.8203 -0.0354 -1.1289 217
8.9219 -0.0358 0.5166 61
8.8516 -0.0355 -0.9258 127
8.9219 -0.0358 0.7251000000000001 248
8.8594 -0.0356 -0.7202 237
8.9453 -0.0359 0.9355 250
8.8828 -0.035699999999999996 -0.5142 105
8.9219 -0.0358 1.1426 170
8.875 -0.0356 -0.30829999999999996 67
8.9297 -0.0359 1.3555000000000001 199
8.8906 -0.035699999999999996 -0.10300000000000001 218
8.9297 -0.0359 1.5674000000000001 56
8.9219 -0.06849999999999999 0.1035 4
8.7891 -0.0675 -1.334 81
8.8984 -0.0684 0.3091 216
8.7969 -0.0676 -1.126 213
8.9375 -0.06860000000000001 0.5171 81
8.8438 -0.0679 -0.9248000000000001 128
8.9531 -0.0688 0.7275 83
8.8672 -0.0681 -0.7206999999999999 223
12.523399999999999 -0.0962 1.3125 54
8.875 -0.0681 -0.5136999999999999 194
8.9297 -0.06860000000000001 1.1436 126
8.8906 -0.0683 -0.30879999999999996 191
8.9297 -0.06860000000000001 1.3555000000000001 76
8.8828 -0.0682 -0.10300000000000001 55
8.9844 -0.069 1.5771000000000002 29
8.9219 -0.09970000000000001 0.1035 215
8.7812 -0.0981 -1.3330000000000002 193
8.9297 -0.09970000000000001 0.3098 145
8.7969 -0.0983 -1.126 214
8.9688 -0.1002 0.519 93
8.8359 -0.0987 -0.9238 138
12.6094 -0.1409 1.0264 157
8.8672 -0.09910000000000001 -0.7206999999999999 241
12.531199999999998 -0.14 1.3125 123
8.875 -0.09910000000000001 -0.5136999999999999 169
8.9531 -0.1 1.1455 128
8.9062 -0.09949999999999999 -0.3091 96
8.9609 -0.1001 1.3603999999999998 79
8.8906 -0.0993 -0.10310000000000001 51
8.9219 -0.09970000000000001 1.5663999999999998 33
8.9297 -0.131 0.1036 145
8.7891 -0.1288 -1.3330000000000002 190
12.789100000000001 -0.1875 0.4448 228
8.8047 -0.1292 -1.1279000000000001 164
12.593800000000002 -0.18469999999999998 0.7304999999999999 31
8.8359 -0.1295 -0.9238 254
12.601600000000001 -0.1848 1.0264 179
8.8672 -0.13 -0.7202 59
12.539100000000001 -0.1838 1.3135 143
8.8672 -0.13 -0.5132 254
12.664100000000001 -0.1857 1.6230000000000002 30
8.8984 -0.1305 -0.3091 179
9.1328 -0.13390000000000002 1.3866999999999998 255
8.9062 -0.1306 -0.1033 175
8.9688 -0.1315 1.5741999999999998 251
8.9766 -0.163 0.1041 134
8.7891 -0.1595 -1.334 174
12.710899999999999 -0.23070000000000002 0.4421 135
8.8125 -0.16 -1.1289 255
12.6094 -0.2289 0.731 160
8.8438 -0.1605 -0.9253 249
12.601600000000001 -0.2288 1.0254 208
8.8672 -0.1609 -0.7206999999999999 152
12.539100000000001 -0.2275 1.3135 75
8.9062 -0.1616 -0.5156000000000001 52
12.6797 -0.2302 1.626 94
8.9453 -0.1624 -0.3105 0
12.6953 -0.2306 1.9306999999999999 119
12.914100000000001 -0.23440000000000003 -0.1501 207
8.9922 -0.1632 1.5781 179
12.914100000000001 -0.2749 0.1501 88
8.8281 -0.188 -1.3397999999999999 78
12.8203 -0.2732 0.446 42
8.8281 -0.1881 -1.1309 132
12.6094 -0.2686 0.731 121
12.601600000000001 -0.2683 -1.3203 36
12.601600000000001 -0.2686 1.0264 132
8.8906 -0.1893 -0.7227 158
12.531199999999998 -0.2668 1.3125 221
12.6875 -0.27 1.6269999999999998 91
12.6797 -0.27 -0.4412 95
12.6953 -0.2703 1.9297 252
12.8203 -0.2732 -0.149 148
8.9922 -0.19149999999999998 1.5791 223
12.718800000000002 -0.313 0.1478 17
12.664100000000001 -0.3118 0.4407 89
12.6094 -0.3103 0.731 148
12.6172 -0.3105 -1.3222999999999998 90
12.6094 -0.3103 1.0264 212
12.789100000000001 -0.3147 -1.041 172
12.531199999999998 -0.30829999999999996 1.3125 218
12.8047 -0.3152 -0.7426999999999999 4
12.6875 -0.3123 1.6269999999999998 246
12.8594 -0.3164 -0.4473 18
12.7031 -0.3127 1.9316 192
12.906199999999998 -0.3176 -0.15 35
9.0625 -0.223 1.5908000000000002 27
12.8906 -0.3689 0.1499 119
12.835899999999999 -0.3674 0.4465 43
12.593800000000002 -0.36060000000000003 0.7304999999999999 109
12.601600000000001 -0.3608 -1.3203 207
12.6172 -0.3613 1.0273 222
12.6953 -0.36329999999999996 -1.0332 22
12.531199999999998 -0.3586 1.3125 107
12.7031 -0.3635 -0.7363 104
12.6797 -0.363 1.6269999999999998 187
12.7344 -0.36450000000000005 -0.44310000000000005 193
12.6953 -0.36329999999999996 1.9297 81
12.8828 -0.3689 -0.14980000000000002 52
8.9219 -0.2554 1.5654 42
12.781199999999998 -0.4128 0.1487 242
12.851600000000001 -0.415 0.4473 128
12.601600000000001 -0.4072 0.731 115
12.593800000000002 -0.4067 -1.3193000000000001 234
12.601600000000001 -0.40700000000000003 1.0264 153
12.789100000000001 -0.4131 -1.042 130
12.531199999999998 -0.4048 1.3135 117
12.773399999999999 -0.41259999999999997 -0.7412000000000001 218
12.664100000000001 -0.4089 1.624 103
12.8203 -0.4143 -0.44630000000000003 149
12.7031 -0.4104 1.9316 39
12.8281 -0.4143 -0.1492 158
8.9062 -0.2876 1.5635 46
12.75 -0.45409999999999995 0.1483 122
12.656199999999998 -0.4509 0.4404 146
12.601600000000001 -0.4487 0.731 134
12.593800000000002 -0.4485 -1.3193000000000001 246
12.593800000000002 -0.4485 1.0254 48
12.7578 -0.4546 -1.0391 240
12.523399999999999 -0.446 1.3125 77
12.789100000000001 -0.4556 -0.7417 138
12.664100000000001 -0.4512 1.625 200
12.835899999999999 -0.4573 -0.4468 236
12.6875 -0.45189999999999997 1.9297 237
12.875 -0.4587 -0.14980000000000002 10
8.9766 -0.31980000000000003 1.5762 193
12.906199999999998 -0.5049 0.1501 73
12.8125 -0.501 0.446 29
12.601600000000001 -0.4929 0.731 127
12.601600000000001 -0.4929 -1.3213 113
12.593800000000002 -0.4927 1.0264 81
12.7969 -0.5005 -1.042 98
12.5156 -0.48969999999999997 1.3125 92
12.726600000000001 -0.4976 -0.7383 225
12.6719 -0.49560000000000004 1.626 38
12.6719 -0.49560000000000004 -0.4409 20
12.6719 -0.49579999999999996 1.9277000000000002 219
12.648399999999999 -0.4949 -0.1471 9
9.0078 -0.35229999999999995 1.5811000000000002 243
12.6953 -0.5386 0.1477 53
12.6797 -0.5381 0.4412 49
12.593800000000002 -0.5347 0.731 21
12.593800000000002 -0.5347 -1.3203 238
12.6094 -0.5352 1.0273 70
12.8047 -0.5435 -1.043 77
12.5078 -0.5307999999999999 1.3115 211
12.8281 -0.5444 -0.7445999999999999 46
12.6719 -0.5376 1.626 132
12.8047 -0.5435 -0.4458 133
12.6875 -0.5386 1.9297 91
12.8047 -0.5435 -0.149 211
12.906199999999998 -0.5478999999999999 2.2715 135
12.9375 -0.5922999999999999 0.1506 180
12.7969 -0.5854 0.4456 62
12.585899999999999 -0.5761999999999999 0.7304999999999999 253
12.585899999999999 -0.5761999999999999 -1.3203 116
12.601600000000001 -0.5767 1.0273 252
12.6875 -0.5806 -1.0342 251
12.5156 -0.5728 1.3125 122
12.6406 -0.5786 -0.7339 169
12.656199999999998 -0.5791 1.624 90
12.773399999999999 -0.5845 -0.4448 114
12.7031 -0.5811 1.9316 90
12.8047 -0.5859000000000001 -0.149 117
9.6875 -0.44310000000000005 1.7021000000000002 124
12.843800000000002 -0.6328 0.1495 18
12.8047 -0.6309 0.446 146
12.585899999999999 -0.6201 0.7304999999999999 114
12.585899999999999 -0.6201 -1.3193000000000001 8
12.601600000000001 -0.6206 1.0273 39
12.8125 -0.6313 -1.0439 103
12.531199999999998 -0.6172 1.3144999999999998 142
12.8047 -0.6309 -0.7432 175
12.648399999999999 -0.623 1.624 16
12.710899999999999 -0.626 -0.4426 118
12.6953 -0.6255 1.9316 145
12.664100000000001 -0.624 -0.14730000000000001 160
9.7109 -0.47850000000000004 1.7069999999999999 210
12.664100000000001 -0.6659999999999999 0.1475 159
12.6406 -0.6646 0.44020000000000004 17
12.593800000000002 -0.6626000000000001 0.7314 239
12.593800000000002 -0.6620999999999999 -1.3213 69
12.593800000000002 -0.6620999999999999 1.0264 231
12.789100000000001 -0.6729 -1.043 55
12.531199999999998 -0.6587000000000001 1.3144999999999998 207
12.8203 -0.6743000000000001 -0.7441 234
12.664100000000001 -0.6659999999999999 1.626 160
12.7969 -0.6729 -0.4458 35
12.6719 -0.6665000000000001 1.9287 38
12.7969 -0.6729 -0.1489 177
9.7266 -0.5112 1.71 210
12.8906 -0.7231000000000001 0.1501 91
12.789100000000001 -0.7173 0.44530000000000003 163
12.593800000000002 -0.7065 0.7314 97
12.593800000000002 -0.7065 -1.3213 14
12.585899999999999 -0.7061 1.0264 88
12.726600000000001 -0.7139 -1.0371 171
12.5156 -0.7021 1.3135 143
12.718800000000002 -0.7134 -0.7383 144
12.664100000000001 -0.71 1.626 8
12.664100000000001 -0.71 -0.4412 250
12.6719 -0.7109000000000001 1.9287 210
12.710899999999999 -0.7129000000000001 -0.1479 107
13.085899999999999 -0.7339 2.3027 144
12.718800000000002 -0.7559 0.1481 19
12.773399999999999 -0.7587999999999999 0.4451 210
