# .PCD v0.7 - Point Cloud Data file format
VERSION 0.7
FIELDS x y z intensity
SIZE 4 4 4 4
TYPE F F F F
COUNT 1 1 1 1
WIDTH 1362
HEIGHT 1
VIEWPOINT 0 0 0 1 0 0 0
POINTS 1362
DATA ascii
-2.9276999999999997 2.0312 -0.6211 6
-2.9433999999999996 2.043 -0.5396 241
-2.9473000000000003 2.0469 -0.4561 151
-3.3613 2.332 0.2354 96
-2.9863 2.0723 -0.3774 220
-39.8125 27.6406 3.957 31
-39.5312 27.4219 5.0508 101
-39.625 27.5 6.199199999999999 24
-46.625 32.3438 10.0 158
-2.9395 2.0566 -0.625 242
-2.9355 2.0527 -0.5396 0
-2.9608999999999996 2.0703 -0.4592 45
-3.3495999999999997 2.3418 0.2351 243
-2.9901999999999997 2.0918 -0.3789 130
-39.2188 27.4219 3.9043 32
-39.625 27.7031 5.0781 171
-41.2812 28.875 6.4765999999999995 73
-46.5625 32.5625 10.0156 225
-2.9433999999999996 2.0742 -0.6274000000000001 23
-2.9473000000000003 2.0781 -0.5435 24
-2.9531 2.0801 -0.4592 14
-3.3438 2.3574 0.2354 225
-3.0039 2.1152 -0.38159999999999994 245
-39.0938 27.5312 3.9023000000000003 192
-39.4375 27.7969 5.0664 156
-42.2812 29.7969 6.6484000000000005 36
-46.5625 32.8125 10.0391 87
-2.9276999999999997 2.0781 -0.6255 98
-2.9531 2.0977 -0.5459 171
-2.9414 2.0879 -0.4587 85
-3.3516000000000004 2.3789 0.2365 58
-2.9961 2.127 -0.38159999999999994 167
-39.4062 27.9688 3.9433999999999996 20
-39.125 27.7812 5.0391 254
-42.2812 30.0156 6.6640999999999995 17
-46.5312 33.0312 10.0547 125
-2.918 2.0859 -0.625 169
-2.9589999999999996 2.1152 -0.5483 22
-2.9473000000000003 2.1074 -0.4607 245
-3.3495999999999997 2.3965 0.2369 189
-2.998 2.1445 -0.38280000000000003 71
-38.875 27.7969 3.9004000000000003 28
-39.8125 28.4688 5.140599999999999 98
-42.25 30.2188 6.6797 128
-46.5312 33.2812 10.0781 179
-2.9238 2.1055 -0.6279 203
-2.9512 2.127 -0.5483 103
-2.9531 2.127 -0.46259999999999996 214
-3.3516000000000004 2.4141 0.2377 113
-2.9785000000000004 2.1465 -0.38130000000000003 174
-38.75 27.9062 3.8964999999999996 193
-42.7812 30.8281 5.5390999999999995 70
-42.25 30.4375 6.6914 98
-46.5312 33.5312 10.1016 140
-2.9414 2.1348 -0.6333 247
-2.9473000000000003 2.1387 -0.5488000000000001 38
-2.9492000000000003 2.1406 -0.4631 153
-3.3398000000000003 2.4238 0.23739999999999997 106
-2.9863 2.168 -0.3833 191
-39.1875 28.4375 3.9512 236
-42.7188 31.0 5.542999999999999 149
-42.25 30.6562 6.7109000000000005 45
-44.5312 32.3125 8.3828 178
-46.5 33.75 10.125 177
-2.9375 2.1465 -0.6343 9
-2.9433999999999996 2.1504 -0.5493 26
-2.9512 2.1562 -0.4648 227
-3.3555 2.4512 0.239 174
-2.9922000000000004 2.1855 -0.3848 90
-39.0625 28.5469 3.9473000000000003 254
-42.9375 31.375 5.5859000000000005 204
-42.25 30.8906 6.7265999999999995 193
-46.5 33.9688 10.1484 4
-2.9297000000000004 2.1562 -0.6343 88
-2.9433999999999996 2.166 -0.5508 55
-2.9414 2.1641 -0.4644 71
-3.3691000000000004 2.4785 0.2407 10
-2.998 2.2051 -0.3865 185
-38.9062 28.6406 3.9433999999999996 135
-42.9375 31.5938 5.5977 26
-42.25 31.1094 6.7461 157
-46.5 34.2188 10.1719 228
-2.9238 2.168 -0.6343 87
-2.9473000000000003 2.1855 -0.5532 82
-2.9551 2.1914 -0.4678 25
-3.3476999999999997 2.4824 0.2397 206
-2.9882999999999997 2.2168 -0.3865 48
-38.7812 28.7656 3.9395 145
-42.875 31.7969 5.605499999999999 210
-42.2812 31.3594 6.765599999999999 154
-46.5 34.5 10.2031 86
-2.9276999999999997 2.1875 -0.6372 24
-2.9452999999999996 2.2012 -0.5542 53
-2.9452999999999996 2.1992 -0.4673 242
-3.3476999999999997 2.5 0.24050000000000002 253
-2.9785000000000004 2.2246 -0.3862 28
-42.75 31.9375 4.3555 23
-42.6875 31.8906 5.5977 53
-42.2812 31.5938 6.7852 174
-46.5 34.75 10.2266 133
-2.9355 2.209 -0.6401 67
-2.9414 2.2129 -0.5547 9
-2.9531 2.2227 -0.47 123
-3.3516000000000004 2.5215 0.2413 140
-2.9863 2.248 -0.3882 152
-42.7188 32.1562 4.3633 81
-42.7188 32.125 5.613300000000001 2
-42.3125 31.8438 6.8086 238
-46.4688 34.9688 10.25 207
-2.9336 2.2227 -0.6416 119
-2.9433999999999996 2.2305 -0.5566 159
-2.9414 2.2305 -0.46950000000000003 21
-3.3808999999999996 2.5625 0.2441 209
-2.9882999999999997 2.2656 -0.38939999999999997 210
-42.7188 32.375 4.375 222
-42.7188 32.375 5.6289 221
-42.375 32.125 6.832000000000001 37
-46.5 35.2188 10.281199999999998 221
-2.9257999999999997 2.2324 -0.6416 116
-2.9551 2.2559 -0.5600999999999999 45
-2.957 2.2559 -0.4729 26
-3.3476999999999997 2.5547 0.24230000000000002 37
-2.9844 2.2773 -0.3899 61
-42.7188 32.5938 4.3867 109
-42.7188 32.5938 5.640599999999999 141
-42.375 32.3438 6.855499999999999 37
-46.4688 35.4688 10.3047 37
-2.918 2.2422 -0.6416 252
-2.9531 2.2695 -0.5615 90
-2.9452999999999996 2.2637 -0.47240000000000004 132
-3.3379000000000003 2.5645 0.2422 116
-2.9882999999999997 2.2969 -0.39159999999999995 79
-31.2969 24.0469 3.2207 22
-42.6562 32.7812 5.6484000000000005 7
-42.375 32.5625 6.8711 236
-2.9199 2.2617 -0.6436 113
-2.9414 2.2773 -0.561 124
-2.9531 2.2871 -0.47509999999999997 81
-3.3398000000000003 2.5858999999999996 0.2432 211
-2.9805 2.3066 -0.39159999999999995 1
-31.1562 24.125 3.2148000000000003 112
-42.6562 33.0312 5.667999999999999 255
-2.9433999999999996 2.2949 -0.6509 21
-2.9395 2.293 -0.562 189
-2.9512 2.3027 -0.47609999999999997 209
-3.3438 2.6074 0.244 4
-2.9726999999999997 2.3184 -0.39159999999999995 154
-30.3438 23.6562 3.1387 245
-42.9062 33.4688 5.7148 171
-42.4062 33.0938 6.9140999999999995 119
-2.9473000000000003 2.3145 -0.6533 232
-2.9473000000000003 2.3164 -0.5649000000000001 23
-2.9492000000000003 2.3164 -0.4771 11
-3.3516000000000004 2.6327999999999996 0.2452 221
-2.9824 2.3438 -0.39399999999999996 169
-29.7188 23.3438 3.0839999999999996 61
-42.9062 33.6875 5.730499999999999 153
-42.4688 33.375 6.9414 115
-2.9492000000000003 2.334 -0.5669 135
-2.9512 2.334 -0.47850000000000004 245
-3.3632999999999997 2.6601999999999997 0.2468 192
-2.9844 2.3613 -0.3953 128
-30.4375 24.0781 3.1660000000000004 165
-42.625 33.7188 5.7109000000000005 41
-42.4375 33.5938 6.957000000000001 172
-2.9531 2.3535 -0.5693 251
-2.9531 2.3516 -0.48 67
-3.3555 2.6719 0.2468 34
-2.9785000000000004 2.373 -0.3958 232
-30.0312 23.9219 3.1327999999999996 101
-42.6562 33.9688 5.7265999999999995 99
-42.5 33.8438 6.980499999999999 107
-2.9512 2.3672 -0.5703 187
-2.9629000000000003 2.377 -0.4832 153
-3.377 2.7089999999999996 0.2491 24
-2.9805 2.3906 -0.397 95
-30.375 24.3594 3.1757999999999997 117
-42.5312 34.0938 7.0078 235
-2.9668 2.3965 -0.5752 81
-2.9512 2.3848 -0.4827 28
-3.3495999999999997 2.7051 0.24780000000000002 240
-2.9688 2.3984 -0.39649999999999996 180
-29.9375 24.1719 3.1387 11
-42.5625 34.375 7.0312 204
-2.9961 2.4355 -0.5825 17
-2.9512 2.3984 -0.4836 239
-3.3651999999999997 2.7363 0.24960000000000002 33
-2.9805 2.4238 -0.3992 164
-29.9219 24.3281 3.1464999999999996 55
-42.6562 34.6875 5.7734000000000005 166
-0.7236 0.5932999999999999 -0.1576 141
-2.9414 2.4102 -0.4836 43
-3.3476999999999997 2.7441000000000004 0.2491 171
-2.9766000000000004 2.4395 -0.39990000000000003 229
-29.5156 24.2031 3.1132999999999997 83
-42.625 34.9375 5.7890999999999995 196
-0.6304 0.5205 -0.1367 194
-2.9473000000000003 2.4336 -0.4863 150
-3.3535000000000004 2.7676 0.2502 121
-2.9785000000000004 2.459 -0.4014 117
-29.3906 24.2656 3.1094 198
-42.625 35.1875 5.8047 166
-28.1875 23.2656 4.6953 122
-29.2031 24.1094 5.765599999999999 178
-0.6162 0.5127 -0.13390000000000002 227
-2.9375 2.4434 -0.4858 24
-3.3495999999999997 2.7851999999999997 0.2507 169
-2.9648000000000003 2.4648 -0.4006 212
-29.5781 24.5938 3.1387 30
-42.5938 35.4062 5.8164 169
-28.2188 23.4688 4.7148 109
-0.6025 0.5044 -0.13119999999999998 87
-2.9512 2.4727 -0.48969999999999997 39
-3.3711 2.8223000000000003 0.2532 129
-2.9745999999999997 2.4902 -0.4031 60
-29.7188 24.875 3.1620999999999997 74
-42.5938 35.6562 5.832000000000001 33
-28.2031 23.6094 4.7266 134
-0.5947 0.5015 -0.1298 209
-0.688 0.5796 -0.1307 54
-2.9395 2.4766 -0.489 135
-3.3651999999999997 2.8358999999999996 0.2534 146
-2.9805 2.5117 -0.4053 49
-42.7188 36.0 4.5586 170
-28.1562 23.7188 4.7305 128
-28.8281 24.2969 5.7422 58
-0.5903 0.501 -0.129 233
-0.6859999999999999 0.5820000000000001 -0.1307 105
-2.9297000000000004 2.4863 -0.4888 177
-3.3555 2.8476999999999997 0.2534 123
-2.9707 2.5195 -0.4048 36
-28.5 24.1875 3.0488 94
-26.75 22.7031 3.6836 123
-28.0938 23.8281 4.7344 160
-28.7344 24.375 5.7422 169
-0.5703 0.4878 -0.1249 98
-0.6836 0.585 -0.1307 145
-2.9433999999999996 2.5176 -0.4927 51
-3.3535000000000004 2.8672000000000004 0.25420000000000004 183
-2.9688 2.5391 -0.406 224
-28.5 24.375 3.0586 181
-26.6094 22.7656 3.6757999999999997 136
-28.0469 24.0 4.7422 180
-28.7031 24.5469 5.75 43
-0.5952000000000001 0.5132 -0.13119999999999998 42
-0.6514 0.5615 -0.1246 190
-2.9375 2.5312 -0.49340000000000006 84
-3.3555 2.8906 0.25489999999999996 54
-2.9648000000000003 2.5547 -0.4067 34
-27.6719 23.8438 2.9805 62
-26.5156 22.8594 3.6757999999999997 197
-26.7969 23.0938 4.543 122
-28.2656 24.3594 5.6836 199
-0.5791 0.502 -0.1277 190
-0.6201 0.5376 -0.1186 181
-2.9492000000000003 2.5566 -0.4966 238
-3.3651999999999997 2.9160000000000004 0.2563 38
-2.9726999999999997 2.5762 -0.4089 223
-27.5 23.8438 2.9688 66
-26.4531 22.9219 3.6738 243
-26.7188 23.1562 4.543 0
-27.8281 24.125 5.609400000000001 32
-0.6011 0.5244 -0.1333 253
-0.6777 0.5913 -0.1307 1
-2.9375 2.5645 -0.4961 213
-3.3555 2.9276999999999997 0.2563 154
-2.9707 2.5918 -0.4097 43
-27.4375 23.9531 2.9707 125
-26.3438 22.9844 3.6699 58
-26.75 23.3438 4.5625 193
-27.6875 24.1562 5.5977 126
-0.5874 0.5166 -0.1305 16
-0.6753 0.5942000000000001 -0.1307 123
-2.9375 2.5839999999999996 -0.4978 64
-3.377 2.9688 0.259 246
-2.9745999999999997 2.6172000000000004 -0.4119 175
-27.6562 24.3125 3.0039 73
-26.3281 23.1562 3.6816000000000004 199
-26.6094 23.4062 4.5547 132
-29.0625 25.5625 5.894500000000001 144
-0.5679 0.5029 -0.1263 25
-2.9316000000000004 2.5957 -0.49829999999999997 0
-3.3535000000000004 2.9707 0.2581 245
-2.9608999999999996 2.6211 -0.41090000000000004 227
-27.2812 24.1719 2.9745999999999997 98
-26.1406 23.1406 3.6641000000000004 226
-26.125 23.1406 4.4844 236
-27.0156 23.9219 5.4961 180
-0.5776 0.5151 -0.129 233
-2.9473000000000003 2.627 -0.5024000000000001 160
-3.3438 2.9824 0.2581 202
-2.9629000000000003 2.6426 -0.41259999999999997 101
-27.1875 24.2344 2.9707 150
-26.0156 23.2031 3.6582 200
-26.0781 23.25 4.4883 109
-26.8281 23.9219 5.4727 29
-0.5820000000000001 0.5225 -0.1305 100
-2.9433999999999996 2.6426 -0.5034000000000001 61
-3.3848000000000003 3.0391000000000004 0.262 137
-2.9726999999999997 2.668 -0.4153 100
-28.7344 25.7969 3.1504000000000003 102
-26.3281 23.625 3.7129000000000003 219
-26.9062 24.1406 4.6445 174
-26.7188 23.9844 5.4688 106
-0.6006 0.5429999999999999 -0.1354 207
-2.9452999999999996 2.6620999999999997 -0.5049 22
-3.3887 3.0625 0.2632 48
-2.9668 2.6816000000000004 -0.4155 206
-28.5781 25.8281 3.1426 250
-26.2031 23.6875 3.7089999999999996 27
-26.8125 24.2344 4.6445 162
-26.5312 23.9688 5.4453 22
-0.5698 0.5181 -0.1284 234
-2.9355 2.6719 -0.5049 162
-3.4004000000000003 3.0938 0.2646 172
-2.9726999999999997 2.7031 -0.4177 58
-28.4688 25.9062 3.1406 178
-26.1094 23.75 3.7051 139
-26.4375 24.0625 5.4453 69
-0.585 0.5361 -0.1326 84
-0.6631 0.6079 -0.1307 35
-2.9355 2.6914 -0.5068 173
-30.4844 27.9531 2.4043 245
-2.9668 2.7207 -0.41850000000000004 163
-28.5 26.125 3.1543 41
-3.0507999999999997 2.7969 -0.3342 188
-26.125 23.9531 3.7207 10
-25.9688 23.8125 4.5273 37
-26.2812 24.0938 5.4297 159
-0.5747 0.5303 -0.1305 13
-2.9395 2.7129000000000003 -0.5088 16
-27.7656 25.625 2.1953 153
-2.9648000000000003 2.7363 -0.4194 154
-28.7969 26.5781 3.1973000000000003 56
-3.0410000000000004 2.8066000000000004 -0.3342 95
-26.75 24.6875 3.8223000000000003 224
-25.8438 23.8438 4.5195 49
-26.2188 24.2031 5.4336 42
-0.5669 0.5268999999999999 -0.129 229
-2.9375 2.7305 -0.5103 161
-27.2656 25.3438 2.1641 159
-2.957 2.75 -0.41969999999999996 88
-28.5469 26.5312 3.1797000000000004 131
-3.0488 2.8339999999999996 -0.3362 173
-26.4531 24.5938 3.7910000000000004 26
-25.6875 23.875 4.5078 115
-28.4531 26.4531 5.917999999999999 110
-0.5854 0.5478999999999999 -0.13390000000000002 68
-2.9375 2.75 -0.5122 133
-27.0469 25.3125 2.1523 45
-2.9707 2.7812 -0.42310000000000003 100
-28.4531 26.6406 3.1797000000000004 184
-3.0938 2.8964999999999996 -0.3425 255
-26.4375 24.75 3.8007999999999997 237
-25.6562 24.0156 4.5156 88
-27.4688 25.7188 5.730499999999999 183
-0.5806 0.5474 -0.1333 57
-2.9276999999999997 2.7617000000000003 -0.5122 28
-26.9688 25.4219 2.1543 22
-2.9745999999999997 2.8066000000000004 -0.4253 226
-26.8594 25.3281 3.0117000000000003 129
-3.0839999999999996 2.9082 -0.3425 173
-26.375 24.875 3.8066000000000004 109
-25.625 24.1719 4.5234 85
-26.2188 24.7344 5.488300000000001 26
-0.564 0.5356000000000001 -0.1298 106
-2.9336 2.7870999999999997 -0.5151 181
-26.9531 25.5938 2.1602 65
-2.9629000000000003 2.8125 -0.42479999999999996 100
-28.5469 27.1094 3.2129000000000003 186
-3.0526999999999997 2.8983999999999996 -0.34009999999999996 194
-26.5 25.1719 3.8358999999999996 151
-25.7344 24.4375 4.5586 142
-26.1562 24.8281 5.4922 250
-0.5625 0.5376 -0.1298 45
-2.9375 2.8086 -0.5176 204
-42.5 40.625 3.418 152
-2.9608999999999996 2.832 -0.426 174
-28.4219 27.1719 3.2089999999999996 237
-3.0410000000000004 2.9062 -0.3398 151
-26.3594 25.1875 3.8281 131
-25.5 24.375 4.5312 120
-25.8906 24.75 5.457000000000001 126
-0.5693 0.5478999999999999 -0.1318 37
-2.9492000000000003 2.8398000000000003 -0.521 103
-42.5312 40.9375 3.4316000000000004 103
-2.9688 2.8574 -0.4285 235
-26.6719 25.6719 3.0214999999999996 226
-3.0195 2.9062 -0.3386 253
-28.2969 27.2344 4.1211 175
-25.6094 24.6562 4.5664 48
-25.8906 24.9062 5.4727 149
-0.5811 0.5635 -0.1354 135
-2.9375 2.8476999999999997 -0.5205 187
-42.625 41.3438 3.4531 171
-2.9766000000000004 2.8848000000000003 -0.43119999999999997 6
-25.9375 25.1406 2.9473000000000003 225
-3.0312 2.9395 -0.3411 178
-28.375 27.5156 4.1484 185
-26.0 25.2188 4.6523 66
-25.7344 24.9375 5.457000000000001 109
-0.5679 0.5547 -0.1326 55
-3.1641000000000004 3.0879000000000003 0.0508 152
-2.9355 2.8651999999999997 -0.522 159
-42.7812 41.75 3.4766000000000004 150
-2.9785000000000004 2.9062 -0.4329 170
-26.7344 26.1094 3.0488 180
-3.0058999999999996 2.9355 -0.3396 135
-26.3594 25.7344 3.8672000000000004 207
-26.1719 25.5469 4.6992 155
-0.5547 0.5454 -0.1298 122
-2.9316000000000004 2.8808999999999996 -0.5234000000000001 23
-2.9726999999999997 2.9219 -0.4336 96
-26.7188 26.2656 3.0566000000000004 72
-3.043 2.9901999999999997 -0.3447 70
-26.1562 25.7031 3.8495999999999997 55
-25.9531 25.5 4.6758 111
-3.0683999999999996 3.0156 -0.049400000000000006 211
-0.5645 0.5581 -0.1326 26
-2.9492000000000003 2.918 -0.5278 78
-60.4375 59.7812 4.9453 204
-2.9668 2.9355 -0.4341 129
-25.9688 25.6875 2.9785000000000004 206
-3.0839999999999996 3.0507999999999997 -0.3506 223
-25.9531 25.6719 3.8339999999999996 23
-25.75 25.4688 4.6523 127
-0.5566 0.5547 -0.13119999999999998 214
-2.957 2.9473000000000003 -0.5317000000000001 13
-60.0312 59.8438 4.9297 206
-2.9629000000000003 2.9551 -0.4353 40
-25.7812 25.7031 2.9688 237
-3.043 3.0332 -0.34740000000000004 233
-25.8281 25.75 3.8281 76
-25.6719 25.5938 4.6562 204
-3.0586 3.0488 -0.149 248
-0.5547 0.5566 -0.13119999999999998 233
-2.9395 2.9512 -0.5303 165
-59.5938 59.8125 4.9102 174
-2.9629000000000003 2.9726999999999997 -0.4365 127
-25.7656 25.875 2.9785000000000004 192
-3.0195 3.0312 -0.3457 87
-25.7969 25.8906 3.8379000000000003 41
-3.0898000000000003 3.1016000000000004 -0.252 20
-25.0938 25.1875 4.5703 163
-0.5474 0.5532 -0.1298 0
-3.1952999999999996 3.2285000000000004 0.15689999999999998 248
-2.9336 2.9629000000000003 -0.5307999999999999 72
-59.1875 59.8125 4.8945 176
-2.9863 3.0176 -0.4414 128
-25.5781 25.8438 2.9668 209
-3.0507999999999997 3.0839999999999996 -0.3506 231
-27.3594 27.6406 4.082 102
-3.043 3.0762 -0.249 230
-25.0312 25.2969 4.5742 73
-0.5869 0.5972 -0.14029999999999998 246
-3.2558999999999996 3.3105 0.1604 37
-2.9414 2.9922000000000004 -0.5342 216
-58.75 59.75 4.875 138
-2.9531 3.0039 -0.4382 144
-25.5156 25.9531 2.9688 106
-3.0410000000000004 3.0938 -0.3506 28
-26.4844 26.9375 3.9668 36
-25.9844 26.4375 4.7617 14
-0.5596 0.5737 -0.13390000000000002 112
-2.9726999999999997 3.0469 -0.6426000000000001 243
-3.2422000000000004 3.3242000000000003 0.1604 163
-2.9433999999999996 3.0176 -0.5366 153
-58.3438 59.8125 4.8594 28
-2.9608999999999996 3.0351999999999997 -0.4412 25
-3.0645 3.1426 -0.355 171
-26.8438 27.5156 4.0352 68
-26.3438 27.0 4.8477 201
-0.5825 0.6011 -0.14029999999999998 220
-2.9901999999999997 3.0858999999999996 -0.6484000000000001 30
-3.1601999999999997 3.2637 0.15689999999999998 0
-2.9452999999999996 3.0410000000000004 -0.5390999999999999 217
-57.9062 59.7812 4.8398 129
-2.9785000000000004 3.0742000000000003 -0.44530000000000003 198
-3.0176 3.1151999999999997 -0.3506 42
-25.7188 26.5469 3.8808999999999996 237
-25.7188 26.5469 4.75 125
-0.5557 0.5776 -0.13390000000000002 185
-2.9512 3.0664 -0.6426000000000001 205
-3.1992000000000003 3.3262 0.1594 123
-2.9414 3.0566000000000004 -0.5405 211
-57.5 59.75 4.8242 5
-2.9688 3.0839999999999996 -0.44530000000000003 141
-27.0938 28.1562 3.1875 196
-3.0077999999999996 3.125 -0.3506 13
-25.6094 26.6094 3.877 98
-24.9688 25.9531 4.6289 254
-0.5566 0.5825 -0.1346 57
-2.9901999999999997 3.1289 -0.6533 199
-3.2089999999999996 3.3555 0.1604 237
-2.9316000000000004 3.0664 -0.5405 15
-57.0938 59.7188 4.8047 204
-2.9824 3.1191000000000004 -0.449 37
-26.8906 28.125 3.1757999999999997 12
-25.6406 26.8281 3.8945 10
-24.9688 26.1094 4.6406 131
-0.5571 0.5874 -0.1354 163
-2.9688 3.127 -0.6509 251
-3.1952999999999996 3.3672000000000004 0.1604 180
-2.9433999999999996 3.1016000000000004 -0.5444 159
-56.6875 59.75 4.7891 200
-2.9745999999999997 3.1327999999999996 -0.4495 59
-26.6562 28.0938 3.1601999999999997 46
-25.9062 27.3125 3.9512 21
-24.7969 26.125 4.6289 52
-0.5498 0.5835 -0.13390000000000002 45
-2.9785000000000004 3.1620999999999997 -0.6557999999999999 188
-3.2108999999999996 3.4082 0.1617 211
-2.9512 3.1308999999999996 -0.5478999999999999 21
-56.2812 59.75 4.7734 13
-2.9745999999999997 3.1562 -0.4512 254
-26.6094 28.2344 3.1641000000000004 198
-2.9745999999999997 3.1562 -0.3506 127
-25.5469 27.1094 3.9101999999999997 136
-24.8438 26.3594 4.6562 178
-0.5371 0.5737 -0.13119999999999998 190
-2.9629000000000003 3.1660000000000004 -0.6548 134
-3.1719 3.3906 0.1604 5
-2.9395 3.1406 -0.5478999999999999 163
-55.9062 59.7188 4.7578 106
-2.9707 3.1738 -0.4524 145
-26.4375 28.25 3.1562 202
-2.9629000000000003 3.168 -0.3506 235
-25.5 27.25 3.918 64
-24.8125 26.5156 4.6641 255
-0.5859000000000001 0.6304 -0.1444 81
-2.9512 3.1757999999999997 -0.6548 116
-3.1797000000000004 3.4219 0.16140000000000002 128
-2.9473000000000003 3.1719 -0.5518 85
-55.5 59.7188 4.7422 241
-2.9707 3.1973000000000003 -0.45409999999999995 152
-26.3906 28.4062 3.1641000000000004 12
-3.0098000000000003 3.2382999999999997 -0.3574 220
-25.1719 27.0938 3.8827999999999996 240
-0.5356000000000001 0.5801 -0.1318 95
-2.9608999999999996 3.2051 -0.6587000000000001 16
-3.1738 3.4375 0.1616 153
-2.9512 3.1952999999999996 -0.5542 35
-55.125 59.6875 4.7227 127
-2.9785000000000004 3.2266000000000004 -0.457 28
-3.0 3.248 -0.3574 167
-25.1094 27.1875 3.8848000000000003 85
-0.4993 0.5444 -0.1229 130
-2.9433999999999996 3.2089999999999996 -0.6577 5
-3.2012 3.4901999999999997 0.1636 43
-2.9452999999999996 3.2108999999999996 -0.5547 190
-54.7188 59.6562 4.707 224
-2.9668 3.2344 -0.45649999999999996 98
-3.0507999999999997 3.3262 -0.365 234
-25.8125 28.1406 4.0078 232
-2.9629000000000003 3.2558999999999996 -0.769 187
-2.9452999999999996 3.2344 -0.6606000000000001 153
-3.2012 3.5156 0.1643 169
-2.957 3.248 -0.5596 44
-54.3438 59.6875 4.6953 93
-2.957 3.248 -0.457 75
-3.0176 3.3125 -0.36229999999999996 3
-24.9375 27.375 3.8867000000000003 24
-2.9414 3.2539 -0.7661 6
-2.9336 3.2461 -0.6606000000000001 145
-3.2108999999999996 3.5507999999999997 0.1654 133
-2.9531 3.2656 -0.561 193
-53.9062 59.625 4.6758 11
-2.9531 3.2656 -0.4583 217
-53.875 59.5938 6.5586 245
-3.002 3.3202999999999996 -0.36210000000000003 85
-25.7188 28.4531 4.0273 238
-2.9433999999999996 3.2793 -0.7695000000000001 242
-2.9433999999999996 3.2793 -0.6655 101
-3.1895 3.5526999999999997 0.1649 39
-2.9433999999999996 3.2793 -0.5615 222
-53.5312 59.6562 4.6602 73
-2.9922000000000004 3.3339999999999996 -0.46630000000000005 108
-53.4688 59.5625 6.5352 89
-3.0039 3.3457 -0.3638 118
-25.625 28.5625 4.0273 21
-2.9297000000000004 3.2870999999999997 -0.769 64
-2.9531 3.3145 -0.6704000000000001 132
-3.2031 3.5938 0.1664 250
-2.9531 3.3125 -0.5654 61
-53.125 59.625 4.6445 3
-3.0077999999999996 3.375 -0.4707 251
-53.0938 59.5625 6.511699999999999 12
-3.0195 3.3867000000000003 -0.3669 217
-2.9219 3.3007999999999997 -0.77 73
-2.9688 3.3535000000000004 -0.6762999999999999 228
-3.2773000000000003 3.7012 0.17079999999999998 186
-2.9473000000000003 3.3301 -0.5664 91
-52.7812 59.625 4.6289 160
-2.9922000000000004 3.3808999999999996 -0.47 175
-52.6875 59.5312 6.488300000000001 253
-3.0077999999999996 3.3964999999999996 -0.3669 192
-2.9257999999999997 3.3281 -0.7739 75
-2.9531 3.3574 -0.6753 33
-52.5312 59.7188 2.7754000000000003 172
-2.9414 3.3457 -0.5674 205
-52.4062 59.5938 4.6172 57
-2.9785000000000004 3.3867000000000003 -0.46950000000000003 65
-52.3125 59.5 6.4688 46
-3.0098000000000003 3.4219 -0.36869999999999997 191
-2.9433999999999996 3.3711 -0.7817000000000001 220
-2.9531 3.3827999999999996 -0.6781999999999999 173
-52.125 59.7188 2.7656 239
-2.9512 3.3808999999999996 -0.5718 184
-52.0625 59.625 4.6016 223
-2.9688 3.4004000000000003 -0.4697 232
-51.9375 59.5 6.449199999999999 87
-2.9961 3.4336 -0.36869999999999997 116
-72.3125 82.875 14.148399999999999 190
-2.9433999999999996 3.3964999999999996 -0.7852 150
-2.9589999999999996 3.4141000000000004 -0.6826000000000001 179
-51.7188 59.6562 2.7558999999999996 107
-2.9473000000000003 3.4004000000000003 -0.5732 63
-51.6875 59.625 4.5859 26
-2.9766000000000004 3.4336 -0.4729 148
-51.5625 59.4688 6.425800000000001 252
-3.0195 3.4824 -0.3728 187
-2.9414 3.4199 -0.7881 67
-2.9551 3.4336 -0.6840999999999999 128
-51.3438 59.6562 2.7461 177
-2.9336 3.4101999999999997 -0.5732 120
-51.2812 59.5938 4.5742 27
-2.9766000000000004 3.4589999999999996 -0.47509999999999997 57
-51.2188 59.5312 6.4140999999999995 195
-3.0058999999999996 3.4941000000000004 -0.3728 128
-2.9316000000000004 3.4316000000000004 -0.7886 19
-2.9551 3.4589999999999996 -0.687 56
-51.0 59.6875 2.7401999999999997 201
-2.9414 3.4414 -0.5767 192
-50.9062 59.5625 4.5586 190
-2.9589999999999996 3.4629000000000003 -0.47409999999999997 55
-50.8125 59.4688 6.386699999999999 181
-3.0039 3.5156 -0.374 95
-2.9395 3.4629000000000003 -0.7935 86
-2.957 3.4824 -0.6904 131
-50.6562 59.6562 2.7305 230
-2.9531 3.4785000000000004 -0.5815 194
-50.5625 59.5625 4.543 12
-2.9589999999999996 3.4844 -0.4758 138
-50.5 59.5 6.3711 91
-3.0156 3.5526999999999997 -0.377 22
-2.9492000000000003 3.4961 -0.7988 112
-2.9452999999999996 3.4922000000000004 -0.6904 178
-50.2812 59.625 2.7226999999999997 116
-2.9531 3.5039 -0.584 138
-50.2188 59.5312 4.5273 227
-2.9648000000000003 3.5156 -0.4788 167
-50.0938 59.4062 6.3438 134
-3.002 3.5605 -0.37670000000000003 152
-2.9433999999999996 3.5156 -0.8012999999999999 100
-3.2226999999999997 3.8516000000000004 0.057800000000000004 171
-2.9512 3.5254000000000003 -0.6943 41
-49.875 59.5938 2.7108999999999996 209
-2.9433999999999996 3.5176 -0.5845 161
-49.8438 59.5625 4.5156 77
-2.9922000000000004 3.5762 -0.4854 184
-49.75 59.4375 6.328099999999999 101
-3.0039 3.5898000000000003 -0.3787 239
-2.9452999999999996 3.5449 -0.8051999999999999 187
-3.1757999999999997 3.8223000000000003 0.0572 211
-2.9668 3.5683999999999996 -0.7012 37
-49.5312 59.625 2.7051 2
-2.9433999999999996 3.543 -0.5869 62
-49.5 59.5312 4.5039 122
-2.9922000000000004 3.6016000000000004 -0.4875 239
-49.4062 59.4375 6.3086 160
-2.9941000000000004 3.6035000000000004 -0.3789 113
-2.9433999999999996 3.5664 -0.8081 207
-3.1738 3.8457 0.0574 159
-2.9608999999999996 3.5879000000000003 -0.7031000000000001 200
-49.1875 59.625 2.6973000000000003 80
-2.9551 3.5801 -0.5918 231
-49.125 59.5312 4.4883 223
-2.9844 3.6172000000000004 -0.48829999999999996 232
-49.0625 59.4688 6.292999999999999 47
-3.0077999999999996 3.6445 -0.3823 41
-2.9414 3.5898000000000003 -0.8109999999999999 32
-3.1836 3.8848000000000003 0.057800000000000004 235
-2.9608999999999996 3.6132999999999997 -0.7061 32
-48.8438 59.5938 2.6895 71
-2.9395 3.5879000000000003 -0.5913 42
-48.75 59.5 4.4727 196
-2.9922000000000004 3.6523000000000003 -0.4917 189
-48.6875 59.4062 6.269500000000001 95
-3.0254000000000003 3.6914 -0.3862 105
-2.9473000000000003 3.623 -0.8159000000000001 188
-2.9766000000000004 3.6582 -0.7123999999999999 98
-48.4688 59.5938 2.6816000000000004 12
-2.9452999999999996 3.6191000000000004 -0.5947 236
-48.4062 59.5 4.4609 68
-3.0 3.6875 -0.4951 67
-48.3438 59.4062 6.2539 151
-3.0117000000000003 3.7012 -0.3862 45
-2.9473000000000003 3.6504000000000003 -0.8198000000000001 179
-2.9629000000000003 3.668 -0.7123999999999999 164
-48.125 59.5625 2.6719 171
-2.9492000000000003 3.6504000000000003 -0.5981000000000001 151
-48.0625 59.5 4.4492 165
-2.9901999999999997 3.7012 -0.4954 79
-47.9688 59.375 6.230499999999999 75
-3.0137 3.7305 -0.3882 33
-20.2656 25.0781 3.3848000000000003 192
-2.9355 3.6601999999999997 -0.8198000000000001 148
-2.9707 3.7031 -0.7173 53
-47.7812 59.5625 2.6641000000000004 76
-2.9414 3.6660000000000004 -0.5991 65
-47.6875 59.4688 4.4336 141
-2.9882999999999997 3.7226999999999997 -0.4971 143
-47.625 59.375 6.2148 74
-2.9922000000000004 3.7285000000000004 -0.38670000000000004 38
-20.2344 25.2344 3.3945 232
-2.9297000000000004 3.6757999999999997 -0.8212999999999999 145
-2.9863 3.7461 -0.7241 243
-47.4375 59.5312 2.6562 65
-2.9512 3.7051 -0.604 47
-47.375 59.4375 4.418 23
-2.9824 3.7422000000000004 -0.49829999999999997 79
-18.6875 23.4531 2.4453 190
-3.0058999999999996 3.7733999999999996 -0.39039999999999997 122
-19.7344 24.7656 3.3242000000000003 12
-18.9062 23.7344 4.6211 4
-3.1074 3.9004000000000003 -0.0574 251
-2.9414 3.7207 -0.8291 194
-2.9629000000000003 3.7441000000000004 -0.7217 6
-47.0938 59.5312 2.6483999999999996 117
-2.9688 3.752 -0.6099 46
-47.0312 59.4688 4.4102 226
-2.9805 3.7695 -0.5005 80
-18.5781 23.5 2.4434 4
-3.0117000000000003 3.8086 -0.3931 235
-19.7031 24.9062 3.3339999999999996 44
-18.8125 23.7812 4.6172 23
-3.1562 3.9901999999999997 -0.058600000000000006 5
-2.9452999999999996 3.752 -0.8340000000000001 156
-2.9589999999999996 3.7676 -0.7241 233
-46.75 59.5312 2.6426 222
-2.957 3.7656 -0.6103999999999999 24
-46.6875 59.4375 4.3945 192
-2.9922000000000004 3.8105 -0.5049 19
-18.5 23.5469 2.4434 43
-2.9882999999999997 3.8066000000000004 -0.39159999999999995 81
-19.7031 25.0938 3.3495999999999997 165
-18.875 24.0312 4.6523 167
-3.1289 3.9863 -0.0583 55
-2.9531 3.7870999999999997 -0.8393999999999999 176
-2.9668 3.8066000000000004 -0.7295 66
-46.4375 59.5312 2.6348000000000003 175
-2.9531 3.7891000000000004 -0.6123 67
-46.3438 59.4375 4.3828 231
-3.002 3.8495999999999997 -0.5083 131
-18.4375 23.6562 2.4473 230
-3.002 3.8516000000000004 -0.3953 178
-19.4688 24.9688 3.3242000000000003 113
-18.875 24.2031 3.9433999999999996 42
-3.1132999999999997 3.9941000000000004 -0.0583 189
-2.9473000000000003 3.8086 -0.8418000000000001 28
-2.9805 3.8516000000000004 -0.7358 24
-46.0625 59.5312 2.627 129
-2.9551 3.8183999999999996 -0.6157 192
-46.0 59.4375 4.3711 51
-3.002 3.8789 -0.5107 161
-18.75 24.2188 2.498 71
-3.0077999999999996 3.8867000000000003 -0.3979 95
-19.5625 25.2656 3.3535000000000004 100
-18.75 24.2188 3.9355 73
-3.127 4.0391 -0.0588 220
-2.9492000000000003 3.8379000000000003 -0.8456999999999999 220
-2.9824 3.8808999999999996 -0.7397 128
-2.9707 3.8651999999999997 -0.6215999999999999 233
-45.6562 59.4062 4.3555 188
-3.0039 3.9082 -0.5136999999999999 94
-18.6094 24.2188 2.4922 115
-3.0117000000000003 3.9199 -0.40009999999999996 0
-19.1875 24.9688 3.3047000000000004 124
-18.6719 24.2812 3.9355 41
-17.7969 23.1562 4.4453 226
-16.8125 21.875 -0.3218 194
-2.9668 3.8887 -0.855 51
-2.9726999999999997 3.8964999999999996 -0.7406999999999999 226
-2.9648000000000003 3.8867000000000003 -0.623 235
-45.3438 59.4375 4.3477 210
-2.9961 3.9276999999999997 -0.5146000000000001 84
-18.5156 24.2812 2.4902 117
-3.0273000000000003 3.9688 -0.40409999999999996 226
-19.1094 25.0625 3.3086 21
-17.5781 23.0469 3.7226999999999997 197
-3.1191000000000004 4.0898 -0.1777 5
-17.6562 23.1406 4.4336 248
-16.7031 21.8906 -0.321 127
-2.9648000000000003 3.9120999999999997 -0.8579000000000001 223
-2.9668 3.9160000000000004 -0.7426999999999999 198
-2.9688 3.918 -0.627 146
-45.0312 59.4062 4.3359 99
-2.9844 3.9375 -0.5146000000000001 187
-18.2656 24.1094 2.4688 161
-3.0176 3.9824 -0.4043 106
-18.9688 25.0312 3.2969 67
-17.5156 23.1094 3.7245999999999997 58
-3.082 4.0664 -0.1764 124
-17.5781 23.2031 4.4336 199
-16.5781 21.8906 -0.32030000000000003 32
-2.9589999999999996 3.9316000000000004 -0.8604 103
-2.9688 3.9452999999999996 -0.7461 158
-2.9707 3.9473000000000003 -0.6299 238
-44.6875 59.4062 4.3242 6
-2.9844 3.9668 -0.5171 215
-18.1719 24.1562 2.4648 82
-2.998 3.9844 -0.40380000000000005 223
-19.1406 25.4375 3.3418 220
-3.0605 4.0664 -0.29350000000000004 77
-17.8125 23.6719 3.8066000000000004 123
-17.5781 23.3594 4.4531 72
-16.4375 21.8438 -0.3188 162
-2.9668 3.9745999999999997 -0.8672 132
-2.9648000000000003 3.9726999999999997 -0.7495 95
-2.9648000000000003 3.9707 -0.6318 14
-44.3438 59.4062 4.3086 16
-2.9785000000000004 3.9922000000000004 -0.519 22
-44.25 59.2812 6.0390999999999995 45
-3.0077999999999996 4.0273 -0.40700000000000003 188
-17.4062 23.3281 3.0547000000000004 174
-3.0664 4.1055 -0.2954 170
-17.7812 23.8125 3.8164 182
-17.8906 23.9688 4.5547 31
-16.2969 21.8281 -0.3176 132
-2.9589999999999996 3.9941000000000004 -0.8691 156
-2.9844 4.0273 -0.7578 106
-2.9707 4.0117 -0.6367 193
-44.0 59.375 4.2969 61
-2.9961 4.043 -0.5244 65
-43.9375 59.2812 6.0234000000000005 100
-3.0058999999999996 4.0547 -0.40869999999999995 146
-17.7344 23.9219 3.125 172
-3.0586 4.1289 -0.2961 204
-17.8281 24.0625 3.8457 79
-18.1719 24.5156 4.6484 8
-16.1875 21.8594 -0.3171 198
-2.9707 4.0391 -0.8765000000000001 161
-2.9785000000000004 4.0469 -0.7598 146
-21.25 28.8594 1.25 121
-2.9824 4.0508 -0.6416 192
-43.6875 59.375 4.2852 138
-3.0 4.0742 -0.5273 46
-43.625 59.25 6.0078 143
-3.0098000000000003 4.0898 -0.4111 31
-17.375 23.6094 3.0762 185
-18.3125 24.875 3.9688 4
-16.0781 21.8438 -0.31620000000000004 80
-2.9785000000000004 4.0742 -0.8828 27
-2.9824 4.082 -0.7642 241
-21.0625 28.8125 1.2451 132
-2.9707 4.0664 -0.6420999999999999 181
-43.375 59.3438 4.2734 95
-2.998 4.1016 -0.5293 140
-43.3438 59.3125 5.9961 38
-3.0077999999999996 4.1172 -0.4128 220
-17.3125 23.6875 3.0801 159
-18.2188 24.9219 3.9648000000000003 174
-17.875 24.4688 4.6133 221
-15.9453 21.8125 -0.31489999999999996 181
-2.9745999999999997 4.1016 -0.8862000000000001 219
-2.9863 4.1172 -0.769 94
-20.875 28.7969 1.2402 119
-2.9766000000000004 4.1055 -0.6465000000000001 112
-43.0312 59.3438 4.2617 126
-3.0058999999999996 4.1445 -0.5337 254
-17.8281 24.5781 2.4766 179
-3.0233999999999996 4.168 -0.41700000000000004 185
-17.2344 23.75 3.0801 19
-2.957 4.0781 -0.2905 164
-18.1094 24.9844 3.9648000000000003 88
-17.8125 24.5625 4.6211 89
-15.9219 21.9531 -0.3164 236
-2.9726999999999997 4.1289 -0.8896 201
-2.998 4.1641 -0.7759 15
-20.7031 28.7656 1.2354 91
-2.9824 4.1445 -0.6514 100
-42.7188 59.3438 4.2539 2
-3.002 4.1719 -0.5356000000000001 191
-17.7344 24.625 2.4746 208
-3.0214999999999996 4.1953 -0.41869999999999996 181
-17.1719 23.8438 3.0839999999999996 10
-17.7188 24.6094 4.6172 11
-15.773399999999999 21.9062 -0.31489999999999996 65
-2.9785000000000004 4.168 -0.8959999999999999 149
-2.9882999999999997 4.1797 -0.7768999999999999 123
-20.6719 28.9375 1.2402 162
-2.9707 4.1562 -0.6518999999999999 214
-42.4062 59.3438 4.2422 108
-2.9961 4.1914 -0.5366 76
-18.5938 26.0312 2.6094 255
-3.0195 4.2266 -0.4207 54
-17.375 24.3125 3.1348000000000003 190
-2.8476999999999997 3.9844 -0.2822 233
-17.3594 24.2969 3.8358999999999996 156
-2.9004000000000003 4.0586 -0.1724 232
-17.5938 24.625 4.6094 41
-15.6094 21.8438 -0.313 140
-2.9745999999999997 4.1914 -0.8989 15
-2.9882999999999997 4.2148 -0.7812 232
-20.5781 29.0 1.2402 81
-2.9745999999999997 4.1953 -0.6557999999999999 197
-42.0938 59.3125 4.2305 10
-2.998 4.2266 -0.54 152
-18.5312 26.1094 2.6113 46
-3.0370999999999997 4.2812 -0.4253 131
-17.3281 24.4375 3.1445 173
-2.8632999999999997 4.0352 -0.2854 153
-17.0781 24.0625 3.7910000000000004 79
-17.2344 24.2969 4.5352 126
-15.5156 21.875 -0.3127 19
-2.9785000000000004 4.2266 -0.9048 36
-2.9844 4.2344 -0.7837000000000001 55
-20.4688 29.0469 1.2393 63
-2.9882999999999997 4.2422 -0.6620999999999999 98
-41.7812 59.3125 4.2188 126
-3.0058999999999996 4.2656 -0.5439 45
-41.7188 59.2188 5.9140999999999995 74
-3.0351999999999997 4.3086 -0.4268 112
-17.1875 24.3906 3.1327999999999996 38
-3.0702999999999996 4.3555 -0.3074 9
-17.0781 24.2188 3.8066000000000004 35
-14.125 20.0469 -0.8545 41
-17.1094 24.2812 4.5234 53
-2.9824 4.2617 -0.9097 85
-2.9922000000000004 4.2734 -0.7890999999999999 162
-20.4062 29.1719 1.2412 196
-2.9766000000000004 4.2539 -0.6626000000000001 160
-41.4688 59.2812 4.207 193
-3.0233999999999996 4.3203 -0.5498 26
-18.6562 26.6719 2.6562 157
-3.0058999999999996 4.2969 -0.42460000000000003 7
-17.0625 24.3906 3.123 137
-3.0918 4.418 -0.311 243
-16.7344 23.9062 3.748 119
-14.0547 20.0781 -0.8540000000000001 7
-16.9844 24.2656 4.5117 71
-15.25 21.7969 -0.3103 10
-2.9629000000000003 4.2695 -0.9087000000000001 229
-2.9941000000000004 4.3164 -0.7944 188
-20.3438 29.3125 1.2441 201
-2.9745999999999997 4.2852 -0.6655 0
-41.1562 59.3125 4.1992 187
-3.0332 4.3711 -0.5542 112
-18.5625 26.75 2.6562 210
-3.0449 4.3906 -0.4326 196
-17.0312 24.5469 3.1367000000000003 17
-3.082 4.4414 -0.3118 21
-16.3594 23.5781 3.6855 27
-13.968800000000002 20.125 -0.8534999999999999 126
-16.8906 24.3438 4.5117 63
-15.125 21.7969 -0.3093 18
-16.5625 23.8594 5.1133 30
-2.9726999999999997 4.3164 -0.917 5
-2.9863 4.3359 -0.7964 100
-20.2969 29.4688 1.248 94
-2.9745999999999997 4.3203 -0.6689 127
-40.8125 59.25 4.1836 14
-3.0176 4.3789 -0.5542 248
-17.8438 25.9219 2.5664 32
-3.0370999999999997 4.4102 -0.4336 186
-16.9375 24.5938 3.1327999999999996 232
-3.0957 4.4922 -0.3147 56
-16.3906 23.7969 3.7108999999999996 153
-13.875 20.1406 -0.8521 126
-16.8594 24.4844 4.5273 245
-15.023399999999999 21.8125 -0.30879999999999996 53
-16.4688 23.9219 5.1133 160
-3.0077999999999996 4.3984 -0.9320999999999999 45
-2.9901999999999997 4.3711 -0.8012999999999999 225
-20.2656 29.6406 1.252 43
-2.9805 4.3594 -0.6738 221
-3.0137 4.4062 -0.5566 248
-17.75 25.9688 2.5645 74
-3.043 4.4492 -0.4365 64
-16.9531 24.7969 3.1523000000000003 73
-3.0858999999999996 4.5156 -0.3154 55
-16.3281 23.8906 3.7168 225
-13.843800000000002 20.25 -0.8545 58
-16.4062 24.0 4.4258 24
-14.9219 21.8281 -0.30829999999999996 199
-16.3438 23.8906 5.0977 210
-2.9901999999999997 4.4062 -0.9312 116
-3.1426 4.6328 0.0646 10
-2.9805 4.3945 -0.8031999999999999 72
-20.2031 29.7812 1.2549 115
-2.9824 4.3945 -0.6777 233
-3.1055 4.5781 0.3191 217
-3.0254000000000003 4.457 -0.5615 221
-17.6875 26.0781 2.5702999999999996 230
-3.043 4.4844 -0.439 136
-16.8438 24.8281 3.1483999999999996 221
-3.1308999999999996 4.6133 -0.3218 14
-16.0156 23.5938 3.6641000000000004 223
-13.7422 20.25 -0.853 21
-16.5938 24.4531 4.5 196
-14.8281 21.8594 -0.3079 228
-16.3438 24.0781 5.125 70
-2.9882999999999997 4.4336 -0.9355 157
-3.0410000000000004 4.5156 -0.8237000000000001 223
-20.1875 29.9688 1.2598 92
-2.9785000000000004 4.4219 -0.6801999999999999 62
-16.7812 24.9062 1.7450999999999999 80
-3.0214999999999996 4.4844 -0.5635 152
-17.6094 26.1406 2.5723000000000003 55
-3.0273000000000003 4.4922 -0.439 98
-16.7344 24.8281 3.1426 102
-15.898399999999999 23.5938 3.6543 201
-13.6953 20.3281 -0.8540000000000001 209
-15.75 23.375 4.293 231
-14.726600000000001 21.8594 -0.3074 140
-16.2969 24.1875 5.136699999999999 107
-2.957 4.4219 -0.9307 227
-3.0449 4.5508 -0.8281000000000001 128
-20.1562 30.1406 1.2646 68
-2.9707 4.4414 -0.6816 216
-16.6719 24.9219 1.7412 230
-3.0410000000000004 4.5469 -0.5703 198
-17.4844 26.1406 2.5645 248
-3.0293 4.5312 -0.4414 72
-15.4219 23.0469 2.9101999999999997 80
-10.1562 15.1875 -1.0605 173
-15.843800000000002 23.6719 3.6601999999999997 29
-13.6172 20.3594 -0.8534999999999999 79
-15.6797 23.4375 4.293 7
-14.6328 21.875 -0.3069 131
-16.2969 24.3594 5.1602 127
-2.9531 4.4492 -0.9340999999999999 115
-3.0214999999999996 4.5508 -0.8267 55
-20.1406 30.3594 1.2705 66
-2.9805 4.4922 -0.688 151
-16.5625 24.9688 1.7402000000000002 0
-3.0195 4.5508 -0.5693 63
-17.4844 26.3594 2.5801 19
-3.0605 4.6094 -0.4482 60
-15.2969 23.0469 2.9023000000000003 198
-10.0625 15.164100000000001 -1.0566 59
-16.125 24.2812 3.7441000000000004 167
-13.5625 20.4375 -0.8545 199
-15.5625 23.4531 4.2852 215
-14.5547 21.9219 -0.3069 197
-14.9297 22.4844 4.7539 145
-2.9844 4.5312 -0.9492 94
-3.0233999999999996 4.5938 -0.8320000000000001 159
-2.9961 4.5508 -0.6953 140
-16.5312 25.0938 1.7461000000000002 214
-3.0156 4.5781 -0.5718 20
-17.3125 26.2812 2.5664 207
-3.0566000000000004 4.6406 -0.45020000000000004 123
-15.273399999999999 23.1875 2.9141000000000004 224
-9.9922 15.1719 -1.0547 165
-16.7344 25.4219 3.9101999999999997 245
-13.4531 20.4219 -0.8521 66
-15.3906 23.375 4.2617 97
-14.539100000000001 22.0781 -0.3081 127
-14.8906 22.6094 4.7656 235
-3.0098000000000003 4.6055 -0.9623999999999999 217
-19.875 30.3906 0.4238 149
-3.0 4.5898 -0.8295999999999999 160
-3.0605 4.6836 -0.7139 98
-16.2969 24.9375 1.7305000000000001 15
-3.0254000000000003 4.6289 -0.5767 143
-15.460899999999999 23.6562 2.3047 109
-3.0547000000000004 4.6719 -0.4521 146
-15.2031 23.2656 2.9160000000000004 77
-9.9766 15.2656 -1.0586 174
-15.3672 23.5156 3.6074 64
-13.3828 20.4688 -0.8521 95
-14.7344 22.5469 4.1016 199
-14.476600000000001 22.1562 -0.3086 8
-16.1875 24.7656 5.207000000000001 48
-2.9961 4.6211 -0.9639 230
-19.7969 30.5312 0.42460000000000003 38
-3.0058999999999996 4.6328 -0.8354 113
-3.0605 4.7188 -0.7182999999999999 84
-16.1719 24.9219 1.7256 200
-3.0176 4.6523 -0.5781000000000001 100
-16.2344 25.0312 2.4336 67
-3.0507999999999997 4.7031 -0.45409999999999995 255
-15.0781 23.25 2.9082 82
-9.9375 15.3281 -1.0605 136
-16.9844 26.1719 4.0078 229
-13.3281 20.5469 -0.8534999999999999 1
-14.6719 22.625 4.1055 173
-14.468800000000002 22.3125 -0.31010000000000004 111
-16.1875 24.9531 5.238300000000001 12
-2.998 4.6602 -0.9697 57
-19.7656 30.7031 0.426 86
-3.0214999999999996 4.6953 -0.8452 112
-3.0293 4.707 -0.7143999999999999 221
-16.0781 25.0 1.7266 136
-3.0293 4.707 -0.5835 52
-15.4375 24.0 2.3262 123
-3.0507999999999997 4.7422 -0.4568 119
-15.843800000000002 24.625 3.0742000000000003 52
-9.8906 15.3672 -1.0605 149
-15.1406 23.5312 3.5938 2
-13.273399999999999 20.625 -0.8545 67
-15.085899999999999 23.4531 4.2461 77
-14.4375 22.4375 -0.311 138
-14.6094 22.7031 4.7539 14
-3.0039 4.7031 -0.9765999999999999 159
-19.6875 30.8281 0.4268 184
-3.0469 4.7695 -0.8564 96
-16.0156 25.0781 1.0371 191
-3.0410000000000004 4.7617 -0.7212000000000001 15
-3.0312 4.7461 -0.5874 208
-15.281199999999998 23.9375 2.3164 183
-3.0702999999999996 4.8086 -0.46240000000000003 196
-15.781199999999998 24.7188 3.0762 107
-9.8281 15.3906 -1.0595999999999999 193
-15.1094 23.6562 3.6055 34
-13.1953 20.6719 -0.8545 165
-15.031199999999998 23.5469 4.2539 141
-14.4453 22.6094 -0.313 36
-14.593800000000002 22.8438 4.7734 80
-3.0077999999999996 4.75 -0.9839 70
-3.0351999999999997 4.793 -0.8584 86
-15.7422 24.8438 1.0254 248
-3.0625 4.832 -0.7304999999999999 12
-15.593800000000002 24.6094 1.6924000000000001 179
-2.998 4.7305 -0.584 136
-15.218800000000002 24.0156 2.3184 100
-3.1055 4.8984 -0.4702 147
-14.7578 23.2969 2.8945 28
-9.7734 15.4219 -1.0595999999999999 0
-14.898399999999999 23.5156 3.5742000000000003 176
-13.125 20.7188 -0.8545 14
-14.8047 23.3594 4.2109 248
-14.4375 22.7812 -0.3145 156
-14.460899999999999 22.8125 4.7539 180
-3.0293 4.8164 -0.9961 209
-15.656199999999998 24.8906 0.34299999999999997 205
-3.0332 4.8242 -0.8628 210
-15.6094 24.8281 1.0225 192
-3.1641000000000004 5.0312 -0.7587999999999999 40
-15.5078 24.6719 1.6924000000000001 93
-3.0351999999999997 4.8242 -0.5947 151
-14.7578 23.4688 2.2598 8
-3.0742000000000003 4.8906 -0.4683 31
-14.6953 23.3594 2.8964999999999996 129
-9.7188 15.460899999999999 -1.0595999999999999 18
-14.960899999999999 23.7969 3.6113 172
-13.085899999999999 20.8125 -0.8564 78
-14.156199999999998 22.5156 4.0508 25
-14.4531 22.9844 -0.31670000000000004 115
-14.460899999999999 23.0 4.7852 230
-3.0645 4.9062 -1.0127 35
-15.6094 25.0 0.34380000000000005 139
-3.0370999999999997 4.8633 -0.8682 24
-15.5547 24.9219 1.0244 254
-3.168 5.0742 -0.7642 217
-36.9688 59.2188 4.0586 163
-3.0195 4.8359 -0.5947 47
-14.7422 23.6094 2.2695 155
-3.0723000000000003 4.9219 -0.4702 121
-14.6094 23.4062 2.8945 28
-9.6797 15.5078 -1.0605 248
-14.023399999999999 22.4531 3.4004000000000003 135
-12.9922 20.7969 -0.8545 125
-14.1875 22.7188 4.0781 178
-14.476600000000001 23.1875 -0.3188 163
-14.4375 23.125 4.7969 205
-3.0410000000000004 4.9062 -1.0107 138
-15.6172 25.2031 0.3457 111
-3.0312 4.8906 -0.8711 150
-15.539100000000001 25.0781 1.0283 209
-3.1387 5.0664 -0.7612000000000001 80
-36.75 59.2812 4.0547 215
-3.043 4.9102 -0.6025 109
-14.7031 23.7344 2.2773 87
-3.0898000000000003 4.9844 -0.4753 194
-14.6406 23.625 2.9160000000000004 10
-9.6172 15.5156 -1.0595999999999999 32
-15.6094 25.1875 3.8066000000000004 166
-12.9922 20.9531 -0.8593999999999999 207
-14.218800000000002 22.9375 4.1094 169
-14.3203 23.1094 4.7852 85
-3.0195 4.918 -1.0098 38
-19.4531 31.6719 0.4338 74
-3.0410000000000004 4.9531 -0.8794 108
-3.1055 5.0586 -0.7578 67
-3.0664 4.9922 -0.6113000000000001 199
-14.648399999999999 23.8438 2.2812 52
-3.1132999999999997 5.0703 -0.48219999999999996 13
-14.773399999999999 24.0469 2.9608999999999996 213
-9.5391 15.523399999999999 -1.0576 65
-15.4531 25.1562 3.793 23
-13.8672 22.5781 4.0352 14
-14.148399999999999 23.0312 4.7578 108
-3.0137 4.9453 -1.0137 158
-3.0762 5.0508 -0.895 155
-3.0762 5.0469 -0.7548999999999999 88
-36.0938 59.2188 4.0312 180
-16.6094 27.2656 2.6035000000000004 41
-3.123 5.1289 -0.4868 167
-14.398399999999999 23.6406 2.9043 152
-9.5078 15.601600000000001 -1.0605 117
-15.5156 25.4688 3.8301 231
-14.0078 23.0 4.1016 242
-14.351600000000001 23.5625 4.8555 236
-3.0156 4.9844 -1.0195 99
-19.4062 32.0625 0.4375 220
-3.0898000000000003 5.1055 -0.9037999999999999 39
-3.0605 5.0586 -0.7554000000000001 209
-15.2578 25.2031 1.7119 102
-3.1094 5.140599999999999 -0.627 25
-16.4844 27.25 2.5976999999999997 252
-3.1308999999999996 5.175800000000001 -0.4902 64
-14.2578 23.5625 2.8887 74
-9.4766 15.664100000000001 -1.0625 233
-15.210899999999999 25.1406 3.7733999999999996 61
-12.8047 21.1562 -0.8618000000000001 28
-13.8906 22.9531 4.0859 136
-14.1719 23.4219 4.8203 127
-3.0801 5.1289 -1.0479 64
-19.3906 32.2812 0.4395 197
-3.0762 5.1211 -0.9043000000000001 160
-3.002 5.0 -0.7445999999999999 192
-15.164100000000001 25.2344 1.7109 48
-3.1191000000000004 5.1953 -0.6323 199
-3.1562 5.2578 -0.4971 91
-14.164100000000001 23.5938 2.8867000000000003 209
-9.3984 15.656199999999998 -1.0595999999999999 25
-14.2031 23.6562 3.543 171
-12.7969 21.3125 -0.8662000000000001 248
-13.789100000000001 22.9531 4.0781 62
-13.968800000000002 23.2656 4.7773 186
-3.0507999999999997 5.1211 -1.0439 230
-19.3906 32.5312 0.4421 88
-3.043 5.1094 -0.9004000000000001 28
-3.0370999999999997 5.0977 -0.7578 57
-3.1367000000000003 5.265599999999999 -0.6396000000000001 135
-7.386699999999999 12.398399999999999 -1.1748 31
-14.3906 24.1719 2.9512 164
-9.3594 15.710899999999999 -1.0615 51
-15.125 25.3906 3.7969 75
-13.7422 23.0781 4.0898 99
-13.968800000000002 23.4375 4.8047 39
-3.0254000000000003 5.1211 -1.041 114
-3.0312 5.1289 -0.9018999999999999 8
-3.0762 5.207000000000001 -0.7725 235
-14.0703 23.8125 1.6063999999999998 137
-7.332000000000001 12.406199999999998 -1.1738 63
-15.531199999999998 26.2812 3.2051 198
-9.2969 15.7344 -1.0605 22
-15.468800000000002 26.1875 3.9062 210
-12.648399999999999 21.3906 -0.8662000000000001 77
-13.4844 22.8125 4.0352 30
-15.0703 25.5156 5.2188 193
-3.0976999999999997 5.2812 -0.9272 58
-3.1132999999999997 5.3086 -0.7861 127
-14.0703 24.0 1.6162 234
-5.984400000000001 10.2031 -1.2383 110
-14.093800000000002 24.0312 2.2715 161
-7.2812 12.4219 -1.1719 58
-15.398399999999999 26.2656 3.1952999999999996 149
-9.2188 15.726600000000001 -1.0576 81
-13.773399999999999 23.4844 3.4961 242
-12.6094 21.5 -0.8687 48
-13.476600000000001 22.9688 4.0547 43
-13.468800000000002 22.9688 4.6875 95
-3.1035000000000004 5.332000000000001 -1.0811 15
-3.1367000000000003 5.386699999999999 -0.9438 109
-3.1738 5.453099999999999 -0.8062 253
-14.085899999999999 24.2031 1.626 62
-5.9297 10.1875 -1.2344 234
-14.0703 24.1719 2.2812 248
-7.2422 12.4453 -1.1729 233
-15.3594 26.3906 3.2051 90
-9.1719 15.75 -1.0576 217
-13.6953 23.5312 3.498 218
-12.5703 21.5938 -0.8706 140
-13.3203 22.8906 4.0312 186
-13.4297 23.0781 4.6992 237
-3.1289 5.421900000000001 -1.0967 107
-4.3086 7.4727 -1.3086000000000002 18
-4.9141 8.5156 -1.2598 148
-14.0703 24.3906 1.6357 65
-5.8828 10.2031 -1.2334 182
-7.175800000000001 12.4375 -1.1689 167
-15.5078 26.875 3.2558999999999996 24
-9.1094 15.7969 -1.0586 51
-14.6094 25.3281 3.7558999999999996 237
-12.523399999999999 21.7031 -0.873 75
-13.2422 22.9531 4.0352 177
-13.093800000000002 22.7031 4.6133 86
-3.7422000000000004 6.5390999999999995 -1.3213 44
-4.2812 7.480499999999999 -1.3075999999999999 50
-4.8867 8.5391 -1.2598 56
-5.855499999999999 10.2344 -1.2344 30
-7.136699999999999 12.468800000000002 -1.1699 185
-15.414100000000001 26.9375 3.2577999999999996 100
-9.0312 15.781199999999998 -1.0547 102
-14.5078 25.3594 3.752 22
-12.476600000000001 21.8125 -0.8755 91
-13.6172 23.7969 4.1719 28
-13.031199999999998 22.7812 4.6211 202
-3.7168 6.546900000000001 -1.3203 70
-4.2539 7.4961 -1.3075999999999999 135
-4.8438 8.5312 -1.2559 152
-5.8164 10.2422 -1.2334 152
-14.6172 25.75 2.4141 194
-7.0938 12.4922 -1.1699 30
-14.9453 26.3125 3.1757999999999997 22
-8.9766 15.8047 -1.0547 96
-14.4922 25.5156 3.7695 224
-12.414100000000001 21.8594 -0.8759999999999999 215
-13.523399999999999 23.8281 4.1719 255
-13.5 23.7656 4.8125 137
-3.6914 6.550800000000001 -1.3184 57
-4.2227 7.4922 -1.3047 171
-4.8203 8.5547 -1.2578 179
-33.3125 59.125 3.9452999999999996 98
-5.765599999999999 10.2344 -1.2305 228
-14.5625 25.8438 2.418 162
-7.0352 12.4844 -1.167 79
-14.851600000000001 26.3594 3.1757999999999997 200
-8.9297 15.843800000000002 -1.0556999999999999 167
-14.414100000000001 25.5781 3.7714999999999996 170
-12.398399999999999 22.0 -0.8798999999999999 247
-13.4375 23.8438 4.168 19
-12.914100000000001 22.9219 4.6289 101
-3.6719 6.574199999999999 -1.3203 230
-4.1914 7.5078 -1.3047 16
-33.0625 59.25 2.3672 138
-4.7891 8.5703 -1.2578 132
-33.0312 59.1562 3.9395 113
-5.7265999999999995 10.2578 -1.2305 203
-14.656199999999998 26.2344 2.4512 11
-6.980499999999999 12.5 -1.166 33
-14.7578 26.4375 3.1776999999999997 136
-8.8516 15.851600000000001 -1.0537 24
-14.3047 25.625 3.7695 68
-12.2656 21.9688 -0.8765000000000001 85
-13.1875 23.6094 4.1172 123
-12.835899999999999 22.9844 4.6328 19
-3.6483999999999996 6.5859000000000005 -1.3203 76
-4.1602 7.511699999999999 -1.3027000000000002 186
-4.7578 8.5859 -1.2578 12
-32.75 59.0938 3.9276999999999997 75
-5.6836 10.2578 -1.2275 171
-14.523399999999999 26.2188 2.4453 26
-6.9453 12.539100000000001 -1.167 28
-14.148399999999999 25.5469 3.0645 191
-8.7969 15.8906 -1.0537 189
-14.1328 25.5156 3.7461 27
-13.226600000000001 23.875 4.1562 153
-12.773399999999999 23.0625 4.6406 42
-3.625 6.6015999999999995 -1.3203 91
-4.1289 7.519500000000001 -1.3018 223
-4.7148 8.5859 -1.2549 129
-32.4688 59.125 3.9219 229
-5.6523 10.289100000000001 -1.2295 254
-14.4844 26.375 2.4551 147
-6.890599999999999 12.539100000000001 -1.165 230
-14.1719 25.7969 3.0879000000000003 172
-8.7344 15.898399999999999 -1.0527 114
