# .PCD v0.7 - Point Cloud Data file format
VERSION 0.7
FIELDS x y z intensity
SIZE 4 4 4 4
TYPE F F F F
COUNT 1 1 1 1
WIDTH 1220
HEIGHT 1
VIEWPOINT 0 0 0 1 0 0 0
POINTS 1220
DATA ascii
-13.6406 -5.8515999999999995 0.5166 53
-6.171900000000001 -2.6483999999999996 -0.8584 161
-13.6406 -5.8515999999999995 0.8608 84
-6.2109000000000005 -2.6641000000000004 -0.7056 179
-13.648399999999999 -5.855499999999999 1.209 118
-8.0312 -3.4473000000000003 0.9140999999999999 163
-8.0703 -3.4608999999999996 1.124 192
-11.906199999999998 -5.1094 1.9697 22
-13.539100000000001 -5.8086 -0.1714 107
-8.7734 -3.7656 1.6768 238
-6.1797 -2.627 -1.1768 165
-13.601600000000001 -5.7812 0.172 65
-6.167999999999999 -2.6211 -1.0156 226
-13.656199999999998 -5.8047 0.5166 180
-6.175800000000001 -2.625 -0.8579000000000001 97
-13.664100000000001 -5.8047 0.8608 3
-6.2148 -2.6406 -0.7051000000000001 138
-13.6406 -5.796900000000001 1.207 148
-12.398399999999999 -5.269500000000001 1.4111000000000002 141
-8.3359 -3.5410000000000004 1.1592 230
-8.8672 -3.7676 1.4619 178
-13.5469 -5.7578 -0.17129999999999998 102
-12.1875 -5.1797 2.3281 2
-6.1797 -2.6016000000000004 -1.1748 72
-13.601600000000001 -5.7265999999999995 0.1716 61
-6.1797 -2.6016000000000004 -1.0166 165
-13.656199999999998 -5.75 0.5156000000000001 123
-6.175800000000001 -2.6016000000000004 -0.8569 232
-13.664100000000001 -5.75 0.8599 151
-6.2188 -2.6191000000000004 -0.7045999999999999 121
-13.648399999999999 -5.7461 1.2061 49
-12.398399999999999 -5.2188 1.4091999999999998 235
-12.2344 -5.1523 1.7021000000000002 203
-8.7031 -3.6620999999999997 1.4325999999999999 231
-13.523399999999999 -5.6914 -0.1707 213
-8.5469 -3.5976999999999997 1.6269999999999998 124
-6.171900000000001 -2.5702999999999996 -1.1709 0
-13.6172 -5.671900000000001 0.1716 78
-6.1875 -2.5762 -1.0156 55
-13.6719 -5.6953 0.5156000000000001 37
-6.167999999999999 -2.5683999999999996 -0.8540000000000001 28
-13.664100000000001 -5.6914 0.8584 13
-6.2227 -2.5898000000000003 -0.7036 173
-13.664100000000001 -5.6914 1.2061 135
-12.3828 -5.1562 1.4053 173
-12.2422 -5.0977 1.7002000000000002 193
-11.875 -4.9453 1.9550999999999998 69
-13.531199999999998 -5.6328 -0.1705 253
-8.5312 -3.5547000000000004 1.6230000000000002 26
-6.1602 -2.541 -1.168 252
-13.593800000000002 -5.605499999999999 0.1711 110
-6.1836 -2.5508 -1.0137 25
-13.664100000000001 -5.6328 0.5142 64
-6.171900000000001 -2.5449 -0.853 59
-13.6719 -5.636699999999999 0.8579000000000001 123
-6.2109000000000005 -2.5605 -0.7012 185
-12.3828 -5.1094 1.4033000000000002 10
-12.218800000000002 -5.0391 1.6943000000000001 167
-11.8672 -4.8945 1.9512 25
-13.531199999999998 -5.578099999999999 -0.1703 114
-12.125 -5.0 2.3047 58
-6.1640999999999995 -2.5156 -1.166 249
-13.625 -5.5625 0.1711 97
-6.175800000000001 -2.5215 -1.0107 203
-12.4297 -5.0781 0.4673 94
-6.1797 -2.5234 -0.853 141
-12.4297 -5.0742 0.7783 59
-6.2109000000000005 -2.5352 -0.7001999999999999 83
-12.4219 -5.0742 1.0928 225
-12.406199999999998 -5.0664 1.4033000000000002 245
-12.218800000000002 -4.9883 1.6924000000000001 112
-11.875 -4.8477 1.9491999999999998 180
-12.1328 -4.9531 2.3047 98
-6.167999999999999 -2.4941 -1.166 22
-12.4922 -5.0508 0.1566 243
-6.1602 -2.4902 -1.0068000000000001 102
-12.406199999999998 -5.0117 0.4653 196
-6.1797 -2.498 -0.8521 238
-12.406199999999998 -5.0117 0.7759 186
-6.2109000000000005 -2.5117 -0.6997 181
-12.4219 -5.0195 1.0908 250
-12.3828 -5.0078 1.3994 4
-12.218800000000002 -4.9414 1.6904 13
-8.7188 -3.5254000000000003 1.4277000000000002 176
-12.3828 -5.0039 -0.1553 113
-12.1328 -4.9062 2.3008 185
-6.171900000000001 -2.4707 -1.165 124
-12.4375 -4.9766 0.1558 253
-6.171900000000001 -2.4707 -1.0078 201
-12.3828 -4.9531 0.4639 125
-6.175800000000001 -2.4707 -0.8501000000000001 15
-12.414100000000001 -4.9688 0.7754000000000001 232
-6.207000000000001 -2.4844 -0.6981999999999999 160
-12.398399999999999 -4.9609 1.0869 91
-12.3906 -4.9609 1.3984 2
-12.226600000000001 -4.8906 1.6885 21
-8.7422 -3.498 1.4287 82
-12.3672 -4.9492 -0.1549 68
-12.125 -4.8516 2.2949 182
-6.167999999999999 -2.4434 -1.1621 111
-12.4375 -4.9297 0.15560000000000002 18
-6.1797 -2.4473 -1.0068000000000001 248
-12.3906 -4.9102 0.4636 115
-6.1640999999999995 -2.4414 -0.8477 195
-12.4219 -4.9219 0.7748999999999999 84
-6.2188 -2.4629 -0.6981999999999999 149
-12.4375 -4.9258 1.0889 49
-12.3672 -4.8984 1.3936000000000002 70
-12.210899999999999 -4.8398 1.6846 120
-8.9062 -3.5273000000000003 1.4541 32
-12.375 -4.9023 -0.1548 32
-12.1172 -4.8008 2.291 78
-6.167999999999999 -2.418 -1.1611 218
-12.468800000000002 -4.8906 0.1558 23
-6.175800000000001 -2.4219 -1.0049 243
-12.4453 -4.8789 0.46509999999999996 178
-6.171900000000001 -2.4199 -0.8477 199
-12.4453 -4.8789 0.7748999999999999 139
-6.207000000000001 -2.4336 -0.6962999999999999 209
-12.476600000000001 -4.8945 1.0908 161
-12.3828 -4.8555 1.3925999999999998 95
-12.210899999999999 -4.7891 1.6816 50
-11.8281 -4.6367 1.9306999999999999 11
-12.398399999999999 -4.8633 -0.1549 248
-8.8906 -3.4863 1.6768 142
-6.1640999999999995 -2.3926 -1.1592 96
-12.5078 -4.8516 0.156 167
-6.171900000000001 -2.3945 -1.0029000000000001 146
-12.476600000000001 -4.8398 0.4653 63
-6.1797 -2.3984 -0.8472 107
-12.4922 -4.8477 0.7768999999999999 178
-6.2109000000000005 -2.4102 -0.6953 40
-12.5469 -4.8672 1.0957 206
-12.3828 -4.8047 1.3916 63
-12.210899999999999 -4.7383 1.6787 157
-11.843800000000002 -4.5977 1.9306999999999999 116
-12.4375 -4.8242 -0.155 234
-12.1094 -4.6992 2.2832 209
-6.175800000000001 -2.3711 -1.1592 7
-12.5625 -4.8281 0.1565 62
-6.171900000000001 -2.3711 -1.002 157
-12.539100000000001 -4.8164 0.4673 90
-6.1797 -2.373 -0.8462000000000001 252
-12.6328 -4.8516 0.7847 6
-6.2188 -2.3887 -0.6953 129
-13.5156 -5.1914 1.1797 116
-9.0234 -3.4668 1.0117 88
-8.8672 -3.4062 1.2168 228
-11.843800000000002 -4.5469 1.9277000000000002 136
-12.5 -4.8008 -0.15560000000000002 11
-12.1094 -4.6484 2.2793 143
-6.1797 -2.3477 -1.1582 130
-6.175800000000001 -2.3477 -1.001 104
-13.523399999999999 -5.140599999999999 0.5034000000000001 232
-6.1797 -2.3477 -0.8447 163
-13.539100000000001 -5.144500000000001 0.8398 232
-6.2227 -2.3652 -0.6948000000000001 42
-13.523399999999999 -5.140599999999999 1.1777 68
-8.9922 -3.418 1.0068000000000001 180
-8.875 -3.373 1.2158 56
-11.8281 -4.4961 1.9228999999999998 235
-12.601600000000001 -4.7891 -0.1567 250
-10.0312 -3.8125 1.8847999999999998 93
-6.171900000000001 -2.3203 -1.1553 104
-13.539100000000001 -5.0898 0.16820000000000002 72
-6.1797 -2.3242 -1.0 76
-13.523399999999999 -5.0859 0.5029 233
-6.171900000000001 -2.3203 -0.8428 19
-13.5469 -5.0938 0.8393999999999999 231
-6.2227 -2.3398 -0.6943 128
-13.5469 -5.0938 1.1787 202
-8.9922 -3.3827999999999996 1.0049 65
-8.8984 -3.3457 1.2168 232
-8.8438 -3.3262 1.4346 165
-13.5078 -5.0781 -0.1678 226
-10.0234 -3.7695 1.8809 210
-6.1562 -2.291 -1.1504 205
-13.5469 -5.0391 0.1681 34
-6.1836 -2.3008 -0.9995 249
-13.531199999999998 -5.0352 0.5024000000000001 115
-6.1602 -2.291 -0.8398 195
-13.531199999999998 -5.0352 0.8373999999999999 176
-6.2227 -2.3145 -0.6929000000000001 63
-13.5547 -5.043 1.1777 222
-8.9844 -3.3418 1.0029000000000001 6
-12.0469 -4.4805 1.6475 121
-8.8516 -3.2949 1.4336000000000002 1
-13.5156 -5.0273 -0.1677 223
-12.101600000000001 -4.5039 2.2695 74
-6.167999999999999 -2.2695 -1.1514 92
-13.531199999999998 -4.9805 0.1677 28
-6.175800000000001 -2.2734 -0.9971 85
-13.539100000000001 -4.9844 0.502 165
-6.167999999999999 -2.2695 -0.8398 143
-13.531199999999998 -4.9805 0.8364 210
-6.2227 -2.291 -0.6923999999999999 186
-13.531199999999998 -4.9805 1.1738 124
-9.0 -3.3125 1.0029000000000001 120
-12.0469 -4.4336 1.6455000000000002 209
-8.8594 -3.2617000000000003 1.4325999999999999 244
-13.5 -4.9688 -0.1674 42
-12.101600000000001 -4.4531 2.2656 8
-6.175800000000001 -2.248 -1.1514 186
-13.539100000000001 -4.9336 0.16760000000000003 151
-6.175800000000001 -2.248 -0.9956 230
-13.531199999999998 -4.9258 0.501 104
-6.175800000000001 -2.248 -0.8398 229
-13.539100000000001 -4.9297 0.8359000000000001 40
-6.230499999999999 -2.2695 -0.6923999999999999 201
-13.5156 -4.9219 1.1709 191
-9.0234 -3.2851999999999997 1.0049 76
-12.0781 -4.3984 1.6475 83
-8.9062 -3.2422000000000004 1.4385 112
-13.4922 -4.9141 -0.16699999999999998 113
-12.101600000000001 -4.4062 2.2637 23
-6.175800000000001 -2.2285 -1.1504 98
-13.5547 -4.8867 0.16760000000000003 75
-6.175800000000001 -2.2266 -0.9945999999999999 224
-13.5156 -4.875 0.5 211
-6.167999999999999 -2.2246 -0.8379000000000001 229
-13.531199999999998 -4.8789 0.8340000000000001 94
-6.234400000000001 -2.248 -0.6919 150
-13.531199999999998 -4.8828 1.1719 124
-9.0234 -3.2539 1.0039 91
-12.1953 -4.3984 1.6621000000000001 85
-11.8906 -4.2891 1.9209 176
-13.5078 -4.8711 -0.16699999999999998 60
-8.0469 -2.9023000000000003 1.501 20
-6.1640999999999995 -2.1992 -1.1465 73
-13.5547 -4.8359 0.1674 233
-6.1836 -2.207 -0.9945999999999999 94
-13.5156 -4.8203 0.4993 87
-6.171900000000001 -2.2031 -0.8373999999999999 1
-13.523399999999999 -4.8281 0.833 91
-6.230499999999999 -2.2227 -0.6909000000000001 236
-13.531199999999998 -4.8281 1.1699 17
-9.0391 -3.2266000000000004 1.0039 78
-12.2031 -4.3555 1.6611000000000002 66
-11.7969 -4.2109 1.9033000000000002 74
-13.4844 -4.8125 -0.16649999999999998 51
-8.0234 -2.8632999999999997 1.4941 197
-6.1562 -2.1699 -1.1436 13
-13.5547 -4.7734 0.1671 212
-6.175800000000001 -2.1758 -0.9922 230
-13.531199999999998 -4.7695 0.4993 189
-6.1797 -2.1777 -0.8373999999999999 180
-13.5156 -4.7617 0.8311 173
-6.230499999999999 -2.1953 -0.6899 215
-13.5156 -4.7617 1.167 77
-9.0547 -3.1914 1.0049 222
-12.2031 -4.2969 1.6582 232
-11.8281 -4.168 1.9053 171
-13.5 -4.7578 -0.16649999999999998 91
-8.0156 -2.8223000000000003 1.4902000000000002 64
-6.167999999999999 -2.1484 -1.1445 119
-13.5547 -4.7188 0.16690000000000002 65
-6.1640999999999995 -2.1465 -0.9887999999999999 228
-13.523399999999999 -4.7109 0.49829999999999997 190
-6.1875 -2.1543 -0.8369 123
-13.523399999999999 -4.7109 0.8306 242
-6.2265999999999995 -2.168 -0.688 103
-13.523399999999999 -4.707 1.166 155
-12.3672 -4.3047 1.3711000000000002 228
-12.1875 -4.2422 1.6543 20
-11.835899999999999 -4.1211 1.9043 171
-13.5156 -4.707 -0.16649999999999998 118
-8.9219 -3.1055 1.6582 109
-6.167999999999999 -2.127 -1.1426 125
-13.5469 -4.6719 0.16670000000000001 134
-6.1602 -2.125 -0.9873000000000001 27
-13.5156 -4.6602 0.49729999999999996 137
-6.1797 -2.1328 -0.8354 41
-13.531199999999998 -4.668 0.8301000000000001 217
-6.2265999999999995 -2.1484 -0.688 90
-9.1016 -3.1387 0.7822 80
-12.3594 -4.2656 1.3700999999999999 8
-9.3047 -3.2089999999999996 1.2607 198
-13.5078 -4.6602 -0.1663 91
-8.2188 -2.8358999999999996 1.5263999999999998 112
-6.167999999999999 -2.1035 -1.1416 250
-13.5781 -4.6328 0.16690000000000002 98
-6.1640999999999995 -2.1035 -0.9868000000000001 7
-13.539100000000001 -4.6211 0.4978 87
-6.171900000000001 -2.1055 -0.833 214
-13.6406 -4.6562 0.8359000000000001 175
-6.2422 -2.1309 -0.6884999999999999 83
-9.0859 -3.0995999999999997 0.7803 178
-9.25 -3.1562 1.0225 53
-9.3281 -3.1836 1.2627 185
-8.0312 -2.7422000000000004 1.2881 42
-13.5156 -4.6133 -0.1661 25
-8.0703 -2.7539 1.4961000000000002 119
-6.1562 -2.0742 -1.1377 201
-13.6719 -4.6094 0.1678 1
-6.175800000000001 -2.082 -0.9873000000000001 144
-13.7031 -4.6211 0.5034000000000001 225
-6.1640999999999995 -2.0781 -0.8311 21
-13.8203 -4.6602 0.8462000000000001 165
-6.2461 -2.1055 -0.688 210
-9.1094 -3.0702999999999996 0.7812 165
-9.2266 -3.1094 1.0186 27
-12.2031 -4.1133 1.6503999999999999 189
-8.0234 -2.7051 1.2841999999999998 179
-13.664100000000001 -4.6094 -0.1677 141
-8.0781 -2.7226999999999997 1.4961000000000002 90
-6.1523 -2.0508 -1.1357 42
-13.906199999999998 -4.6367 0.1705 114
-6.175800000000001 -2.0586 -0.9863 74
-14.0156 -4.668 0.5142 221
-6.167999999999999 -2.0547 -0.8306 186
-14.1406 -4.7109 0.8643000000000001 128
-6.2265999999999995 -2.0742 -0.6851 129
-9.1172 -3.0391000000000004 0.7812 47
-9.2344 -3.0781 1.0186 87
-12.2031 -4.0664 1.6484 128
-8.0391 -2.6776999999999997 1.2852000000000001 247
-13.9922 -4.6641 -0.17149999999999999 74
-8.1094 -2.7012 1.499 135
-6.1523 -2.0254 -1.1348 221
-14.210899999999999 -4.6797 0.1741 144
-6.1640999999999995 -2.0293 -0.9829000000000001 63
-14.210899999999999 -4.6797 0.521 139
-6.171900000000001 -2.0312 -0.8301000000000001 193
-14.2969 -4.707 0.873 203
-6.2265999999999995 -2.0488 -0.6840999999999999 134
-9.1172 -3.002 0.7803 156
-12.375 -4.0742 1.3643 137
-12.1953 -4.0156 1.6465 63
-8.1172 -2.6719 1.2969 181
-14.1797 -4.668 -0.17370000000000002 223
-12.085899999999999 -3.9805 2.2363 147
-6.1602 -2.0039 -1.1348 126
-14.343800000000002 -4.6641 0.1754 67
-6.1562 -2.002 -0.9804999999999999 249
-14.351600000000001 -4.668 0.5254 64
-6.175800000000001 -2.0078 -0.8295999999999999 208
-9.1484 -2.9766000000000004 0.5571 223
-6.2265999999999995 -2.0254 -0.6836 204
-9.1328 -2.9707 0.7803 179
-12.375 -4.0234 1.3633000000000002 116
-12.1875 -3.9648000000000003 1.6436000000000002 224
-8.7891 -2.8574 1.4022999999999999 38
-14.3203 -4.6602 -0.1752 147
-12.085899999999999 -3.9316000000000004 2.2324 75
-6.1602 -1.9805000000000001 -1.1338 134
-14.523399999999999 -4.668 0.1775 59
-6.1562 -1.9785 -0.9795 11
-14.5 -4.6602 0.5297999999999999 92
-6.175800000000001 -1.9853999999999998 -0.8291 28
-9.1328 -2.9355 0.5552 166
-6.230499999999999 -2.0039 -0.6836 145
-9.2109 -2.9589999999999996 0.7861 7
-12.351600000000001 -3.9707 1.3594 143
-12.1875 -3.918 1.6406 27
-6.4609000000000005 -2.0762 -0.2351 165
-8.8516 -2.8457 1.4111000000000002 246
-8.8984 -2.8613 1.6406 239
-6.1640999999999995 -1.9569999999999999 -1.1328 8
-14.718800000000002 -4.6758 0.1797 195
-6.167999999999999 -1.959 -0.9804999999999999 144
-9.0859 -2.8848000000000003 0.3311 143
-6.1640999999999995 -1.9569999999999999 -0.8262 14
-9.125 -2.8983999999999996 0.5547 107
-6.238300000000001 -1.9813999999999998 -0.6836 198
-14.8203 -4.707 1.2666 138
-12.343800000000002 -3.9199 1.3563999999999998 130
-12.1875 -3.8711 1.6396000000000002 215
-6.4336 -2.043 -0.2339 235
-14.6172 -4.6445 -0.17850000000000002 222
-12.0781 -3.8339999999999996 2.2266 32
-6.1523 -1.9306999999999999 -1.1299 154
-6.1640999999999995 -1.9346 -0.9784999999999999 245
-9.0938 -2.8535000000000004 0.3311 233
-6.171900000000001 -1.9355000000000002 -0.8262 255
-9.0859 -2.8516000000000004 0.5518 40
-6.234400000000001 -1.9561000000000002 -0.6820999999999999 242
-15.023399999999999 -4.7148 1.2822 51
-12.3594 -3.877 1.3563999999999998 46
-12.164100000000001 -3.8164 1.6347999999999998 57
-6.4414 -2.0215 -0.23399999999999999 249
-14.7969 -4.6445 -0.1805 166
-12.0703 -3.7870999999999997 2.2227 97
-6.1562 -1.9082 -1.1289 211
-9.0469 -2.8047000000000004 0.1099 89
-6.1602 -1.9091999999999998 -0.9771 52
-9.0781 -2.8145 0.3301 171
-6.1797 -1.915 -0.8267 191
-9.1016 -2.8202999999999996 0.5518 72
-6.2227 -1.9287 -0.6801999999999999 9
-15.1953 -4.7109 1.2959 243
-12.3594 -3.8301 1.3555000000000001 222
-12.1094 -3.7539 1.626 103
-6.417999999999999 -1.9893 -0.2328 67
-9.0469 -2.8026999999999997 -0.10980000000000001 14
-12.0781 -3.7422000000000004 2.2227 240
-6.1602 -1.8877000000000002 -1.1289 21
-9.0391 -2.7695 0.1097 8
-6.1523 -1.8838 -0.9745999999999999 135
-9.0781 -2.7812 0.3298 221
-6.175800000000001 -1.8925999999999998 -0.8256999999999999 133
-9.1016 -2.7891000000000004 0.5513 90
-6.230499999999999 -1.9091999999999998 -0.6807 82
-9.125 -2.7949 0.7754000000000001 163
-7.765599999999999 -2.3789 -0.6597 70
-12.351600000000001 -3.7832 1.3525 128
-12.1406 -3.7207 1.6279 126
-6.4102 -1.9638999999999998 -0.2323 71
-8.9141 -2.7305 1.415 225
-9.0234 -2.7637 -0.1094 165
-12.085899999999999 -3.7012 2.2207 123
-6.1640999999999995 -1.8662 -1.1279000000000001 28
-9.0391 -2.7344 0.10949999999999999 188
-6.1602 -1.8652000000000002 -0.9751000000000001 100
-9.0859 -2.75 0.3296 247
-6.175800000000001 -1.8691 -0.8247 34
-9.1094 -2.7577999999999996 0.5513 17
-6.238300000000001 -1.8887 -0.6807 190
-9.0938 -2.7539 0.7725 99
-7.699199999999999 -2.3301 -0.6533 68
-12.351600000000001 -3.7382999999999997 1.3516 89
-12.1719 -3.6836 1.6299000000000001 90
-6.4102 -1.9394999999999998 -0.2321 146
-8.9141 -2.6973000000000003 1.4131 215
-9.0234 -2.7305 -0.1093 207
-12.085899999999999 -3.6601999999999997 2.2207 76
-6.1523 -1.8369 -1.125 203
-9.0469 -2.7012 0.1096 175
-6.1640999999999995 -1.8397999999999999 -0.9745999999999999 112
-9.1172 -2.7226999999999997 0.3306 3
-6.167999999999999 -1.8408000000000002 -0.8228 248
-9.1484 -2.7305 0.5527000000000001 206
-6.234400000000001 -1.8603999999999998 -0.6792 186
-9.125 -2.7226999999999997 0.7739 197
-9.0859 -2.7129000000000003 0.9922 247
-12.1875 -3.6367000000000003 1.6299000000000001 4
-6.425800000000001 -1.9169999999999998 -0.2323 139
-11.8672 -3.5410000000000004 1.8818000000000001 170
-9.0312 -2.6952999999999996 -0.1093 63
-12.085899999999999 -3.6074 2.2168 59
-6.1484000000000005 -1.8115 -1.123 79
-9.0625 -2.6719 0.1096 166
-6.167999999999999 -1.8174000000000001 -0.9741 100
-15.4297 -4.5469 0.5600999999999999 230
-6.167999999999999 -1.8174000000000001 -0.8212999999999999 53
-15.4297 -4.5469 0.9331 26
-6.234400000000001 -1.8369 -0.6781999999999999 100
-9.125 -2.6895 0.7734000000000001 65
-9.0703 -2.6719 0.9887999999999999 142
-12.1719 -3.5879000000000003 1.6269999999999998 40
-6.4297 -1.8944999999999999 -0.2322 81
-11.8203 -3.4844 1.8730000000000002 30
-9.0625 -2.6699 -0.1096 13
-12.0625 -3.5547000000000004 2.209 170
-6.1562 -1.791 -1.123 97
-9.0938 -2.6445 0.10980000000000001 82
-6.1640999999999995 -1.7930000000000001 -0.9722 224
-15.4453 -4.4922 0.5600999999999999 237
-6.1836 -1.7988 -0.8231999999999999 30
-6.230499999999999 -1.8125 -0.6772 58
-9.1562 -2.6641000000000004 0.7754000000000001 55
-9.0938 -2.6445 0.9906999999999999 181
-12.164100000000001 -3.5391000000000004 1.624 246
-6.4297 -1.8700999999999999 -0.2321 52
-11.8203 -3.4375 1.8700999999999999 236
-9.125 -2.6543 -0.11019999999999999 134
-8.8125 -2.5645 1.6113 53
-6.1602 -1.7686000000000002 -1.123 207
-9.1484 -2.627 0.1105 29
-6.1562 -1.7675999999999998 -0.9702 128
-6.175800000000001 -1.7734 -0.8208 235
-6.2265999999999995 -1.7881 -0.6762999999999999 175
-9.1953 -2.6387 0.7773 143
-12.375 -3.5526999999999997 1.3486000000000002 108
-8.9609 -2.5723000000000003 1.1934 71
-6.453099999999999 -1.8525 -0.2325 179
-11.851600000000001 -3.4023000000000003 1.874 121
-12.085899999999999 -3.4707 2.2109 221
-6.167999999999999 -1.749 -1.123 115
-6.1602 -1.7461000000000002 -0.9697 129
-6.171900000000001 -1.749 -0.8193 110
-6.2422 -1.7705000000000002 -0.6777 213
-15.4531 -4.3828 1.3086000000000002 26
-9.2969 -2.6367000000000003 1.0107 178
-8.9688 -2.543 1.1934 74
-6.484400000000001 -1.8388999999999998 -0.2335 156
-8.9141 -2.5273 1.4062000000000001 135
-15.4844 -4.3906 -0.18739999999999998 72
-12.093800000000002 -3.4276999999999997 2.209 219
-6.1602 -1.7246000000000001 -1.1211 190
-6.171900000000001 -1.7275 -0.9706999999999999 132
-15.523399999999999 -4.3477 0.561 152
-6.1640999999999995 -1.7256 -0.8179000000000001 50
-15.4844 -4.3359 0.9326000000000001 147
-6.238300000000001 -1.7461000000000002 -0.6762999999999999 69
-15.4531 -4.3281 1.3075999999999999 75
-9.2734 -2.5957 1.0078 234
-8.9688 -2.5098 1.1924 44
-6.5312 -1.8281 -0.235 133
-8.9375 -2.502 1.4082 177
-15.414100000000001 -4.3164 -0.1863 46
-12.0781 -3.3808999999999996 2.2031 39
-6.1484000000000005 -1.6982 -1.1172 76
-6.1836 -1.7080000000000002 -0.9717 72
-18.8594 -5.2109000000000005 0.6816 185
-6.171900000000001 -1.7041 -0.8179000000000001 86
-21.9375 -6.0586 1.3213 128
-6.234400000000001 -1.7216999999999998 -0.6748000000000001 216
-15.460899999999999 -4.2695 1.3066 232
-9.2891 -2.5645 1.0078 147
-12.210899999999999 -3.373 1.624 21
-6.5859000000000005 -1.8193000000000001 -0.2368 86
-8.9141 -2.4609 1.4033000000000002 205
-15.460899999999999 -4.2695 -0.1866 26
-12.0703 -3.3339999999999996 2.2012 179
-6.1523 -1.6777000000000002 -1.1172 66
-18.8594 -5.140599999999999 0.22769999999999999 138
-6.1640999999999995 -1.6806999999999999 -0.9678 110
-18.875 -5.144500000000001 0.6812 187
-6.1797 -1.6846 -0.8184 9
-21.9375 -5.980499999999999 1.3203 233
-6.230499999999999 -1.6982 -0.6738 84
-15.4453 -4.2109 1.3037 153
-9.3125 -2.5371 1.0098 245
-12.1953 -3.3242000000000003 1.6200999999999999 58
-6.6328 -1.8075999999999999 -0.23829999999999998 49
-11.8047 -3.2188 1.8594 13
-17.7188 -4.832 -0.214 30
-12.0703 -3.2910000000000004 2.1992 136
-6.1640999999999995 -1.6553 -1.1181999999999999 65
-17.6406 -4.7344 0.2126 48
-6.1640999999999995 -1.6553 -0.9668000000000001 155
-19.1406 -5.136699999999999 0.6899 109
-6.1797 -1.6591999999999998 -0.8173999999999999 96
-21.9531 -5.894500000000001 1.3203 20
-6.2422 -1.6758000000000002 -0.6748000000000001 30
-15.4453 -4.1484 1.3027000000000002 188
-9.3203 -2.5039 1.0098 244
-12.1875 -3.2733999999999996 1.6181999999999999 69
-6.7461 -1.8115 -0.2422 38
-8.8359 -2.373 1.3887 240
-17.5938 -4.7266 -0.2122 25
-12.085899999999999 -3.2441000000000004 2.1992 6
-6.171900000000001 -1.6347999999999998 -1.1181999999999999 151
-17.6719 -4.6758 0.21280000000000002 221
-6.1602 -1.6318000000000001 -0.9653 202
-19.4375 -5.144500000000001 0.7001999999999999 181
-6.1640999999999995 -1.6318000000000001 -0.8149 142
-19.5625 -5.1797 1.1748 226
-6.234400000000001 -1.6513999999999998 -0.6733 56
-15.4453 -4.0898 1.3018 238
-9.3203 -2.4688 1.0088 65
-12.218800000000002 -3.2344 1.6200999999999999 31
-9.0391 -2.3926 1.4188999999999998 196
-17.5781 -4.6562 -0.2118 29
-12.0703 -3.1952999999999996 2.1934 246
-6.1602 -1.6074000000000002 -1.1152 12
-17.6875 -4.6172 0.21289999999999998 214
-6.175800000000001 -1.6122999999999998 -0.9668000000000001 205
-19.6719 -5.136699999999999 0.7084999999999999 151
-6.171900000000001 -1.6103999999999998 -0.8149 121
-19.8438 -5.1797 1.1904000000000001 107
-6.25 -1.6309 -0.6743000000000001 100
-15.460899999999999 -4.0352 1.3018 1
-9.3672 -2.4453 1.0137 155
-12.218800000000002 -3.1895 1.6191 190
-9.0938 -2.375 1.4268 123
-17.5781 -4.5898 -0.2115 67
-8.6719 -2.2637 1.5732 120
-6.1484000000000005 -1.5819999999999999 -1.1123 28
-17.7656 -4.5742 0.21359999999999998 179
-6.175800000000001 -1.5897999999999999 -0.9662999999999999 247
-12.4453 -3.2031 0.447 156
-6.1562 -1.584 -0.812 12
-12.3906 -3.1875 0.7417 44
-6.2461 -1.6074000000000002 -0.6733 76
-12.406199999999998 -3.1914 1.043 20
-9.3984 -2.418 1.0146 130
-12.210899999999999 -3.1406 1.6162 65
-6.863300000000001 -1.7656 -0.24559999999999998 43
-11.7969 -3.0351999999999997 1.8516 247
-12.3828 -3.1875 -0.1487 43
-12.0078 -3.0898000000000003 2.1797 16
-6.1562 -1.5605000000000002 -1.1123 91
-12.5156 -3.1738 0.1501 7
-6.167999999999999 -1.5644999999999998 -0.9639 151
-12.3828 -3.1406 0.4443 251
-6.1797 -1.5663999999999998 -0.8145 205
-12.375 -3.1367000000000003 0.7402 212
-6.2227 -1.5781 -0.6698999999999999 19
-12.3594 -3.1348000000000003 1.0381 174
-9.4297 -2.3906 1.0176 1
-12.218800000000002 -3.0976999999999997 1.6152000000000002 206
-11.789100000000001 -2.9882999999999997 1.8477000000000001 237
-12.335899999999999 -3.1289 -0.1479 198
-11.9531 -3.0312 2.168 218
-6.1640999999999995 -1.54 -1.1133 25
-12.4297 -3.1055 0.1489 79
-6.171900000000001 -1.5419999999999998 -0.9634 185
-12.343800000000002 -3.0858999999999996 0.4426 143
-6.1797 -1.5438999999999998 -0.8140000000000001 84
-12.351600000000001 -3.0858999999999996 0.7378 74
-6.144500000000001 -1.5361000000000002 -0.6611 183
-12.351600000000001 -3.0858999999999996 1.0361 0
-9.4609 -2.3633 1.0205 139
-12.226600000000001 -3.0547000000000004 1.6152000000000002 212
-11.773399999999999 -2.9433999999999996 1.8447 108
-12.3281 -3.082 -0.1477 40
-11.8828 -2.9688 2.1523 66
-6.167999999999999 -1.5186000000000002 -1.1133 207
-12.406199999999998 -3.0526999999999997 0.1484 21
-6.1562 -1.5156 -0.96 212
-12.3203 -3.0332 0.4414 31
-6.1640999999999995 -1.5175999999999998 -0.8115000000000001 14
-12.351600000000001 -3.0410000000000004 0.7373000000000001 62
-6.1328 -1.5097999999999998 -0.6592 8
-12.351600000000001 -3.0410000000000004 1.0352 209
-9.5078 -2.3398 1.0244 163
-6.363300000000001 -1.5674000000000001 -0.3787 168
-12.226600000000001 -3.0098000000000003 1.6143 84
-7.074199999999999 -1.7412 -0.2527 109
-11.7656 -2.8964999999999996 1.8418 117
-12.3203 -3.0332 -0.1475 101
-11.843800000000002 -2.9160000000000004 2.1426 217
-6.1562 -1.4931999999999999 -1.1094 77
-12.3672 -3.0 0.1479 25
-6.1797 -1.4980000000000002 -0.9629000000000001 190
-12.343800000000002 -2.9941000000000004 0.44189999999999996 250
-6.167999999999999 -1.4950999999999999 -0.8105 33
-12.3672 -2.998 0.7378 87
-6.105499999999999 -1.4805000000000001 -0.6557999999999999 254
-12.406199999999998 -3.0098000000000003 1.0391 4
-9.5547 -2.3164 1.0283 238
-6.3477 -1.5391 -0.3774 23
-12.226600000000001 -2.9648000000000003 1.6133000000000002 238
-11.835899999999999 -2.8691000000000004 1.8506 192
-12.3203 -2.9882999999999997 -0.14730000000000001 77
-9.1953 -2.2305 1.6611000000000002 235
-6.1484000000000005 -1.4687999999999999 -1.1074 40
-12.398399999999999 -2.9608999999999996 0.1482 230
-6.167999999999999 -1.4727000000000001 -0.9604 109
-12.3828 -2.957 0.4426 211
-6.175800000000001 -1.4746000000000001 -0.8109999999999999 157
-12.3828 -2.957 0.7383 118
-6.0977 -1.4561000000000002 -0.6543000000000001 144
-12.460899999999999 -2.9745999999999997 1.043 17
-6.171900000000001 -1.4736000000000002 -0.5146000000000001 93
-12.3594 -2.9512 1.3311000000000002 81
-6.3398 -1.5137 -0.37670000000000003 77
-9.6484 -2.3047 1.2705 35
-7.1836 -1.7158000000000002 -0.2561 129
-9.6719 -2.3086 1.5097999999999998 184
-12.335899999999999 -2.9452999999999996 -0.1475 131
-9.1875 -2.1953 1.6582 1
-6.1484000000000005 -1.4453 -1.1064 22
-12.4297 -2.9219 0.1484 163
-6.1602 -1.4482 -0.9584999999999999 152
-12.4375 -2.9238 0.4443 6
-6.175800000000001 -1.4521000000000002 -0.8105 211
-12.4453 -2.9257999999999997 0.7412000000000001 176
-6.113300000000001 -1.4375 -0.6553 124
-12.6328 -2.9707 1.0566 243
-6.2109000000000005 -1.46 -0.5176 202
-12.4453 -2.9257999999999997 1.3397999999999999 56
-6.3438 -1.4912 -0.3765 148
-9.6406 -2.2656 1.2686 193
-7.230499999999999 -1.7002000000000002 -0.2576 124
-9.6719 -2.2734 1.5078 46
-12.3828 -2.9120999999999997 -0.1478 209
-9.2031 -2.1641 1.6602000000000001 139
-6.1562 -1.4258000000000002 -1.1064 20
-12.5781 -2.9141000000000004 0.1501 175
-6.1602 -1.4268 -0.9575 46
-12.460899999999999 -2.8867000000000003 0.4451 208
-6.175800000000001 -1.4306999999999999 -0.8101 89
-12.5703 -2.9120999999999997 0.748 23
-6.125 -1.4180000000000001 -0.6562 182
-13.468800000000002 -3.1191000000000004 1.125 13
-6.2148 -1.4394999999999998 -0.5176 86
-6.3515999999999995 -1.4716999999999998 -0.37670000000000003 118
-9.6562 -2.2363 1.2695 112
-7.292999999999999 -1.6885 -0.2595 71
-9.6641 -2.2383 1.5068000000000001 187
-12.4375 -2.8789 -0.1483 24
-11.781199999999998 -2.7285000000000004 2.125 191
-6.1602 -1.4053 -1.1064 241
-13.476600000000001 -3.0742000000000003 0.16079999999999997 193
-6.1640999999999995 -1.4062000000000001 -0.9575 9
-13.4531 -3.0683999999999996 0.48 250
-6.1640999999999995 -1.4062000000000001 -0.8081 143
-13.4844 -3.0762 0.8022 230
-6.1484000000000005 -1.4022999999999999 -0.6581999999999999 226
-13.468800000000002 -3.0723000000000003 1.125 90
-13.468800000000002 -3.0723000000000003 1.4472999999999998 102
-6.3672 -1.4521000000000002 -0.3772 127
-9.6875 -2.209 1.2725 226
-7.457000000000001 -1.7012 -0.26539999999999997 18
-9.7109 -2.2148 1.5116999999999998 255
-13.4453 -3.0664 -0.1604 196
-9.5859 -2.1875 1.7266 66
-6.1484000000000005 -1.3788999999999998 -1.1035 67
-13.4844 -3.0233999999999996 0.1606 11
-6.171900000000001 -1.3847999999999998 -0.9584999999999999 102
-13.468800000000002 -3.0195 0.4802 68
-6.1640999999999995 -1.3818000000000001 -0.8070999999999999 15
-13.4844 -3.0233999999999996 0.8012999999999999 231
-6.171900000000001 -1.3838 -0.6602 1
-13.4531 -3.0176 1.123 56
-13.4844 -3.0233999999999996 1.4472999999999998 72
-6.3789 -1.4306999999999999 -0.37770000000000004 225
-12.25 -2.7461 1.6094 250
-7.6562 -1.7168 -0.2722 87
-11.9844 -2.6875 1.8672 152
-13.4453 -3.0156 -0.1603 92
-9.5859 -2.1484 1.7246000000000001 197
-6.144500000000001 -1.3555000000000001 -1.1016 216
-13.5 -2.9785000000000004 0.16079999999999997 153
-6.171900000000001 -1.3613 -0.9570000000000001 127
-13.468800000000002 -2.9726999999999997 0.48 57
-6.1640999999999995 -1.3594 -0.8066 99
-13.476600000000001 -2.9726999999999997 0.8003 69
-13.4844 -2.9745999999999997 1.124 128
-13.4844 -2.9745999999999997 1.4472999999999998 238
-12.2344 -2.6992000000000003 1.6055000000000001 188
-7.675800000000001 -1.6934 -0.2727 138
-9.8672 -2.1758 1.5341999999999998 93
-13.4531 -2.9688 -0.1602 218
-9.5859 -2.1133 1.7227000000000001 194
-6.144500000000001 -1.3330000000000002 -1.1016 225
-13.476600000000001 -2.9238 0.1604 94
-6.167999999999999 -1.3378999999999999 -0.9561 172
-13.468800000000002 -2.9219 0.47950000000000004 166
-6.171900000000001 -1.3388999999999998 -0.8066 46
-13.476600000000001 -2.9238 0.7998000000000001 65
-6.238300000000001 -1.3535 -0.6665000000000001 114
-13.468800000000002 -2.9219 1.1220999999999999 35
-13.4844 -2.9257999999999997 1.4453 66
-12.226600000000001 -2.6523000000000003 1.6035 116
-13.468800000000002 -2.9219 -0.47950000000000004 157
-9.8906 -2.1445 1.5361000000000002 89
-13.4531 -2.9199 -0.1602 131
-9.625 -2.0879 1.7294999999999998 5
-6.1523 -1.3125 -1.1016 123
-13.4844 -2.877 0.1604 66
-6.1602 -1.3144999999999998 -0.9541 205
-13.4531 -2.8691000000000004 0.47850000000000004 134
-6.171900000000001 -1.3163999999999998 -0.8066 169
-13.476600000000001 -2.875 0.7993000000000001 249
-6.261699999999999 -1.3359 -0.6685 182
-13.4531 -2.8691000000000004 1.1201 201
-13.4844 -2.875 1.4443000000000001 21
-12.2422 -2.6113 1.6044999999999998 47
-13.476600000000001 -2.875 -0.47950000000000004 112
-12.0547 -2.5702999999999996 1.8730000000000002 33
-13.460899999999999 -2.8711 -0.1602 85
-9.8906 -2.1094 1.7763999999999998 22
-6.1562 -1.291 -1.1016 14
-13.3828 -2.8047000000000004 0.1589 51
-6.1523 -1.29 -0.9521 194
-13.460899999999999 -2.8223000000000003 0.47850000000000004 118
-6.1640999999999995 -1.2919999999999998 -0.8042 102
-13.476600000000001 -2.8242000000000003 0.7983 125
-6.261699999999999 -1.3125 -0.6679999999999999 81
-13.460899999999999 -2.8223000000000003 1.1201 87
-13.476600000000001 -2.8242000000000003 1.4424000000000001 205
-12.2578 -2.5702999999999996 1.6055000000000001 143
-13.476600000000001 -2.8242000000000003 -0.479 195
-12.0703 -2.5293 1.874 15
-13.460899999999999 -2.8223000000000003 -0.15990000000000001 243
-9.8359 -2.0625 1.7646000000000002 180
-6.136699999999999 -1.2646 -1.0977 10
-13.3672 -2.7539 0.15869999999999998 53
-6.175800000000001 -1.2725 -0.9551000000000001 93
-13.460899999999999 -2.7733999999999996 0.4783 35
-6.1602 -1.2686 -0.8031999999999999 54
-13.4922 -2.7793 0.7988 220
-6.2773 -1.2930000000000001 -0.6689 65
-13.523399999999999 -2.7851999999999997 1.124 205
-13.4531 -2.7714999999999996 1.4394999999999998 114
-12.2344 -2.5195 1.6016 85
-13.4844 -2.7773000000000003 -0.4788 51
-12.0781 -2.4883 1.874 76
-13.4531 -2.7714999999999996 -0.1598 69
-11.75 -2.4199 2.1074 100
-6.144500000000001 -1.2441 -1.0977 171
-13.375 -2.7089999999999996 0.15869999999999998 109
-6.171900000000001 -1.25 -0.9541 158
-13.531199999999998 -2.7422000000000004 0.4805 233
-6.1640999999999995 -1.248 -0.8031999999999999 88
-13.539100000000001 -2.7422000000000004 0.8008 146
-6.265599999999999 -1.2695 -0.6675 179
-13.5781 -2.75 1.1279000000000001 65
-6.3984000000000005 -1.2959 -0.5297999999999999 121
-13.468800000000002 -2.7266000000000004 1.4394999999999998 119
-12.25 -2.4805 1.6016 217
-13.4844 -2.7305 -0.47850000000000004 74
-12.093800000000002 -2.4492 1.875 7
-13.4531 -2.7245999999999997 -0.1595 36
-11.7422 -2.3789 2.1055 107
-6.140599999999999 -1.2227 -1.0967 168
-13.3594 -2.6601999999999997 0.15839999999999999 142
-6.167999999999999 -1.2275 -0.9521 82
-13.5703 -2.7031 0.4814 154
-6.171900000000001 -1.2285 -0.8037000000000001 234
-13.5703 -2.7012 0.8022 154
-6.2734000000000005 -1.249 -0.6679999999999999 165
-13.5781 -2.7031 1.1279000000000001 173
-6.3047 -1.2549 -0.5215 69
-13.476600000000001 -2.6816000000000004 1.4394999999999998 192
-12.2422 -2.4375 1.6006 181
-13.460899999999999 -2.6797000000000004 -0.4775 86
-12.101600000000001 -2.4102 1.875 88
-13.4531 -2.6797000000000004 -0.1595 12
-11.7656 -2.3418 2.1074 150
-6.144500000000001 -1.1982 -1.0967 12
-13.3594 -2.6074 0.1583 52
-6.1484000000000005 -1.1992 -0.9487000000000001 28
-13.5703 -2.6483999999999996 0.48119999999999996 132
-6.1836 -1.207 -0.8051999999999999 132
-13.585899999999999 -2.6504000000000003 0.8027 124
-6.2812 -1.2256 -0.6679999999999999 209
-13.5781 -2.6483999999999996 1.126 181
-6.2852 -1.2266 -0.5195000000000001 214
-13.460899999999999 -2.627 1.4375 194
-12.25 -2.3906 1.5996000000000001 30
-13.4531 -2.625 -0.4768 238
-12.093800000000002 -2.3594 1.8721 25
-13.460899999999999 -2.625 -0.1594 14
-11.7578 -2.2949 2.1055 225
-6.1484000000000005 -1.1768 -1.0967 39
-13.3828 -2.5625 0.15839999999999999 226
-6.1562 -1.1787 -0.9492 102
-13.5547 -2.5957 0.48 195
-6.1602 -1.1797 -0.8012999999999999 104
-13.601600000000001 -2.6055 0.8031999999999999 46
-6.2422 -1.1953 -0.6636 235
-13.593800000000002 -2.6016000000000004 1.127 9
-6.292999999999999 -1.2051 -0.52 139
-13.476600000000001 -2.5801 1.4375 232
-12.2656 -2.3477 1.6006 27
-13.468800000000002 -2.5781 -0.4771 195
-11.906199999999998 -2.2812 1.8428 238
-13.4531 -2.5762 -0.1593 100
-11.781199999999998 -2.2559 2.1074 112
-6.1328 -1.1533 -1.0928 157
-13.3828 -2.5176 0.1583 136
-6.171900000000001 -1.1602 -0.9512 68
-13.5625 -2.5508 0.4802 234
-6.167999999999999 -1.1602 -0.8018000000000001 32
-13.593800000000002 -2.5566 0.8022 249
-6.3438 -1.1934 -0.6738 29
-13.593800000000002 -2.5566 1.126 187
-6.292999999999999 -1.1836 -0.5195000000000001 219
-13.4531 -2.5312 1.4346 51
-12.25 -2.3027 1.5977000000000001 181
-13.468800000000002 -2.5332 -0.4768 13
-11.851600000000001 -2.2285 1.8319999999999999 46
-13.4375 -2.5273 -0.1589 125
-11.773399999999999 -2.2129 2.1055 87
-6.1289 -1.1318000000000001 -1.0918 211
-13.375 -2.4688 0.1582 47
-6.171900000000001 -1.1396 -0.9501999999999999 235
-13.5703 -2.5059 0.48 224
-6.175800000000001 -1.1406 -0.8022 129
-13.5781 -2.5059 0.8008 141
-6.3477 -1.1719 -0.6738 206
-13.601600000000001 -2.5117 1.126 238
-6.296900000000001 -1.1631 -0.5195000000000001 192
-13.4531 -2.4824 1.4325999999999999 130
-12.25 -2.2617 1.5966999999999998 250
-13.468800000000002 -2.4863 -0.47659999999999997 190
-11.851600000000001 -2.1895 1.8319999999999999 221
-13.4375 -2.4805 -0.1589 196
-11.7656 -2.1719 2.1016 5
-6.140599999999999 -1.1104 -1.0928 143
-13.3906 -2.4219 0.1582 194
-6.144500000000001 -1.1113 -0.9458 165
-13.5625 -2.4531 0.47950000000000004 242
-6.175800000000001 -1.1172 -0.8018000000000001 117
-13.5781 -2.4551 0.8003 146
-6.2734000000000005 -1.1348 -0.6655 80
-13.5781 -2.4551 1.123 60
-6.3164 -1.1426 -0.5205 227
-13.476600000000001 -2.4355 1.4346 179
-12.2422 -2.2129 1.5947 57
-13.460899999999999 -2.4336 -0.4758 213
-11.8672 -2.1465 1.8319999999999999 111
-13.4453 -2.4316 -0.1589 21
-11.7656 -2.127 2.1016 166
-13.398399999999999 -2.375 0.1582 202
-6.140599999999999 -1.0879 -0.9443 230
-13.5547 -2.4023 0.479 158
-6.1836 -1.0957 -0.8022 48
-13.585899999999999 -2.4082 0.8003 126
-6.355499999999999 -1.127 -0.6738 100
-13.5703 -2.4043 1.1220999999999999 170
-6.3086 -1.1181999999999999 -0.52 106
-13.468800000000002 -2.3867 1.4325999999999999 170
-12.2344 -2.168 1.5928 104
-13.460899999999999 -2.3848 -0.4756 15
-12.039100000000001 -2.1348 1.8584 34
-13.4531 -2.3828 -0.1588 186
-11.773399999999999 -2.0859 2.1016 195
-6.4765999999999995 -1.124 -1.1514 53
-13.4375 -2.332 0.1586 47
-6.1484000000000005 -1.0674 -0.9448000000000001 207
-13.5547 -2.3535 0.47850000000000004 200
-6.171900000000001 -1.0713 -0.8003 214
-13.585899999999999 -2.3594 0.7993000000000001 252
-6.359400000000001 -1.1045 -0.6738 84
-13.5781 -2.3574 1.1220999999999999 105
-6.3086 -1.0957 -0.5195000000000001 247
-13.4922 -2.3418 1.4346 12
-12.2578 -2.1289 1.5947 91
-13.4453 -2.3359 -0.47490000000000004 197
-12.1172 -2.1035 1.8681999999999999 187
-13.4297 -2.332 -0.1586 109
-11.781199999999998 -2.0469 2.1016 124
-6.5078 -1.1064 -1.1562000000000001 230
-13.4453 -2.2871 0.1586 92
-6.1484000000000005 -1.0449 -0.9443 191
-13.5625 -2.3047 0.47850000000000004 146
-6.167999999999999 -1.0488 -0.7993000000000001 166
-13.5703 -2.3086 0.7983 185
-6.363300000000001 -1.082 -0.6738 131
-13.5781 -2.3086 1.1211 163
-6.328099999999999 -1.0762 -0.5205 59
-13.4922 -2.293 1.4336000000000002 239
-7.425800000000001 -1.2627 -0.4355 32
-12.2578 -2.084 1.5937999999999999 217
-13.460899999999999 -2.2891 -0.47509999999999997 149
-12.1094 -2.0586 1.8662 174
-13.4297 -2.2832 -0.1583 217
-11.7656 -2.0 2.0957 108
-6.511699999999999 -1.084 -1.1562000000000001 47
-13.4375 -2.2363 0.15839999999999999 226
-6.1523 -1.0234 -0.9443 244
-13.5625 -2.2578 0.4783 178
-6.167999999999999 -1.0273 -0.7988 134
-13.5625 -2.2578 0.7974 192
-6.296900000000001 -1.0479 -0.6665000000000001 118
-13.5703 -2.2578 1.1201 145
-13.4922 -2.2461 1.4325999999999999 48
-7.578099999999999 -1.2607 -0.4443 101
-12.25 -2.0391 1.5918 19
-13.460899999999999 -2.2402 -0.4746 236
-12.1094 -2.0156 1.8662 60
-13.4219 -2.2344 -0.1582 229
-11.7578 -1.9561000000000002 2.0938 109
-6.4961 -1.0576 -1.1533 124
-13.4219 -2.1855 0.15810000000000002 52
-6.1484000000000005 -1.001 -0.9434 67
-13.5625 -2.209 0.478 111
-6.175800000000001 -1.0059 -0.7993000000000001 4
-13.5469 -2.207 0.7959 30
-6.261699999999999 -1.0195 -0.6620999999999999 18
-13.5703 -2.209 1.1191 211
-13.523399999999999 -2.2031 1.4355000000000002 53
-7.7188 -1.2568000000000001 -0.4524 183
-12.2578 -1.9961000000000002 1.5918 195
-13.4531 -2.1914 -0.47409999999999997 231
-12.1172 -1.9736000000000002 1.8652000000000002 3
-13.4219 -2.1855 -0.1582 152
-11.7578 -1.915 2.0938 46
-6.2188 -0.9902 -1.1025 111
-13.4375 -2.1406 0.1582 140
-6.136699999999999 -0.9771 -0.9409000000000001 186
-13.539100000000001 -2.1562 0.4771 160
-6.1836 -0.9849 -0.7998000000000001 142
-13.539100000000001 -2.1562 0.7948999999999999 110
-6.2539 -0.9961 -0.6606000000000001 3
-13.5156 -2.1523 1.1143 102
-6.644500000000001 -1.0586 -0.5459 2
-13.476600000000001 -2.1465 1.4297 75
-7.730499999999999 -1.2314 -0.45289999999999997 158
-12.25 -1.9512 1.5897999999999999 140
-13.4453 -2.1426 -0.4736 103
-12.1094 -1.9287 1.8633000000000002 7
-13.4375 -2.1406 -0.1582 251
-11.7656 -1.8730000000000002 2.0918 84
-6.167999999999999 -0.9604 -1.0928 85
-13.4297 -2.0918 0.15810000000000002 225
-6.140599999999999 -0.9565 -0.9414 49
-13.4844 -2.0996 0.4746 114
-6.175800000000001 -0.9614 -0.7983 224
-13.460899999999999 -2.0957 0.79 67
-6.2734000000000005 -0.9765999999999999 -0.6626000000000001 57
-13.4453 -2.0938 1.1074 249
-13.4453 -2.0938 1.4258000000000002 226
-7.734400000000001 -1.2041 -0.45289999999999997 176
-12.273399999999999 -1.9111000000000002 1.5928 103
-13.4453 -2.0938 -0.47340000000000004 115
-12.101600000000001 -1.8838 1.8603999999999998 136
-13.4297 -2.0918 -0.15810000000000002 121
-11.7578 -1.8311000000000002 2.0918 157
-6.1211 -0.9312 -1.084 147
-13.4453 -2.0449 0.15810000000000002 234
-6.140599999999999 -0.9340999999999999 -0.9409000000000001 43
-13.4375 -2.043 0.4727 49
-6.167999999999999 -0.9384999999999999 -0.7974 180
-13.4531 -2.0469 0.7890999999999999 27
-6.269500000000001 -0.9541 -0.6620999999999999 164
-13.4453 -2.0449 1.1074 143
-13.4375 -2.0449 1.4238 222
-13.4219 -2.041 -0.7870999999999999 155
-12.2656 -1.8662 1.5908000000000002 223
-13.4531 -2.0469 -0.4736 195
-12.1094 -1.8428 1.8613 8
-13.4297 -2.043 -0.158 248
-11.7656 -1.7891 2.0898 17
-6.0703 -0.9014 -1.0742 143
-13.4531 -1.9980000000000002 0.15810000000000002 59
-6.1562 -0.9146 -0.9423999999999999 239
-13.4297 -1.9941 0.4722 176
-6.175800000000001 -0.9175 -0.7979 37
-13.4297 -1.9950999999999999 0.7870999999999999 102
-6.265599999999999 -0.9307 -0.6611 153
-13.4531 -1.999 1.1074 76
-13.4453 -1.9971 1.4238 42
-13.4453 -1.9971 -0.7881 6
-12.281199999999998 -1.8241999999999998 1.5918 175
-13.460899999999999 -2.0 -0.4736 177
-12.1172 -1.7997999999999998 1.8613 219
-13.4375 -1.9961000000000002 -0.158 248
-11.75 -1.7461000000000002 2.0879 195
-6.109400000000001 -0.8862000000000001 -1.0811 202
-13.4297 -1.9472999999999998 0.1578 24
-6.1484000000000005 -0.8916 -0.9409000000000001 9
-13.4375 -1.9482 0.47240000000000004 49
-6.1836 -0.8965000000000001 -0.7983 179
-13.4453 -1.9491999999999998 0.7876000000000001 121
-6.2422 -0.9053 -0.6587000000000001 238
-13.4375 -1.9482 1.1055 59
-6.855499999999999 -0.9941 -0.5625 158
-13.4531 -1.9502000000000002 1.4238 93
-13.4453 -1.9491999999999998 -0.7881 55
-12.273399999999999 -1.7793 1.5897999999999999 195
-13.4453 -1.9502000000000002 -0.4727 124
-12.125 -1.7578 1.8613 42
-13.4375 -1.9482 -0.1578 75
-11.7422 -1.7031 2.0859 51
-6.113300000000001 -0.8647 -1.0811 202
-13.4375 -1.9003999999999999 0.1578 123
-6.1484000000000005 -0.8695999999999999 -0.9404 109
-13.4297 -1.8994 0.4719 14
-6.1797 -0.8740000000000001 -0.7974 0
-13.4453 -1.9013999999999998 0.7876000000000001 78
-6.2578 -0.8853 -0.6597 129
-13.4219 -1.8984 1.1035 255
-6.9336 -0.9804999999999999 -0.5684 253
-13.460899999999999 -1.9033000000000002 1.4238 223
-13.468800000000002 -1.9043 -0.7886 192
-12.273399999999999 -1.7363 1.5888999999999998 100
-12.1172 -1.7138999999999998 1.8594 2
-13.4375 -1.9013999999999998 -0.1578 219
-11.7578 -1.6631 2.0859 51
-6.1328 -0.8477 -1.084 219
-13.4453 -1.8584 0.1578 243
-6.144500000000001 -0.8491 -0.9395 75
-13.4219 -1.8544999999999998 0.47119999999999995 232
-6.175800000000001 -0.8534999999999999 -0.7964 235
-13.4375 -1.8574000000000002 0.7866 240
-6.2734000000000005 -0.8672 -0.6611 163
-13.4297 -1.8563999999999998 1.1035 235
-6.894500000000001 -0.9526 -0.5649000000000001 196
-13.4453 -1.8584 1.4219 238
-13.4375 -1.8574000000000002 -0.7866 79
-12.273399999999999 -1.6972999999999998 1.5888999999999998 31
-12.101600000000001 -1.6728999999999998 1.8563999999999998 212
-13.4297 -1.8563999999999998 -0.1576 9
-11.7656 -1.626 2.0859 74
-6.1172 -0.8247 -1.0811 239
-13.4453 -1.8135 0.1577 214
-6.1797 -0.833 -0.9438 85
-13.4297 -1.8105000000000002 0.47119999999999995 213
-6.171900000000001 -0.8325 -0.7959 111
-13.4297 -1.8115 0.7856000000000001 3
-6.2734000000000005 -0.8462000000000001 -0.6606000000000001 139
-13.4297 -1.8105000000000002 1.1035 53
-6.9648 -0.9395 -0.5703 82
-12.4844 -1.6836000000000002 1.3193000000000001 118
-13.4219 -1.8105000000000002 -0.7856000000000001 104
-12.273399999999999 -1.6553 1.5878999999999999 148
-13.4297 -1.8115 -0.4714 162
-12.1094 -1.6328 1.8563999999999998 223
-13.4219 -1.8105000000000002 -0.1575 12
-11.75 -1.585 2.084 218
-6.140599999999999 -0.8042 -1.085 102
-13.4219 -1.7578 0.1575 17
-6.1953 -0.8115000000000001 -0.9462999999999999 65
-13.4297 -1.7588 0.47119999999999995 40
-6.1836 -0.8096 -0.7968999999999999 115
-12.5 -1.6366999999999998 0.731 121
-6.2773 -0.8218000000000001 -0.6606000000000001 192
-12.5078 -1.6377000000000002 1.0264 154
-7.140599999999999 -0.9346 -0.5845 199
-12.5 -1.6366999999999998 1.3203 97
-13.414100000000001 -1.7559 -0.7842 169
-12.2656 -1.6063999999999998 1.5859 38
-13.4531 -1.7616999999999998 -0.4719 158
-12.125 -1.5878999999999999 1.8574000000000002 143
-13.4297 -1.7578 -0.1575 178
-11.75 -1.5391 2.082 221
-6.1640999999999995 -0.7852 -1.0879 181
-12.4922 -1.5918 0.1464 176
-6.1836 -0.7876000000000001 -0.9438 236
-12.5078 -1.5937999999999999 0.4387 86
-6.1836 -0.7876000000000001 -0.7964 2
-12.5078 -1.5937999999999999 0.731 22
-6.2539 -0.7968999999999999 -0.6581999999999999 53
-12.5 -1.5928 1.0264 142
-7.269500000000001 -0.9258 -0.5947 90
-12.4844 -1.5908000000000002 1.3184 17
-13.414100000000001 -1.709 -0.7842 23
-12.2578 -1.5615 1.584 91
-12.5547 -1.5996000000000001 -0.44020000000000004 190
-12.085899999999999 -1.54 1.8516 23
-12.5078 -1.5928 -0.1465 64
-11.7578 -1.4980000000000002 2.082 106
-6.1836 -0.7666 -1.0908 103
-12.4922 -1.5497999999999998 0.1464 98
-6.1484000000000005 -0.7622 -0.938 196
-12.5 -1.5508000000000002 0.43799999999999994 18
-6.199199999999999 -0.769 -0.7979 105
-12.476600000000001 -1.5478999999999998 0.7290000000000001 91
-6.2734000000000005 -0.7778 -0.6597 70
-12.4297 -1.541 1.0195 79
-7.3477 -0.9111 -0.6011 60
-12.351600000000001 -1.5322 1.3037 105
-12.5078 -1.5518 -0.7304999999999999 12
-12.2578 -1.5194999999999999 1.5830000000000002 140
-12.5156 -1.5518 -0.4385 79
-11.8828 -1.4736000000000002 1.8193000000000001 226
-12.5 -1.5497999999999998 -0.1464 65
-11.75 -1.4569999999999999 2.0801 138
-6.1875 -0.7465999999999999 -1.0918 49
-12.523399999999999 -1.5107 0.1466 153
-6.1523 -0.7426999999999999 -0.9384999999999999 87
-12.3281 -1.4872999999999998 0.43189999999999995 8
-6.1875 -0.7465999999999999 -0.7959 203
-12.343800000000002 -1.4893 0.7206999999999999 55
-6.296900000000001 -0.7598 -0.6620999999999999 157
-12.3594 -1.4912 1.0137 107
-12.3047 -1.4853999999999998 1.2988 38
-12.4922 -1.5068000000000001 -0.7295 63
-12.2656 -1.4794999999999998 1.584 131
-11.875 -1.4325999999999999 1.8174000000000001 208
-11.7578 -1.4180000000000001 2.0801 92
-6.1797 -0.7212000000000001 -1.0898 130
-12.3906 -1.4463 0.145 124
-6.1562 -0.7188 -0.9384999999999999 194
-12.3125 -1.4375 0.43119999999999997 189
-6.1836 -0.7222 -0.7954000000000001 162
-12.2969 -1.4355000000000002 0.7178 108
-6.3047 -0.7363 -0.6626000000000001 107
-12.3047 -1.4365 1.0078 31
-12.2969 -1.4355000000000002 1.2959 144
-12.3281 -1.4394999999999998 -0.7197 52
-12.2578 -1.4316 1.5819999999999999 82
-12.3594 -1.4434 -0.4326 23
-11.8828 -1.3877000000000002 1.8174000000000001 52
-12.281199999999998 -1.4336000000000002 -0.1437 203
-11.75 -1.3721 2.0781 158
-6.203099999999999 -0.7021 -1.0928 65
-12.3125 -1.3936000000000002 0.1439 76
-6.1602 -0.6973 -0.9384999999999999 17
-12.289100000000001 -1.3916 0.4299 240
-6.1914 -0.7012 -0.7959 116
-12.281199999999998 -1.3906 0.7162999999999999 69
-6.3047 -0.7139 -0.6620999999999999 98
-12.3203 -1.3955000000000002 1.0098 73
-12.289100000000001 -1.3916 1.2959 105
-12.289100000000001 -1.3916 -0.7168000000000001 17
-12.2656 -1.3887 1.5819999999999999 243
-12.3125 -1.3944999999999999 -0.43090000000000006 133
-12.0078 -1.3603999999999998 1.8369 29
-12.2656 -1.3887 -0.1434 111
-11.7344 -1.3281 2.0742 174
-6.2109000000000005 -0.6826000000000001 -1.0947 167
-12.3125 -1.3525 0.1439 40
-6.1484000000000005 -0.6758 -0.937 227
-12.289100000000001 -1.3496000000000001 0.4299 116
-6.207000000000001 -0.6816 -0.7974 27
-12.2969 -1.3506 0.7168000000000001 193
-6.296900000000001 -0.6919 -0.6611 195
-12.2969 -1.3516 1.0068000000000001 252
-7.2852 -0.8003 -0.5947 22
-12.2969 -1.3516 1.2959 45
-12.281199999999998 -1.3496000000000001 -0.7162999999999999 187
-12.25 -1.3457 1.5800999999999998 135
-12.289100000000001 -1.3496000000000001 -0.4299 7
-12.125 -1.3319999999999999 1.8535 67
-12.273399999999999 -1.3486000000000002 -0.1434 88
-11.75 -1.291 2.0762 80
-6.2265999999999995 -0.6631 -1.0967 82
-12.3125 -1.3115 0.1439 101
-6.1484000000000005 -0.6548 -0.9359999999999999 173
-12.289100000000001 -1.3096 0.4299 159
-6.203099999999999 -0.6606000000000001 -0.7968999999999999 74
-12.3203 -1.3125 0.7182999999999999 247
-6.296900000000001 -0.6709 -0.6611 118
-12.335899999999999 -1.3144999999999998 1.0098 25
-7.1289 -0.7593000000000001 -0.5820000000000001 250
-12.375 -1.3184 1.3037 63
-12.289100000000001 -1.3086000000000002 -0.7162999999999999 26
-12.2578 -1.3056999999999999 1.5800999999999998 12
-12.281199999999998 -1.3086000000000002 -0.42969999999999997 1
-12.093800000000002 -1.2881 1.8477000000000001 49
-12.2969 -1.3096 -0.1437 168
-11.75 -1.252 2.0762 26
-6.2578 -0.6420999999999999 -1.1016 82
-12.351600000000001 -1.2676 0.14429999999999998 40
-6.1484000000000005 -0.6313 -0.9359999999999999 32
-12.3203 -1.2646 0.43090000000000006 251
-6.199199999999999 -0.6362 -0.7959 63
-12.351600000000001 -1.2676 0.7197 86
-6.3164 -0.6484000000000001 -0.6631 248
-12.398399999999999 -1.2725 1.0146 211
-7.1562 -0.7343999999999999 -0.584 72
-12.414100000000001 -1.2734 1.3066 158
-12.289100000000001 -1.2617 -0.7162999999999999 17
