# .PCD v0.7 - Point Cloud Data file format
VERSION 0.7
FIELDS x y z intensity
SIZE 4 4 4 4
TYPE F F F F
COUNT 1 1 1 1
WIDTH 1219
HEIGHT 1
VIEWPOINT 0 0 0 1 0 0 0
POINTS 1219
DATA ascii
-13.4453 -1.9111000000000002 1.4228999999999998 231
-13.4453 -1.9111000000000002 -0.7876000000000001 9
-12.273399999999999 -1.7450999999999999 1.5897999999999999 16
-13.4453 -1.9111000000000002 -0.47240000000000004 50
-12.1094 -1.7216999999999998 1.8594 95
-13.4453 -1.9111000000000002 -0.1578 206
-11.7578 -1.6719 2.0859 206
-6.105499999999999 -0.8462000000000001 -1.0791 241
-13.4453 -1.8633000000000002 0.1578 119
-6.1602 -0.8540000000000001 -0.9419 238
-13.4297 -1.8613 0.4717 94
-6.175800000000001 -0.856 -0.7964 91
-13.4453 -1.8633000000000002 0.7870999999999999 127
-6.2734000000000005 -0.8695999999999999 -0.6611 43
-13.4297 -1.8613 1.1035 222
-6.8711 -0.9521 -0.563 213
-13.4375 -1.8622999999999998 1.4219 230
-13.4297 -1.8603999999999998 -0.7861 35
-12.2656 -1.7002000000000002 1.5878999999999999 8
-12.1094 -1.6777000000000002 1.8574000000000002 96
-13.4297 -1.8613 -0.1577 16
-11.7578 -1.6299000000000001 2.0859 170
-6.105499999999999 -0.8256999999999999 -1.0791 201
-13.4531 -1.8193000000000001 0.1578 252
-6.2109000000000005 -0.8393999999999999 -0.9487000000000001 162
-13.4219 -1.8154 0.47119999999999995 225
-6.175800000000001 -0.835 -0.7959 25
-13.4375 -1.8174000000000001 0.7861 177
-6.2852 -0.8501000000000001 -0.6620999999999999 241
-13.4375 -1.8163999999999998 1.1035 160
-6.9375 -0.938 -0.5684 110
-12.5547 -1.6972999999999998 1.3271000000000002 75
-13.4219 -1.8154 -0.7856000000000001 32
-12.273399999999999 -1.6591999999999998 1.5878999999999999 156
-13.4297 -1.8163999999999998 -0.4717 207
-12.1172 -1.6387 1.8584 225
-13.4297 -1.8163999999999998 -0.1576 157
-11.7656 -1.5897999999999999 2.0859 211
-6.1289 -0.8081 -1.083 87
-13.4297 -1.7705000000000002 0.1575 74
-6.2188 -0.8198000000000001 -0.9501999999999999 207
-13.4453 -1.7725 0.4717 34
-6.171900000000001 -0.8140000000000001 -0.7954000000000001 187
-12.5 -1.6475 0.7304999999999999 30
-6.269500000000001 -0.8267 -0.6602 130
-12.5078 -1.6484 1.0264 224
-7.125 -0.9395 -0.5835 166
-12.5078 -1.6484 1.3213 117
-13.414100000000001 -1.7686000000000002 -0.7847 226
-12.2656 -1.6172 1.5859 250
-13.460899999999999 -1.7744 -0.4722 25
-12.1328 -1.5986000000000002 1.8594 28
-13.4297 -1.7705000000000002 -0.1575 135
-11.7422 -1.5478999999999998 2.0801 41
-6.144500000000001 -0.7870999999999999 -1.085 172
-12.539100000000001 -1.6063999999999998 0.147 241
-6.167999999999999 -0.79 -0.9419 177
-12.5156 -1.6035 0.4387 178
-6.1953 -0.7939 -0.7979 227
-12.5 -1.6016 0.7304999999999999 52
-6.2734000000000005 -0.8031999999999999 -0.6602 169
-12.5078 -1.6016 1.0264 246
-7.269500000000001 -0.9312 -0.5947 14
-12.4844 -1.5996000000000001 1.3184 169
-13.4219 -1.7187999999999999 -0.7847 48
-12.2578 -1.5703 1.584 13
-13.4453 -1.7227000000000001 -0.4717 199
-12.1172 -1.5518 1.8555000000000001 124
-12.5156 -1.6025 -0.1466 154
-11.75 -1.5049000000000001 2.082 67
-6.1875 -0.7705 -1.0918 219
-12.5156 -1.5596 0.1466 198
-6.1562 -0.7670999999999999 -0.9395 220
-12.4922 -1.5566 0.43770000000000003 1
-6.1953 -0.7715000000000001 -0.7974 128
-12.4922 -1.5556999999999999 0.73 114
-6.265599999999999 -0.7803 -0.6592 79
-12.4453 -1.5508000000000002 1.0215 130
-7.3359000000000005 -0.9136 -0.6001 39
-12.3906 -1.5438999999999998 1.3075999999999999 232
-12.5078 -1.5575999999999999 -0.7304999999999999 47
-12.2578 -1.5263999999999998 1.5830000000000002 247
-12.5 -1.5575999999999999 -0.4382 155
-11.875 -1.4794999999999998 1.8184 170
-12.4922 -1.5566 -0.1464 131
-11.7578 -1.4638999999999998 2.082 97
-6.1797 -0.748 -1.0908 153
-12.4922 -1.5116999999999998 0.1462 219
-6.1562 -0.7451000000000001 -0.9390000000000001 78
-12.351600000000001 -1.4941 0.4326 139
-6.1914 -0.7490000000000001 -0.7964 50
-12.343800000000002 -1.4931999999999999 0.7206999999999999 16
-6.2890999999999995 -0.7606999999999999 -0.6611 189
-12.335899999999999 -1.4922 1.0107 171
-12.3047 -1.4893 1.2988 134
-12.5 -1.5127000000000002 -0.73 98
-12.2656 -1.4844 1.584 186
-12.476600000000001 -1.5097999999999998 -0.43729999999999997 213
-11.875 -1.4365 1.8163999999999998 65
-11.75 -1.4219 2.0801 123
-6.1797 -0.7261 -1.0898 115
-12.3906 -1.4550999999999998 0.145 170
-6.1523 -0.7231000000000001 -0.9384999999999999 211
-12.3125 -1.4463 0.43119999999999997 82
-6.1797 -0.7256 -0.7948999999999999 3
-12.3047 -1.4453 0.7182999999999999 20
-6.292999999999999 -0.7393000000000001 -0.6611 235
-12.3281 -1.4482 1.0107 45
-12.2969 -1.4443000000000001 1.2959 36
-12.335899999999999 -1.4491999999999998 -0.7202 195
-12.273399999999999 -1.4413999999999998 1.584 85
-12.3672 -1.4531 -0.43310000000000004 48
-11.8828 -1.3955000000000002 1.8174000000000001 119
-12.273399999999999 -1.4413999999999998 -0.1436 112
-11.7422 -1.3788999999999998 2.0762 202
-6.1953 -0.7056 -1.0918 64
-12.289100000000001 -1.4003999999999999 0.1438 102
-6.1562 -0.7017 -0.9384999999999999 135
-12.289100000000001 -1.4003999999999999 0.4302 246
-6.1914 -0.7056 -0.7959 104
-12.281199999999998 -1.3994 0.7162999999999999 28
-6.296900000000001 -0.7173 -0.6616 240
-12.2969 -1.4003999999999999 1.0068000000000001 92
-12.2969 -1.4013999999999998 1.2959 126
-12.289100000000001 -1.4003999999999999 -0.7168000000000001 54
-12.2656 -1.3975 1.5819999999999999 248
-12.3203 -1.4033000000000002 -0.43119999999999997 157
-11.9531 -1.3622999999999998 1.8281 160
-12.289100000000001 -1.3994 -0.1437 137
-11.726600000000001 -1.3359 2.0742 105
-6.2188 -0.6865000000000001 -1.0957 206
-12.3125 -1.3594 0.1439 160
-6.1602 -0.6801999999999999 -0.9384999999999999 228
-12.273399999999999 -1.3555000000000001 0.4294 187
-6.1953 -0.6840999999999999 -0.7964 40
-12.281199999999998 -1.3563999999999998 0.7162999999999999 88
-6.2890999999999995 -0.6943 -0.6606000000000001 241
-12.3203 -1.3603999999999998 1.0088 187
-7.2852 -0.8042 -0.5947 118
-12.3203 -1.3603999999999998 1.2988 189
-12.281199999999998 -1.3555000000000001 -0.7162999999999999 7
-12.2422 -1.3516 1.5791 113
-12.281199999999998 -1.3555000000000001 -0.42969999999999997 2
-12.125 -1.3388999999999998 1.8535 216
-12.273399999999999 -1.3555000000000001 -0.1436 195
-11.7422 -1.2959 2.0742 145
-6.230499999999999 -0.6659999999999999 -1.0977 28
-12.3203 -1.3163999999999998 0.1439 241
-6.1484000000000005 -0.6567000000000001 -0.9359999999999999 211
-12.289100000000001 -1.3135 0.42969999999999997 78
-6.207000000000001 -0.6636 -0.7974 166
-12.3047 -1.3144999999999998 0.7173 13
-6.3047 -0.6738 -0.6620999999999999 163
-12.335899999999999 -1.3184 1.0098 245
-7.1211 -0.7606999999999999 -0.5811 197
-12.343800000000002 -1.3193000000000001 1.2997999999999998 130
-12.289100000000001 -1.3135 -0.7162999999999999 172
-12.2578 -1.3096 1.5800999999999998 82
-12.281199999999998 -1.3125 -0.4294 8
-12.1094 -1.2938999999999998 1.8496000000000001 93
-12.2969 -1.3135 -0.1437 247
-11.7422 -1.2549 2.0742 144
-6.230499999999999 -0.644 -1.0977 224
-12.335899999999999 -1.2754 0.1442 71
-6.144500000000001 -0.6353 -0.9355 136
-12.3125 -1.2725 0.4304 87
-6.207000000000001 -0.6411 -0.7968999999999999 37
-12.343800000000002 -1.2764 0.7197 77
-6.3203 -0.6533 -0.6636 124
-12.3594 -1.2773 1.0107 204
-7.1523 -0.7393000000000001 -0.584 130
-12.3672 -1.2783 1.3018 223
-12.289100000000001 -1.2705 -0.7162999999999999 43
-12.2578 -1.2666 1.5800999999999998 214
-12.2969 -1.2705 -0.4299 204
-12.1094 -1.251 1.8496000000000001 116
-12.281199999999998 -1.2695 -0.1434 31
-11.75 -1.2139 2.0762 105
-6.234400000000001 -0.6221 -1.0977 18
-12.3828 -1.2363 0.1447 80
-6.1562 -0.6147 -0.937 108
-12.335899999999999 -1.2314 0.43090000000000006 161
-6.1953 -0.6187 -0.7954000000000001 231
-12.375 -1.2354 0.7212000000000001 43
-6.332000000000001 -0.6318 -0.6640999999999999 91
-12.476600000000001 -1.2451 1.0205 69
-7.1953 -0.7182999999999999 -0.5869 71
-12.4844 -1.2461 1.3144999999999998 56
-12.3125 -1.2295 -0.7173 216
-12.4531 -1.2431999999999999 1.6044999999999998 248
-12.3281 -1.2305 -0.43090000000000006 109
-12.1094 -1.208 1.8486000000000002 5
-12.3203 -1.2295 -0.1439 85
-11.7344 -1.1709 2.0723 118
-6.2578 -0.6025 -1.1006 66
-12.4531 -1.1992 0.1454 139
-6.1640999999999995 -0.5938 -0.938 100
-12.4297 -1.1973 0.4343 156
-6.2109000000000005 -0.5981000000000001 -0.7968999999999999 107
-12.4844 -1.2021 0.7271 56
-6.3477 -0.6113000000000001 -0.6659999999999999 212
-12.5 -1.2041 1.0225 121
-7.2539 -0.6987000000000001 -0.5918 126
-12.5156 -1.2051 1.3163999999999998 25
-12.3281 -1.1875 -0.7178 214
-12.3203 -1.1865 1.5869 241
-12.375 -1.1914 -0.4324 33
-12.101600000000001 -1.165 1.8477000000000001 190
-12.3672 -1.1914 -0.1444 3
-11.7344 -1.1299 2.0723 248
-6.261699999999999 -0.583 -1.1016 208
-12.5 -1.1641 0.146 42
-6.1523 -0.5728 -0.9355 186
-12.4922 -1.1631 0.4363 51
-6.2109000000000005 -0.5786 -0.7968999999999999 45
-12.4844 -1.1621 0.7265999999999999 81
-6.3438 -0.5908 -0.665 31
-12.4922 -1.1631 1.0215 136
-7.3047 -0.6801999999999999 -0.5957 129
-12.5 -1.1641 1.3154 176
-12.3906 -1.1543 -0.7212000000000001 111
-12.460899999999999 -1.1602 1.6044999999999998 190
-12.476600000000001 -1.1611 -0.43579999999999997 128
-12.1406 -1.1309 1.8535 4
-12.4844 -1.1631 -0.1458 211
-11.7344 -1.0928 2.0703 154
-6.2812 -0.564 -1.1045 32
-12.5 -1.1220999999999999 0.1459 14
-6.1523 -0.5522 -0.9355 80
-12.5 -1.1220999999999999 0.4363 88
-6.2265999999999995 -0.5590999999999999 -0.7983 105
-12.4922 -1.1211 0.7271 77
-6.363300000000001 -0.5713 -0.667 101
-12.4844 -1.1211 1.0205 110
-7.3398 -0.6587000000000001 -0.5981000000000001 167
-12.5 -1.1220999999999999 1.3144999999999998 206
-12.4844 -1.1211 -0.7265999999999999 3
-12.476600000000001 -1.1201 1.6055000000000001 31
-12.5078 -1.1220999999999999 -0.4365 249
-12.351600000000001 -1.1084 1.8838 73
-12.5 -1.1220999999999999 -0.1459 210
-11.7422 -1.0547 2.0723 143
-6.3125 -0.5435 -1.1094 111
-12.5156 -1.0771 0.146 82
-6.167999999999999 -0.5312 -0.938 124
-12.4844 -1.0742 0.43579999999999997 146
-6.2188 -0.5352 -0.7974 122
-12.5 -1.0762 0.7275 182
-6.3828 -0.5493 -0.6689 241
-12.4922 -1.0752 1.0205 76
-7.359400000000001 -0.6338 -0.5996 245
-12.5 -1.0762 1.3144999999999998 53
-12.4844 -1.0742 -0.7265999999999999 178
-12.476600000000001 -1.0742 1.6055000000000001 183
-12.4844 -1.0752 -0.43579999999999997 3
-12.335899999999999 -1.0625 1.8818000000000001 90
-12.4844 -1.0752 -0.1456 219
-11.7422 -1.0107 2.0703 218
-6.1484000000000005 -0.5078 -1.0811 33
-12.4922 -1.0312000000000001 0.1458 202
-6.175800000000001 -0.5097999999999999 -0.9384999999999999 143
-12.4844 -1.0312000000000001 0.43579999999999997 186
-6.2227 -0.5136999999999999 -0.7974 241
-12.468800000000002 -1.0293 0.7256 181
-6.4023 -0.5288 -0.6704000000000001 177
-12.4453 -1.0273 1.0166 80
-7.390599999999999 -0.6103999999999999 -0.6021 92
-12.414100000000001 -1.0254 1.3047 56
-12.476600000000001 -1.0303 -0.7256 106
-12.4375 -1.0264 1.5996000000000001 179
-12.5 -1.0322 -0.4363 148
-12.3281 -1.0176 1.8799000000000001 108
-12.4922 -1.0312000000000001 -0.1456 30
-11.7422 -0.9697 2.0703 151
-12.468800000000002 -0.9858 0.1454 18
-6.1836 -0.489 -0.9395 114
-12.4453 -0.9834 0.4341 122
-6.234400000000001 -0.4929 -0.7988 172
-12.4453 -0.9839 0.7236 140
-6.4140999999999995 -0.5073 -0.6718999999999999 70
-12.468800000000002 -0.9858 1.0186 140
-12.476600000000001 -0.9863 -1.0186 130
-12.5 -0.9883 1.3135 160
-12.4453 -0.9839 -0.7236 185
-12.460899999999999 -0.9849 1.6025 43
-12.4453 -0.9839 -0.4341 124
-12.335899999999999 -0.9751000000000001 1.8799000000000001 240
-12.4297 -0.9823999999999999 -0.1449 21
-11.718800000000002 -0.9268000000000001 2.0664 21
-6.140599999999999 -0.4639 -1.0781 208
-12.476600000000001 -0.9423999999999999 0.1454 135
-6.1797 -0.4668 -0.9384999999999999 41
-12.4844 -0.9429000000000001 0.4353 123
-12.4844 -0.9434 0.7256 2
-6.4453 -0.4868 -0.6748000000000001 146
-12.4922 -0.9434 1.0195 147
-12.4453 -0.9399 -1.0156 128
-12.4922 -0.9438 1.3125 113
-12.4453 -0.9399 -0.7236 150
-12.468800000000002 -0.9419 1.6035 85
-12.476600000000001 -0.9423999999999999 -0.4351 157
-12.335899999999999 -0.9320999999999999 1.8799000000000001 197
-12.4844 -0.9429000000000001 -0.14550000000000002 68
-11.7344 -0.8867 2.0684 90
-6.1484000000000005 -0.4429 -1.0791 190
-12.4922 -0.8994 0.14550000000000002 181
-6.1875 -0.4456 -0.9395 205
-12.4922 -0.8998999999999999 0.4355 42
-6.2539 -0.45039999999999997 -0.8012999999999999 123
-12.4922 -0.8994 0.7256 7
-6.4688 -0.4661 -0.6772 106
-12.4844 -0.8989 1.0186 232
-12.4844 -0.8994 -1.0186 23
-12.4922 -0.8998999999999999 1.3115 62
-12.4844 -0.8989 -0.7256 133
-12.468800000000002 -0.8984000000000001 1.6035 178
-12.4844 -0.8989 -0.4353 18
-12.335899999999999 -0.8887 1.8788999999999998 121
-12.5 -0.9004000000000001 -0.1456 209
-11.7422 -0.8456999999999999 2.0684 92
-6.1602 -0.4219 -1.0811 39
-12.4922 -0.856 0.14550000000000002 254
-6.1953 -0.4243 -0.9399 190
-12.4844 -0.8554999999999999 0.4351 69
-6.2461 -0.4282 -0.8003 110
-12.4922 -0.856 0.7256 100
-6.511699999999999 -0.446 -0.6812 76
-12.4844 -0.8554999999999999 1.0186 220
-12.460899999999999 -0.8540000000000001 -1.0166 170
-12.5 -0.8564 1.3125 73
-12.4844 -0.8554999999999999 -0.7256 151
-12.476600000000001 -0.855 1.6035 220
-12.4922 -0.856 -0.4353 169
-12.4219 -0.8515999999999999 1.8925999999999998 181
-12.4844 -0.856 -0.14550000000000002 21
-11.7422 -0.8047 2.0684 159
-6.1523 -0.39990000000000003 -1.0801 121
-12.5078 -0.8134999999999999 0.1456 81
-6.207000000000001 -0.4036 -0.9419 214
-12.476600000000001 -0.8115000000000001 0.43479999999999996 145
-6.2461 -0.406 -0.7993000000000001 52
-12.4922 -0.812 0.7256 97
-6.546900000000001 -0.42579999999999996 -0.6851 84
-12.4844 -0.812 1.0186 16
-12.476600000000001 -0.8109999999999999 -1.0176 173
-12.4844 -0.8115000000000001 1.3096 98
-12.4844 -0.8115000000000001 -0.7251000000000001 62
-12.4922 -0.812 1.6044999999999998 210
-12.4844 -0.812 -0.4353 45
-12.4453 -0.8090999999999999 1.8944999999999999 43
-12.4844 -0.8115000000000001 -0.1454 155
-12.164100000000001 -0.7905 2.1406 150
-6.144500000000001 -0.3779 -1.0781 41
-12.4922 -0.7686 0.14550000000000002 103
-6.2109000000000005 -0.3821 -0.9423999999999999 5
-12.4844 -0.7681 0.4351 205
-6.2461 -0.384 -0.7993000000000001 210
-12.476600000000001 -0.7676000000000001 0.7245999999999999 73
-6.5664 -0.40380000000000005 -0.6865000000000001 187
-12.4922 -0.7686 1.0186 17
-12.4844 -0.7676000000000001 -1.0176 162
-12.4844 -0.7681 1.3105000000000002 91
-12.468800000000002 -0.7670999999999999 -0.7241 142
-12.468800000000002 -0.7670999999999999 1.6016 198
-12.4922 -0.7686 -0.4353 90
-12.460899999999999 -0.7661 1.8965 6
-12.4844 -0.7681 -0.1454 76
-10.1484 -0.6245 1.7861000000000002 68
-6.1602 -0.35840000000000005 -1.0801 13
-12.476600000000001 -0.7256 0.14529999999999998 32
-6.207000000000001 -0.3611 -0.9414 231
-12.4922 -0.7265999999999999 0.4351 220
-6.25 -0.3638 -0.8003 16
-12.476600000000001 -0.7261 0.7245999999999999 168
-6.5898 -0.3835 -0.6895 104
-12.4844 -0.7261 1.0176 120
-12.4844 -0.7265999999999999 -1.0186 202
-12.4922 -0.7271 1.3105000000000002 7
-12.476600000000001 -0.7261 -0.7245999999999999 116
-12.460899999999999 -0.7251000000000001 1.6006 60
-12.4844 -0.7265999999999999 -0.43479999999999996 201
-12.476600000000001 -0.7261 1.8994 89
-12.5 -0.7271 -0.14550000000000002 244
-10.1875 -0.5928 1.7919999999999998 57
-6.171900000000001 -0.3386 -1.082 161
-12.4844 -0.6851 0.14529999999999998 187
-6.199199999999999 -0.34009999999999996 -0.9399 133
-12.476600000000001 -0.6846 0.4346 254
-6.234400000000001 -0.342 -0.7979 90
-12.4922 -0.6851 0.7251000000000001 136
-6.6289 -0.3638 -0.6934 229
-12.476600000000001 -0.6846 1.0166 85
-12.468800000000002 -0.6840999999999999 -1.0166 154
-12.5 -0.6855 1.3115 54
-12.476600000000001 -0.6846 -0.7245999999999999 222
-12.468800000000002 -0.6840999999999999 1.6006 74
-12.4844 -0.6846 -0.43479999999999996 218
-12.468800000000002 -0.6840999999999999 1.8975 80
-12.4922 -0.6851 -0.1454 48
-12.3828 -0.6792 2.1797 87
-6.1797 -0.3164 -1.084 81
-12.4922 -0.6392 0.1454 191
-6.2109000000000005 -0.3179 -0.9419 53
-12.476600000000001 -0.6386999999999999 0.4343 50
-6.2461 -0.3196 -0.7988 68
-12.4922 -0.6392 0.7251000000000001 112
-6.6602 -0.3408 -0.6962999999999999 246
-12.476600000000001 -0.6386999999999999 1.0166 63
-12.468800000000002 -0.6382 -1.0156 66
-12.4844 -0.6392 1.3096 80
-12.4844 -0.6392 -0.7245999999999999 109
-12.476600000000001 -0.6386999999999999 1.6016 242
-12.476600000000001 -0.6386999999999999 -0.4343 75
-12.460899999999999 -0.6377 1.8965 124
-12.476600000000001 -0.6386999999999999 -0.14529999999999998 68
-10.2578 -0.5249 1.8027000000000002 122
-6.175800000000001 -0.29469999999999996 -1.083 175
-12.4922 -0.5957 0.14529999999999998 68
-6.2265999999999995 -0.2969 -0.9438 217
-12.476600000000001 -0.5952000000000001 0.4346 168
-12.4844 -0.5952000000000001 0.7245999999999999 161
-6.7109000000000005 -0.3201 -0.7017 225
-12.5 -0.5957 1.0186 159
-12.468800000000002 -0.5947 -1.0156 92
-12.4844 -0.5952000000000001 1.3086000000000002 43
-12.476600000000001 -0.5952000000000001 -0.7241 60
-12.468800000000002 -0.5942000000000001 1.5996000000000001 93
-12.4844 -0.5952000000000001 -0.43479999999999996 207
-12.460899999999999 -0.5942000000000001 1.8955000000000002 33
-12.468800000000002 -0.5947 -0.1451 237
-10.2344 -0.4878 1.7988 228
-6.1797 -0.2729 -1.083 5
-12.4922 -0.5518 0.14529999999999998 251
-6.234400000000001 -0.2754 -0.9448000000000001 186
-12.4844 -0.5518 0.4346 206
-6.2890999999999995 -0.2778 -0.8042 158
-12.476600000000001 -0.5513 0.7236 227
-6.7265999999999995 -0.2974 -0.7031000000000001 242
-12.4844 -0.5518 1.0166 30
-12.4844 -0.5518 -1.0176 87
-12.468800000000002 -0.5508 1.3075999999999999 120
-12.468800000000002 -0.5513 -0.7236 17
-12.460899999999999 -0.5508 1.5996000000000001 66
-12.4844 -0.5518 -0.43479999999999996 165
-12.468800000000002 -0.5508 1.8965 227
-12.4844 -0.5513 -0.1451 178
-12.375 -0.5468999999999999 2.1758 52
-6.1875 -0.25170000000000003 -1.085 9
-12.476600000000001 -0.5078 0.1451 85
-6.238300000000001 -0.25370000000000004 -0.9453 234
-12.476600000000001 -0.5078 0.4343 85
-6.359400000000001 -0.2588 -0.813 124
-12.476600000000001 -0.5078 0.7236 165
-6.765599999999999 -0.2751 -0.7070000000000001 110
-12.476600000000001 -0.5078 1.0166 83
-12.4844 -0.5078 -1.0166 134
-12.4844 -0.5083 1.3086000000000002 3
-12.476600000000001 -0.5078 -0.7236 159
-12.4453 -0.5063 1.5977000000000001 74
-12.4922 -0.5083 -0.43479999999999996 10
-12.4844 -0.5078 1.8984 99
-12.4844 -0.5078 -0.1451 207
-12.3672 -0.5034000000000001 2.1758 189
-6.203099999999999 -0.23070000000000002 -1.0869 140
-12.476600000000001 -0.46409999999999996 0.1451 183
-6.2422 -0.2322 -0.9458 21
-12.476600000000001 -0.4639 0.4341 90
-6.3711 -0.2369 -0.8145 246
-12.476600000000001 -0.46409999999999996 0.7236 170
-6.7890999999999995 -0.25239999999999996 -0.7095 218
-12.468800000000002 -0.4636 1.0156 147
-12.476600000000001 -0.46409999999999996 -1.0166 88
-12.4922 -0.4646 1.3086000000000002 232
-12.468800000000002 -0.4639 -0.7231000000000001 10
-12.460899999999999 -0.46340000000000003 1.5986000000000002 149
-12.476600000000001 -0.4639 -0.4341 3
-12.476600000000001 -0.4639 1.8965 218
-12.468800000000002 -0.4639 -0.145 124
-12.398399999999999 -0.4612 2.1797 227
-6.207000000000001 -0.20920000000000002 -1.0879 87
-12.4844 -0.4207 0.1451 27
-6.25 -0.21059999999999998 -0.9473 149
-12.460899999999999 -0.4199 0.4336 255
-6.363300000000001 -0.2145 -0.8134999999999999 251
-12.4844 -0.4207 0.7241 244
-6.890599999999999 -0.2322 -0.7202 0
-12.476600000000001 -0.4204 1.0156 253
-12.468800000000002 -0.4202 -1.0156 0
-12.4844 -0.4207 1.3086000000000002 60
-12.476600000000001 -0.4204 -0.7236 64
-12.460899999999999 -0.4199 1.5986000000000002 122
-12.476600000000001 -0.4204 -0.4341 90
-12.468800000000002 -0.4202 1.8955000000000002 42
-12.468800000000002 -0.4202 -0.145 176
-12.3828 -0.4172 2.1758 30
-6.2148 -0.18760000000000002 -1.0889 143
-12.4844 -0.3772 0.1451 119
-6.2773 -0.18960000000000002 -0.9512 145
-12.468800000000002 -0.37670000000000003 0.4338 247
-6.375 -0.19260000000000002 -0.8149 118
-12.476600000000001 -0.37670000000000003 0.7231000000000001 177
-6.9102 -0.2087 -0.7222 227
-12.476600000000001 -0.377 1.0166 152
-12.476600000000001 -0.37670000000000003 -1.0156 208
-12.468800000000002 -0.37670000000000003 1.3066 158
-12.476600000000001 -0.377 -0.7236 107
-12.460899999999999 -0.3762 1.5977000000000001 156
-12.4844 -0.3772 -0.4343 179
-12.468800000000002 -0.3765 1.8955000000000002 250
-12.460899999999999 -0.3765 -0.1449 47
-10.0391 -0.3032 1.7637 106
-6.2109000000000005 -0.1659 -1.0879 55
-12.4844 -0.3335 0.1451 132
-6.3047 -0.16829999999999998 -0.9551000000000001 48
-12.4844 -0.3335 0.4343 72
-6.4609000000000005 -0.1726 -0.8256999999999999 108
-12.4531 -0.3328 0.7222 39
-6.9648 -0.18600000000000003 -0.7275 221
-12.4844 -0.3335 1.0166 71
-12.476600000000001 -0.3333 -1.0156 142
-12.476600000000001 -0.3333 1.3066 149
-12.460899999999999 -0.33299999999999996 -0.7227 35
-12.4531 -0.3328 1.5977000000000001 53
-12.5 -0.33399999999999996 -0.43479999999999996 158
-12.476600000000001 -0.3333 1.8965 237
-12.468800000000002 -0.33299999999999996 -0.1449 196
-10.0547 -0.2686 1.7656 23
-6.2188 -0.1444 -1.0898 81
-12.460899999999999 -0.2893 0.1449 99
-6.3203 -0.1467 -0.9575 77
-12.476600000000001 -0.2898 0.4341 239
-6.4648 -0.1501 -0.8262 16
-12.468800000000002 -0.2896 0.7231000000000001 204
-7.015599999999999 -0.1628 -0.7329000000000001 91
-12.468800000000002 -0.2896 1.0146 247
-12.4844 -0.2898 -1.0166 98
-12.476600000000001 -0.2898 1.3075999999999999 209
-12.460899999999999 -0.2893 -0.7227 37
-12.4453 -0.2891 1.5957 8
-12.476600000000001 -0.2898 -0.4341 4
-12.476600000000001 -0.2896 1.8965 244
-12.476600000000001 -0.2898 -0.145 119
-12.375 -0.2874 2.1758 176
-6.2539 -0.1234 -1.0957 1
-12.4844 -0.2462 0.1451 119
-6.324199999999999 -0.12480000000000001 -0.9584999999999999 91
-12.468800000000002 -0.2458 0.4336 71
-6.5039 -0.1283 -0.8315 14
-12.476600000000001 -0.24609999999999999 0.7231000000000001 217
-12.468800000000002 -0.2458 -1.3056999999999999 99
-12.468800000000002 -0.24600000000000002 1.0146 151
-12.468800000000002 -0.24600000000000002 -1.0146 82
-12.4922 -0.2463 1.3086000000000002 232
-12.476600000000001 -0.24609999999999999 -0.7231000000000001 15
-12.4531 -0.2457 1.5977000000000001 213
-12.468800000000002 -0.24600000000000002 -0.4338 106
-12.460899999999999 -0.2458 1.8944999999999999 240
-12.476600000000001 -0.24609999999999999 -0.145 241
-12.375 -0.2441 2.1758 165
-6.2812 -0.10300000000000001 -1.1006 210
-12.468800000000002 -0.2046 0.145 47
-6.3515999999999995 -0.1042 -0.9619 99
-12.4531 -0.2043 0.43329999999999996 193
-6.5312 -0.1072 -0.835 73
-12.476600000000001 -0.2047 0.7231000000000001 113
-12.476600000000001 -0.2047 -1.3075999999999999 93
-12.476600000000001 -0.2046 1.0156 105
-12.460899999999999 -0.2045 -1.0146 154
-12.476600000000001 -0.2047 1.3066 242
-12.476600000000001 -0.2047 -0.7231000000000001 27
-12.4531 -0.20420000000000002 1.5957 235
-12.468800000000002 -0.2046 -0.4336 74
-12.460899999999999 -0.2045 1.8936000000000002 48
-12.468800000000002 -0.2046 -0.1449 224
-12.375 -0.203 2.1738 95
-6.2812 -0.08220000000000001 -1.1006 3
-12.4844 -0.1635 0.1451 120
-6.3789 -0.08349999999999999 -0.9662999999999999 53
-12.468800000000002 -0.1632 0.4336 149
-6.5625 -0.0859 -0.8384 85
-12.468800000000002 -0.1632 0.7227 135
-12.476600000000001 -0.16329999999999997 -1.3066 222
-12.4844 -0.16329999999999997 1.0156 136
-12.468800000000002 -0.1632 -1.0146 22
-12.468800000000002 -0.16329999999999997 1.3066 178
-12.460899999999999 -0.1632 -0.7227 160
-12.4531 -0.1631 1.5966999999999998 110
-12.476600000000001 -0.16329999999999997 -0.4341 0
-12.460899999999999 -0.1631 1.8936000000000002 59
-12.4531 -0.1631 -0.1448 33
-12.3594 -0.16190000000000002 2.1719 52
-6.300800000000001 -0.0594 -1.1035 198
-12.468800000000002 -0.1176 0.1449 0
-6.4062 -0.0604 -0.9702 253
-12.468800000000002 -0.1176 0.4338 2
-6.6289 -0.0625 -0.8472 237
-12.460899999999999 -0.1175 0.7227 173
-12.460899999999999 -0.1174 -1.3047 126
-12.476600000000001 -0.1176 1.0156 123
-12.476600000000001 -0.1176 -1.0156 94
-12.460899999999999 -0.1175 1.3056999999999999 12
-12.460899999999999 -0.1174 -0.7222 25
-12.4531 -0.1174 1.5966999999999998 216
-12.476600000000001 -0.1176 -0.4338 43
-12.460899999999999 -0.1175 1.8944999999999999 74
-12.460899999999999 -0.1174 -0.1448 248
-12.3594 -0.1165 2.1719 196
-6.3438 -0.037599999999999995 -1.1113 197
-12.468800000000002 -0.07400000000000001 0.1449 110
-6.425800000000001 -0.0381 -0.9736 233
-12.476600000000001 -0.07400000000000001 0.4338 95
-6.6640999999999995 -0.039599999999999996 -0.8515999999999999 225
-12.460899999999999 -0.07400000000000001 0.7222 245
-12.4531 -0.0739 -1.3047 49
-12.468800000000002 -0.07400000000000001 1.0146 61
-12.468800000000002 -0.07400000000000001 -1.0146 134
-12.476600000000001 -0.07400000000000001 1.3066 5
-12.460899999999999 -0.07400000000000001 -0.7222 202
-12.4531 -0.0739 1.5957 223
-12.468800000000002 -0.07400000000000001 -0.4338 227
-12.476600000000001 -0.07400000000000001 1.8955000000000002 150
-12.468800000000002 -0.07400000000000001 -0.1449 171
-12.375 -0.07339999999999999 2.1738 184
-6.3672 -0.015600000000000001 -1.1152 101
-12.468800000000002 -0.0305 0.1449 57
-3.752 -0.0092 -0.5659000000000001 83
-12.468800000000002 -0.0305 0.4336 107
-6.7188 -0.016399999999999998 -0.8589 160
-12.468800000000002 -0.0305 0.7227 109
-12.4531 -0.0304 -1.3047 189
-12.4453 -0.0304 1.0127 44
-12.460899999999999 -0.0305 -1.0146 110
-12.5156 -0.030600000000000002 1.3105000000000002 96
-12.460899999999999 -0.0304 -0.7222 219
-12.4531 -0.0304 1.5966999999999998 236
-12.3828 -0.030299999999999997 -0.4307 221
-12.460899999999999 -0.0304 1.8936000000000002 127
-12.476600000000001 -0.0305 -0.145 170
-12.375 -0.0302 2.1738 227
-6.363300000000001 0.0067 -1.1143 141
-12.476600000000001 0.0131 0.145 133
-3.7207 0.0039000000000000003 -0.561 102
-12.4453 0.013000000000000001 0.4329 124
-3.9257999999999997 0.0040999999999999995 -0.49950000000000006 152
-12.4922 0.0131 0.7241 68
-12.460899999999999 0.013000000000000001 -1.3047 130
-12.539100000000001 0.0131 1.0205 195
-12.4531 0.013000000000000001 -1.0137 26
-12.5547 0.0131 1.3144999999999998 88
-12.468800000000002 0.0131 -0.7227 32
-12.460899999999999 0.013000000000000001 1.5966999999999998 15
-12.3672 0.013000000000000001 -0.4302 248
-12.460899999999999 0.013000000000000001 1.8936000000000002 61
-12.4453 0.013000000000000001 -0.1447 114
-12.351600000000001 0.0129 2.1699 179
-4.2266 0.0192 -0.7378 88
-12.5156 0.056799999999999996 0.1454 21
-3.6367000000000003 0.0165 -0.5478999999999999 6
-3.8262 0.0174 -0.4868 162
-12.539100000000001 0.056900000000000006 0.7271 94
-12.468800000000002 0.056600000000000004 -1.3066 166
-12.5781 0.0571 1.0234 7
-12.4531 0.0565 -1.0137 175
-12.5781 0.0571 1.3174000000000001 50
-12.460899999999999 0.0565 -0.7227 30
-12.460899999999999 0.0565 1.5977000000000001 39
-12.375 0.0562 -0.4302 110
-12.4531 0.0565 1.8916 92
-12.4922 0.0567 -0.1451 123
-12.3594 0.056100000000000004 2.1719 124
-3.4922000000000004 0.027999999999999997 -0.6084 77
-12.539100000000001 0.1007 0.1458 233
-3.6074 0.028999999999999998 -0.5439 84
-12.5625 0.1009 0.43700000000000006 110
-3.7148000000000003 0.0298 -0.47240000000000004 190
-12.5703 0.1009 0.7284999999999999 5
-12.4531 0.1 -1.3037 143
-12.6875 0.10189999999999999 1.0332 88
-12.460899999999999 0.1 -1.0146 201
-12.75 0.1024 1.335 138
-12.4531 0.1 -0.7217 21
-12.4531 0.1 1.5966999999999998 114
-12.375 0.09939999999999999 -0.4304 101
-12.460899999999999 0.1 1.8936000000000002 220
-12.523399999999999 0.10060000000000001 -0.1456 162
-12.3594 0.0992 2.1719 66
-3.4492000000000003 0.0397 -0.6006 89
-12.5781 0.1449 0.1462 169
-3.5332 0.0407 -0.5322 135
-12.625 0.1454 0.439 158
-3.6483999999999996 0.042 -0.4639 18
-12.7422 0.1467 0.7387999999999999 13
-12.468800000000002 0.1437 -1.3066 67
-12.7578 0.147 1.0391 83
-12.460899999999999 0.1436 -1.0146 46
-12.773399999999999 0.1471 1.3378999999999999 140
-12.4531 0.1434 -0.7217 99
-12.4453 0.1434 1.5957 83
-12.3672 0.1425 -0.4299 168
-12.460899999999999 0.1436 1.8936000000000002 233
-12.476600000000001 0.1437 -0.145 82
-12.3594 0.1423 2.1719 46
-3.4043 0.051100000000000007 -0.5932999999999999 86
-12.6328 0.18960000000000002 0.1469 63
-3.4941000000000004 0.0524 -0.5264 182
-12.5078 0.1877 0.4351 64
-3.5879000000000003 0.053899999999999997 -0.4561 145
-12.7422 0.1913 0.7387999999999999 51
-4.0078 0.0602 -0.4167 147
-12.7656 0.1917 1.0391 218
-12.4531 0.1869 -1.0137 165
-12.7656 0.1917 1.3378999999999999 81
-12.460899999999999 0.187 -0.7222 56
-12.4531 0.187 1.5966999999999998 33
-12.351600000000001 0.18539999999999998 -0.42969999999999997 142
-12.4453 0.1869 1.8916 95
-12.375 0.1858 -0.1439 182
-12.3828 0.1858 2.1758 157
-3.3651999999999997 0.0617 -0.5859000000000001 201
-12.656199999999998 0.23190000000000002 0.1471 1
-3.4336 0.0629 -0.5171 74
-12.6719 0.2323 0.4407 161
-3.5117000000000003 0.0644 -0.44630000000000003 114
-12.7578 0.23379999999999998 0.7397 235
-3.8906 0.0713 -0.4043 196
-12.7578 0.2339 1.0391 142
-12.4375 0.228 -1.0127 3
-12.7656 0.2339 1.3369 213
-12.4531 0.22829999999999998 -0.7222 82
-12.4531 0.22829999999999998 1.5966999999999998 166
-12.3594 0.2266 -0.4299 93
-12.4453 0.2281 1.8916 210
-12.398399999999999 0.2273 -0.1442 157
-12.375 0.2268 2.1738 160
-3.3301 0.0721 -0.5801 237
-12.6719 0.27440000000000003 0.14730000000000001 37
-3.3711 0.0729 -0.5073 170
-12.664100000000001 0.2742 0.4407 14
-3.4608999999999996 0.07490000000000001 -0.4397 167
-12.75 0.2759 0.7393000000000001 66
-3.7733999999999996 0.0817 -0.3921 131
-12.7656 0.2764 1.0391 50
-12.75 0.2759 1.3359 97
-12.4531 0.2695 -0.7217 27
-12.460899999999999 0.2698 1.5977000000000001 194
-12.3906 0.2681 -0.43090000000000006 222
-12.4453 0.2693 1.8916 230
-12.398399999999999 0.2683 -0.14400000000000002 203
-12.3594 0.2676 2.1738 228
-3.2577999999999996 0.0825 -0.5674 251
-12.6406 0.3201 0.147 42
-3.3339999999999996 0.08439999999999999 -0.502 238
-12.593800000000002 0.3188 0.4382 49
-3.4375 0.087 -0.4368 113
-12.718800000000002 0.3218 0.7373000000000001 81
-3.6855 0.0933 -0.3831 223
-12.773399999999999 0.3232 1.04 67
-3.9101999999999997 0.0989 -0.3157 47
-12.7578 0.32299999999999995 1.3369 212
-12.4453 0.3152 -0.7217 65
-12.4531 0.3152 1.5966999999999998 182
-12.398399999999999 0.31370000000000003 -0.43119999999999997 105
-12.4531 0.3152 1.8925999999999998 164
-12.406199999999998 0.314 -0.14429999999999998 61
-12.343800000000002 0.3125 2.1699 81
-3.2422000000000004 0.0934 -0.5645 138
-12.5781 0.36229999999999996 0.1462 248
-3.3145 0.0955 -0.499 207
-12.656199999999998 0.36469999999999997 0.4404 48
-3.3964999999999996 0.0978 -0.4316 144
-12.7422 0.36719999999999997 0.7393000000000001 85
-3.5995999999999997 0.1036 -0.3738 68
-12.75 0.36719999999999997 1.0381 242
-3.7851999999999997 0.1091 -0.3057 146
-12.7578 0.3674 1.3369 176
-12.4453 0.35840000000000005 -0.7217 79
-12.4297 0.3582 1.5947 132
-12.3828 0.3567 -0.43090000000000006 92
-12.460899999999999 0.3591 1.8944999999999999 204
-12.414100000000001 0.3574 -0.14429999999999998 14
-12.351600000000001 0.3557 2.1719 113
-3.2031 0.1035 -0.5576 106
-12.6328 0.4082 0.147 225
-3.2617000000000003 0.1054 -0.49119999999999997 183
-12.6328 0.408 0.4395 41
-3.3887 0.1094 -0.4307 204
-12.7344 0.4114 0.7387999999999999 143
-3.5312 0.114 -0.3667 98
-12.75 0.41159999999999997 1.0381 121
-3.6973000000000003 0.11939999999999999 -0.2986 164
-12.7578 0.4121 1.3369 4
-12.4375 0.40159999999999996 1.5947 13
-12.398399999999999 0.4004 -0.4314 3
-12.4453 0.4019 1.8916 198
-12.5078 0.40409999999999996 -0.1454 209
-12.3672 0.3994 2.1738 88
-3.1620999999999997 0.11320000000000001 -0.5503 43
-12.648399999999999 0.4526 0.1471 43
-3.2188 0.1152 -0.48460000000000003 159
-12.6328 0.4521 0.4397 129
-3.3594 0.12029999999999999 -0.42700000000000005 82
-12.6797 0.4539 0.7358 217
-3.5254000000000003 0.12619999999999998 -0.36619999999999997 52
-12.7422 0.4561 1.0381 131
-3.6582 0.1309 -0.2952 68
-12.75 0.45649999999999996 1.3369 112
-3.8926 0.1394 -0.22399999999999998 29
-12.4531 0.4458 1.5977000000000001 51
-12.4219 0.4446 -0.4321 18
-12.4375 0.4451 1.8906 129
-12.531199999999998 0.4487 -0.1458 187
-12.3594 0.4426 2.1738 145
-3.1504000000000003 0.12380000000000001 -0.5488000000000001 17
-12.6172 0.49579999999999996 0.1467 178
-3.1992000000000003 0.12560000000000002 -0.4817 179
-12.5 0.49119999999999997 0.4351 33
-3.3047000000000004 0.12990000000000002 -0.4199 203
-12.6953 0.499 0.7368000000000001 94
-3.5176 0.1382 -0.3655 249
-12.7656 0.5015 1.04 54
-3.582 0.1407 -0.2891 28
-12.75 0.501 1.3369 88
-3.7891000000000004 0.14880000000000002 -0.21789999999999998 144
-12.4531 0.4893 1.5977000000000001 41
-12.4297 0.4885 -0.4326 27
-12.4453 0.489 1.8936000000000002 146
-12.460899999999999 0.48950000000000005 -0.1449 201
-12.3594 0.4854 2.1738 37
-3.1543 0.135 -0.5493 202
-12.6328 0.5405 0.147 34
-3.1816000000000004 0.1361 -0.4792 143
-12.6172 0.54 0.43920000000000003 236
-3.2714999999999996 0.14 -0.4158 142
-12.718800000000002 0.5444 0.7383 91
-3.4336 0.147 -0.3567 175
-12.75 0.5454 1.0391 130
-3.5762 0.1531 -0.2888 134
-12.75 0.5454 1.3369 82
-3.6641000000000004 0.1567 -0.2107 165
-12.4531 0.5327000000000001 1.5977000000000001 241
-12.4531 0.5327000000000001 1.8944999999999999 251
-12.5469 0.5366 -0.1459 65
-12.351600000000001 0.5288 2.1738 86
-3.1855 0.1464 -0.5547 97
-12.648399999999999 0.5811 0.1472 103
-3.1699 0.1456 -0.47729999999999995 154
-12.656199999999998 0.5811 0.4407 32
-3.2558999999999996 0.1495 -0.4138 135
-12.7344 0.585 0.7393000000000001 240
-3.3945 0.1559 -0.3525 244
-12.7422 0.5854 1.0381 12
-3.4766000000000004 0.1597 -0.2805 135
-12.75 0.5854 1.3369 43
-3.6289 0.1666 -0.2086 122
-12.4297 0.5713 1.5957 241
-3.9551 0.1816 -0.1365 67
-12.4531 0.5722999999999999 1.8944999999999999 38
-12.5703 0.5771000000000001 -0.1462 24
-12.351600000000001 0.5674 2.1719 17
-3.1719 0.1562 -0.5522 237
-12.648399999999999 0.623 0.1472 233
-3.1308999999999996 0.1542 -0.4714 13
-12.6172 0.6215999999999999 0.4395 148
-3.2558999999999996 0.1604 -0.4138 34
-12.718800000000002 0.6265 0.7383 232
-3.4688 0.1709 -0.3604 145
-12.7344 0.6274000000000001 1.0381 5
-3.4043 0.1677 -0.2747 108
-12.75 0.6279 1.3369 156
-3.5839999999999996 0.1765 -0.2061 94
-12.4453 0.6128 1.5966999999999998 173
-3.8223000000000003 0.1884 -0.1318 99
-12.4453 0.6128 1.8936000000000002 215
-12.5469 0.6182 -0.146 222
-12.3594 0.6089 2.1758 214
-3.1211 0.1663 -0.5439 10
-12.6172 0.6724 0.1469 74
-3.1191000000000004 0.1663 -0.4697 188
-12.6172 0.6724 0.4395 230
-3.2305 0.1721 -0.4106 198
-12.7344 0.6787000000000001 0.7393000000000001 254
-3.4160000000000004 0.182 -0.355 150
-12.7422 0.6792 1.0391 56
-3.4199 0.18230000000000002 -0.2761 140
-12.7422 0.6787000000000001 1.3369 82
-3.5742000000000003 0.19039999999999999 -0.20559999999999998 133
-12.4453 0.6631 1.5977000000000001 211
-3.7266000000000004 0.1986 -0.1285 133
-12.4219 0.6616 1.8896000000000002 233
-12.5469 0.6685 -0.146 66
-12.351600000000001 0.6581999999999999 2.1738 163
-3.1055 0.1769 -0.541 188
-12.656199999999998 0.7206999999999999 0.14730000000000001 115
-3.1289 0.1782 -0.4714 16
-12.664100000000001 0.7212000000000001 0.4412 72
-3.1699 0.1805 -0.4031 154
-12.7422 0.7256 0.7397 11
-3.3438 0.19039999999999999 -0.34740000000000004 196
-12.7578 0.7265999999999999 1.04 190
-3.4355 0.1957 -0.2773 167
-12.7344 0.7256 1.3359 34
-3.498 0.19920000000000002 -0.20120000000000002 5
-12.4531 0.7095 1.5986000000000002 199
-3.6776999999999997 0.2095 -0.1268 26
-12.4297 0.708 1.8916 96
-12.5547 0.7153 -0.1462 95
-12.351600000000001 0.7036 2.1738 208
-3.0839999999999996 0.18489999999999998 -0.5376 198
-12.6719 0.7598 0.1476 91
-3.1308999999999996 0.18760000000000002 -0.4717 254
-12.6719 0.7593000000000001 0.4414 42
-3.1483999999999996 0.1887 -0.40009999999999996 249
-12.6797 0.7603 0.7363 251
-3.2714999999999996 0.1962 -0.3398 227
-12.75 0.7642 1.04 141
-3.3711 0.20199999999999999 -0.2722 132
-12.75 0.7642 1.3378999999999999 159
-3.4531 0.207 -0.1986 222
-12.4453 0.7456 1.5977000000000001 110
-3.6094 0.2163 -0.1245 19
-12.4375 0.7451000000000001 1.8936000000000002 20
-12.3203 0.7387999999999999 2.1699 210
-12.656199999999998 0.8008 0.14730000000000001 249
-3.1074 0.1967 -0.4683 27
-12.5156 0.792 0.4363 164
-3.1406 0.1986 -0.3992 58
-12.726600000000001 0.8051999999999999 0.7393000000000001 193
-3.1797000000000004 0.20120000000000002 -0.33030000000000004 225
-12.75 0.8066 1.04 51
-3.3339999999999996 0.2109 -0.2693 205
-12.7422 0.8062 1.3369 56
-3.4375 0.21739999999999998 -0.1978 248
-12.4453 0.7870999999999999 1.5986000000000002 69
-3.5566000000000004 0.225 -0.12269999999999999 89
-12.4453 0.7876000000000001 1.8955000000000002 201
-3.8202999999999996 0.24170000000000003 -0.043899999999999995 51
-12.343800000000002 0.7812 2.1738 0
-3.0605 0.2053 -0.5332 158
-3.0995999999999997 0.20800000000000002 -0.467 209
-12.664100000000001 0.8501000000000001 0.4414 92
-3.1172000000000004 0.20920000000000002 -0.39649999999999996 172
-12.7031 0.853 0.7383 105
-3.1757999999999997 0.21309999999999998 -0.3298 217
-12.601600000000001 0.8456999999999999 1.0283 173
-3.2695 0.2195 -0.2639 134
-12.5547 0.8428 1.3184 251
-3.3358999999999996 0.22399999999999998 -0.19190000000000002 11
-12.4453 0.8354 1.5996000000000001 52
-3.5273000000000003 0.2368 -0.1217 105
-12.4297 0.8345 1.8936000000000002 255
-3.7168 0.2495 -0.042699999999999995 189
-12.335899999999999 0.8281000000000001 2.1738 141
-3.0683999999999996 0.2168 -0.5352 93
-4.1992 0.2966 0.0483 171
-3.1055 0.2194 -0.4683 69
-12.5625 0.8872 0.43799999999999994 68
-3.1074 0.2194 -0.395 189
-12.539100000000001 0.8856999999999999 0.7284999999999999 240
-3.1641000000000004 0.2235 -0.3289 122
-12.531199999999998 0.8853 1.0225 176
-3.1933999999999996 0.2256 -0.25780000000000003 160
-12.523399999999999 0.8848 1.3154 7
-3.4082 0.2407 -0.196 12
-12.460899999999999 0.8798999999999999 1.6016 183
-3.4785000000000004 0.2457 -0.12 6
-12.4219 0.8774 1.8925999999999998 255
-3.6601999999999997 0.2585 -0.042 45
-12.351600000000001 0.8721 2.1758 63
-3.0547000000000004 0.226 -0.5327000000000001 75
-4.1016 0.3035 0.0472 25
-3.0976999999999997 0.2291 -0.467 223
-12.5 0.9243000000000001 0.43579999999999997 130
-3.0957 0.22899999999999998 -0.39380000000000004 21
-12.5078 0.9248000000000001 0.7271 164
-3.1445 0.2325 -0.3267 184
-12.5156 0.9258 1.0215 90
-3.1699 0.2345 -0.2561 39
-12.5078 0.9248000000000001 1.3135 167
-3.3827999999999996 0.2502 -0.19469999999999998 23
-12.468800000000002 0.9224 1.6035 235
-3.4336 0.2539 -0.1185 147
-12.4453 0.9204000000000001 1.8955000000000002 43
-3.5762 0.2644 -0.040999999999999995 160
-12.3281 0.9120999999999999 2.1738 199
-3.043 0.2352 -0.5307999999999999 70
-4.0703 0.3145 0.046799999999999994 242
-3.0801 0.23800000000000002 -0.4644 180
-12.5 0.9662999999999999 0.436 20
-3.0898000000000003 0.23879999999999998 -0.3931 43
-12.4844 0.9653 0.7261 117
-3.1327999999999996 0.2422 -0.3257 109
-12.5156 0.9673 1.0215 220
-3.1641000000000004 0.2445 -0.2556 230
-12.5156 0.9673 1.3144999999999998 98
-3.2949 0.2546 -0.18960000000000002 31
-12.468800000000002 0.9634 1.6025 43
-3.4336 0.26539999999999997 -0.1185 72
-12.4297 0.9609000000000001 1.8944999999999999 24
-3.5312 0.2729 -0.0405 184
-12.3281 0.9531000000000001 2.1738 235
-3.0410000000000004 0.2462 -0.5307999999999999 170
-3.9257999999999997 0.3179 0.0451 131
-3.0625 0.248 -0.4619 75
-12.5078 1.0137 0.4365 33
-3.0781 0.2493 -0.3918 138
-12.5 1.0127 0.7271 4
-3.125 0.2529 -0.325 44
-12.5 1.0127 1.0215 51
-3.1523000000000003 0.2554 -0.2546 152
-12.5156 1.0137 1.3154 111
-3.2148000000000003 0.26030000000000003 -0.18489999999999998 191
-12.4531 1.0088 1.6025 80
-3.3691000000000004 0.2729 -0.1162 96
-12.4453 1.0078 1.8975 190
-3.4824 0.282 -0.039900000000000005 63
-12.335899999999999 0.9984999999999999 2.1738 207
-3.8026999999999997 0.32130000000000003 0.0437 140
-12.5078 1.0566 0.4365 64
-3.0879000000000003 0.261 -0.3931 17
-12.4922 1.0556999999999999 0.7265999999999999 15
-3.123 0.2639 -0.325 250
-12.5 1.0566 1.0215 204
-3.1426 0.2656 -0.2539 50
-12.531199999999998 1.0586 1.3174000000000001 124
-3.1992000000000003 0.2703 -0.1841 163
-12.468800000000002 1.0537 1.6044999999999998 185
-3.3202999999999996 0.2805 -0.11460000000000001 229
-12.4297 1.0508 1.8965 86
-3.4531 0.2917 -0.039599999999999996 208
-12.343800000000002 1.043 2.1758 237
-3.7266000000000004 0.3274 0.042800000000000005 87
-12.460899999999999 1.0947 0.43479999999999996 198
-3.0762 0.2703 -0.3918 104
-12.523399999999999 1.0996 0.7284999999999999 1
-3.1151999999999997 0.2737 -0.324 53
-12.5469 1.1016 1.0254 180
-3.1113 0.2734 -0.2515 234
-12.6719 1.1133 1.3330000000000002 85
-3.1816000000000004 0.27949999999999997 -0.1832 245
-12.476600000000001 1.0957 1.6055000000000001 203
-3.3066000000000004 0.2905 -0.11410000000000001 7
-12.4219 1.0908 1.8944999999999999 197
-3.4492000000000003 0.303 -0.039599999999999996 246
-12.335899999999999 1.084 2.1758 155
-3.0312 0.2764 -0.5293 226
-3.6504000000000003 0.3328 0.042 181
-12.523399999999999 1.1426 0.4375 38
-3.0625 0.2793 -0.3899 183
-12.539100000000001 1.1436 0.73 109
-3.1094 0.2837 -0.3237 96
-12.726600000000001 1.1602 1.04 123
-3.1074 0.2832 -0.25120000000000003 140
-12.726600000000001 1.1602 1.3388999999999998 231
-3.1601999999999997 0.28809999999999997 -0.1819 108
-12.476600000000001 1.1377 1.6063999999999998 157
-3.2422000000000004 0.2957 -0.1119 158
-12.4219 1.1328 1.8955000000000002 134
-3.4043 0.3103 -0.0391 50
-12.3281 1.124 2.1758 135
-3.0156 0.2871 -0.5268999999999999 200
-3.6055 0.3433 0.0414 190
-3.0605 0.2915 -0.46240000000000003 83
-12.6328 1.2031 0.4414 154
-3.0526999999999997 0.2908 -0.3889 111
-12.5 1.1904000000000001 0.728 88
-3.0957 0.29469999999999996 -0.3223 135
-12.7422 1.2129 1.042 211
-3.127 0.2979 -0.2529 119
-12.7344 1.2129 1.3397999999999999 171
-3.1483999999999996 0.2998 -0.1813 209
-12.468800000000002 1.1875 1.6055000000000001 34
-3.2305 0.30760000000000004 -0.1116 42
-12.4219 1.1836 1.8965 253
-3.3632999999999997 0.32030000000000003 -0.038599999999999995 11
-12.3281 1.1738 2.1758 203
-3.0214999999999996 0.2991 -0.5283 5
-3.5762 0.3538 0.041100000000000005 100
-3.0391000000000004 0.30079999999999996 -0.4592 240
-12.5703 1.2441 0.4395 194
-3.0645 0.303 -0.3906 191
-12.4844 1.2354 0.7271 19
-3.0858999999999996 0.30519999999999997 -0.32130000000000003 11
-12.726600000000001 1.2598 1.041 53
-3.123 0.30879999999999996 -0.2527 160
-12.726600000000001 1.2588 1.3397999999999999 127
-3.1406 0.31079999999999997 -0.18100000000000002 0
-12.460899999999999 1.2324 1.6044999999999998 165
-3.1933999999999996 0.3159 -0.11019999999999999 20
-12.4297 1.2295 1.8984 237
-3.3495999999999997 0.33130000000000004 -0.0385 37
-12.3281 1.2197 2.1777 200
-3.0293 0.30879999999999996 -0.5293 221
-3.543 0.3611 0.0407 88
-3.0233999999999996 0.3081 -0.4568 81
-12.6406 1.2891 0.44189999999999996 51
-3.0469 0.3105 -0.3884 151
-12.5078 1.2744 0.7284999999999999 202
-3.0762 0.31370000000000003 -0.3206 103
-12.718800000000002 1.2969 1.041 198
-3.1016000000000004 0.31620000000000004 -0.251 140
-12.726600000000001 1.2969 1.3397999999999999 237
-3.1445 0.3206 -0.1812 188
-12.468800000000002 1.2715 1.6063999999999998 211
-3.1914 0.32520000000000004 -0.11019999999999999 7
-12.4219 1.2656 1.8975 122
-3.2656 0.3328 -0.0375 252
-12.335899999999999 1.2568000000000001 2.1777 169
-3.0370999999999997 0.31980000000000003 -0.5312 4
-3.502 0.36869999999999997 0.0403 93
-3.0332 0.3193 -0.4587 253
-12.664100000000001 1.3330000000000002 0.4429 32
-3.0488 0.3208 -0.3887 37
-12.5078 1.3163999999999998 0.7290000000000001 3
-3.0918 0.32539999999999997 -0.3223 111
-12.726600000000001 1.3397999999999999 1.042 193
-3.0976999999999997 0.3262 -0.2507 24
-12.726600000000001 1.3397999999999999 1.3397999999999999 191
-3.1289 0.3293 -0.1804 204
-12.476600000000001 1.3135 1.6084 17
-3.1816000000000004 0.335 -0.1099 207
-12.406199999999998 1.3066 1.8955000000000002 23
-3.1952999999999996 0.33640000000000003 -0.036699999999999997 185
-12.335899999999999 1.2988 2.1797 208
-3.0254000000000003 0.3296 -0.5293 228
-3.4608999999999996 0.3772 0.0398 171
-3.0566000000000004 0.33299999999999996 -0.46240000000000003 180
-3.5507999999999997 0.387 0.1229 20
-3.0410000000000004 0.33130000000000004 -0.38789999999999997 145
-12.4297 1.3544999999999998 0.7251000000000001 105
-12.726600000000001 1.3866999999999998 1.042 214
-3.0976999999999997 0.33759999999999996 -0.2507 76
-12.718800000000002 1.3866999999999998 1.3408000000000002 139
-3.1191000000000004 0.3398 -0.17980000000000002 65
-12.4844 1.3603999999999998 1.6103999999999998 123
-3.1973000000000003 0.34840000000000004 -0.1105 26
-12.414100000000001 1.3525 1.8975 94
-3.2012 0.3489 -0.036699999999999997 188
-12.335899999999999 1.3447 2.1797 107
-3.0176 0.3396 -0.5283 87
-3.3964999999999996 0.3821 0.0391 205
-3.0645 0.345 -0.4639 240
-3.5645 0.4011 0.1235 135
-3.043 0.3425 -0.3884 33
-12.4922 1.4062000000000001 0.7290000000000001 32
-3.0742000000000003 0.34590000000000004 -0.3206 22
-12.7344 1.4325999999999999 1.043 145
-3.0976999999999997 0.3486 -0.251 104
-12.718800000000002 1.4306999999999999 1.3397999999999999 25
-3.1094 0.34990000000000004 -0.1793 144
-12.460899999999999 1.4022999999999999 1.6074000000000002 95
-3.1816000000000004 0.3582 -0.11 75
-12.4219 1.3975 1.8994 225
-3.1895 0.3589 -0.0366 251
-12.3203 1.3866999999999998 2.1797 212
-3.0098000000000003 0.34909999999999997 -0.5268999999999999 96
-3.3632999999999997 0.39039999999999997 0.0387 105
-3.0351999999999997 0.3521 -0.4592 181
-3.4922000000000004 0.4053 0.121 164
-3.043 0.353 -0.3884 91
-12.5 1.4512 0.7295 74
-3.0723000000000003 0.3567 -0.3206 56
-12.7344 1.4775 1.043 73
-3.1132999999999997 0.3613 -0.2522 60
-12.726600000000001 1.4766 1.3418 56
-3.1151999999999997 0.3616 -0.17980000000000002 203
-12.468800000000002 1.4472999999999998 1.6094 142
-3.1620999999999997 0.36719999999999997 -0.1094 96
-12.4219 1.4413999999999998 1.9003999999999999 159
-3.1914 0.37060000000000004 -0.036699999999999997 31
-12.335899999999999 1.4316 2.1816 46
-3.0156 0.36060000000000003 -0.5283 154
-3.3495999999999997 0.4006 0.0385 216
-3.0233999999999996 0.3616 -0.4578 72
-3.4707 0.415 0.12029999999999999 29
-3.0469 0.36450000000000005 -0.3892 137
-12.5 1.4950999999999999 0.73 146
-3.0781 0.3682 -0.32130000000000003 205
-12.6875 1.5175999999999998 1.04 121
-3.0858999999999996 0.3691 -0.2502 226
-12.718800000000002 1.5215 1.3418 177
-3.1151999999999997 0.3726 -0.17980000000000002 4
-12.468800000000002 1.4912 1.6103999999999998 187
-3.1601999999999997 0.3779 -0.1093 159
-12.4219 1.4853999999999998 1.9013999999999998 96
-3.1914 0.38159999999999994 -0.036699999999999997 46
-12.3281 1.4736000000000002 2.1816 2
-3.0176 0.37229999999999996 -0.5288 209
-3.2870999999999997 0.4053 0.0378 114
-3.0351999999999997 0.3743 -0.46 215
-3.4257999999999997 0.4224 0.11869999999999999 28
-3.0370999999999997 0.37450000000000006 -0.3882 2
-12.468800000000002 1.5371000000000001 0.728 99
-3.082 0.3801 -0.3218 167
-12.718800000000002 1.5684 1.043 140
-3.0723000000000003 0.3789 -0.2491 237
-12.7031 1.5663999999999998 1.3408000000000002 157
-3.123 0.385 -0.1804 51
-12.4922 1.54 1.6133000000000002 99
-3.1483999999999996 0.3882 -0.10890000000000001 88
-12.406199999999998 1.5293 1.8994 51
-3.1738 0.3914 -0.0365 50
-12.3125 1.5186000000000002 2.1797 225
-3.0098000000000003 0.3818 -0.5273 230
-3.25 0.41240000000000004 0.0374 154
-3.0391000000000004 0.38549999999999995 -0.4604 152
-3.4199 0.4338 0.1186 197
-3.0391000000000004 0.38549999999999995 -0.3884 182
-12.523399999999999 1.5888999999999998 0.7319 21
-3.0879000000000003 0.3918 -0.3225 25
-12.726600000000001 1.6143 1.0439 30
-3.0801 0.3909 -0.25 210
-12.710899999999999 1.6122999999999998 1.3418 157
-3.0957 0.39280000000000004 -0.1788 182
-12.4922 1.585 1.6143 29
-3.1601999999999997 0.40090000000000003 -0.1094 170
-12.406199999999998 1.5741999999999998 1.9013999999999998 228
-3.1601999999999997 0.40090000000000003 -0.0363 243
-12.3203 1.5635 2.1836 2
-3.0 0.3911 -0.5259 58
