# .PCD v0.7 - Point Cloud Data file format
VERSION 0.7
FIELDS x y z intensity
SIZE 4 4 4 4
TYPE F F F F
COUNT 1 1 1 1
WIDTH 1370
HEIGHT 1
VIEWPOINT 0 0 0 1 0 0 0
POINTS 1370
DATA ascii
-53.0312 59.75 2.7870999999999997 67
-2.9062 3.2733999999999996 -0.5576 185
-52.9375 59.625 4.6367 154
-2.9805 3.3594 -0.4675 72
-52.8438 59.5312 6.5 174
-9.9531 11.210899999999999 -1.2207 89
-12.125 13.664100000000001 -1.0595999999999999 3
-15.9297 17.9531 -0.8359000000000001 63
-2.9062 3.2969 -0.7676000000000001 116
-2.8827999999999996 3.2714999999999996 -0.6581999999999999 179
-52.625 59.7188 2.7773000000000003 55
-2.9257999999999997 3.3202999999999996 -0.564 76
-52.5312 59.625 4.6211 86
-2.9668 3.3672000000000004 -0.467 61
-52.4688 59.5625 6.480499999999999 245
-9.8594 11.1797 -1.2139 181
-12.031199999999998 13.656199999999998 -1.0566 55
-15.875 18.0156 -0.8364 15
-2.9062 3.3223000000000003 -0.7709999999999999 35
-2.8808999999999996 3.293 -0.6606000000000001 52
-52.2812 59.7188 2.7695 49
-2.9336 3.3516000000000004 -0.5674 63
-52.1562 59.625 4.6055 133
-2.9844 3.4101999999999997 -0.4717 172
-52.0938 59.5 6.457000000000001 232
-9.7969 11.1953 -1.2119 104
-12.0156 13.726600000000001 -1.0586 163
-15.773399999999999 18.0312 -0.835 4
-2.8983999999999996 3.3339999999999996 -0.7715000000000001 133
-2.8691000000000004 3.3026999999999997 -0.6606000000000001 195
-51.875 59.6875 2.7598000000000003 242
-2.9238 3.3651999999999997 -0.5679 36
-51.8125 59.625 4.5938 159
-2.9844 3.4355 -0.4736 150
-51.7188 59.5 6.4375 130
-9.7188 11.1875 -1.207 192
-11.9531 13.7578 -1.0576 63
-15.726600000000001 18.0938 -0.8354 121
-2.9101999999999997 3.3711 -0.7778 106
-2.877 3.3339999999999996 -0.665 15
-51.5312 59.6875 2.752 80
-2.9297000000000004 3.3945 -0.5713 64
-51.4375 59.5938 4.5781 149
-2.9745999999999997 3.4452999999999996 -0.4736 56
-51.3438 59.5 6.4140999999999995 102
-9.6641 11.1953 -1.2041 205
-11.9219 13.8125 -1.0586 157
-15.656199999999998 18.1406 -0.835 144
-19.9688 23.1406 -0.3564 82
-2.9043 3.3867000000000003 -0.7793000000000001 139
-2.9004000000000003 3.3808999999999996 -0.6729 101
-51.1562 59.6875 2.7441000000000004 255
-2.9141000000000004 3.3983999999999996 -0.5703 190
-51.0625 59.5625 4.5625 215
-2.9824 3.4785000000000004 -0.4771 125
-51.0 59.4688 6.394500000000001 145
-9.6406 11.2422 -1.2061 211
-11.835899999999999 13.8047 -1.0556999999999999 254
-15.593800000000002 18.1875 -0.835 161
-2.8906 3.3964999999999996 -0.7793000000000001 148
-25.4688 29.9219 0.4585 25
-2.8926 3.3983999999999996 -0.6738 161
-50.7812 59.6562 2.7344 252
-2.9219 3.4336 -0.5747 177
-50.6875 59.5625 4.5469 43
-2.9745999999999997 3.4961 -0.4778 178
-50.625 59.4688 6.375 205
-9.5938 11.273399999999999 -1.2051 82
-11.7969 13.8594 -1.0566 220
-15.5625 18.2812 -0.8364 129
-18.7031 21.9844 -0.3367 163
-2.9276999999999997 3.4648000000000003 -0.7925 150
-25.3594 30.0 0.4585 131
-2.8906 3.4199 -0.6762999999999999 120
-50.4062 59.6562 2.7245999999999997 136
-2.9433999999999996 3.4824 -0.5811 124
-50.3125 59.5625 4.5352 47
-3.0 3.5488 -0.4836 18
-50.25 59.4688 6.359400000000001 235
-9.5469 11.2969 -1.2041 144
-11.7578 13.914100000000001 -1.0566 15
-15.5 18.3438 -0.8369 15
-18.6562 22.0625 -0.3369 160
-3.0566000000000004 3.6426 -0.8311 209
-2.8808999999999996 3.4336 -0.6768000000000001 244
-50.0625 59.6562 2.7168 171
-2.9395 3.502 -0.5825 192
-49.9688 59.5625 4.5195 176
-3.0 3.5742000000000003 -0.4858 228
-49.875 59.4375 6.3359000000000005 51
-9.5078 11.335899999999999 -1.2051 224
-11.710899999999999 13.960899999999999 -1.0576 192
-15.398399999999999 18.3438 -0.835 4
-18.4375 21.9688 -0.3345 23
-3.0702999999999996 3.6855 -0.8384 85
-2.8945 3.4745999999999997 -0.6831 94
-49.6875 59.625 2.7089999999999996 15
-2.9160000000000004 3.5 -0.5806 200
-49.5938 59.5312 4.5039 89
-3.0 3.5995999999999997 -0.488 12
-49.5312 59.4375 6.3164 74
-9.4531 11.351600000000001 -1.2031 36
-11.664100000000001 14.0 -1.0576 25
-15.4531 18.5469 -0.8408 117
-18.3438 22.0156 -0.3342 60
-3.0488 3.6855 -0.8364 212
-2.8906 3.4941000000000004 -0.6846 129
-49.3125 59.625 2.7012 242
-2.9355 3.5469 -0.5869 144
-49.2188 59.5 4.4922 230
-2.9941000000000004 3.6191000000000004 -0.4893 147
-49.1875 59.4375 6.296900000000001 207
-9.4141 11.3828 -1.2031 9
-11.593800000000002 14.0156 -1.0556999999999999 140
-15.351600000000001 18.5625 -0.8393999999999999 188
-18.2188 22.0156 -0.3333 55
-3.0391000000000004 3.6992000000000003 -0.8369 239
-2.9004000000000003 3.5312 -0.6904 193
-48.9688 59.625 2.6933999999999996 69
-2.9473000000000003 3.5879000000000003 -0.5918 238
-48.875 59.5 4.4766 118
-3.0195 3.6757999999999997 -0.4954 19
-48.8125 59.4375 6.2773 152
-9.3828 11.4297 -1.2041 161
-11.5625 14.0781 -1.0576 111
-15.3125 18.6406 -0.8408 53
-18.125 22.0625 -0.33299999999999996 22
-3.0077999999999996 3.6855 -0.8315 194
-2.8906 3.543 -0.6909000000000001 103
-48.625 59.625 2.6855 22
-2.9531 3.6191000000000004 -0.5952000000000001 211
-48.5625 59.5 4.4648 114
-2.9922000000000004 3.668 -0.4929 164
-48.4688 59.4062 6.2578 164
-9.3359 11.4453 -1.2031 244
-11.5 14.093800000000002 -1.0556999999999999 32
-15.2422 18.6719 -0.8398 29
-17.8906 21.9219 -0.3298 121
-2.9844 3.6836 -0.8286 240
-2.9219 3.6055 -0.7012 24
-48.2812 59.5938 2.6757999999999997 49
-2.9433999999999996 3.6327999999999996 -0.5957 65
-48.2188 59.5 4.4531 39
-3.0077999999999996 3.7108999999999996 -0.4976 139
-48.125 59.375 6.2422 67
-9.2969 11.476600000000001 -1.2031 67
-20.2812 25.0312 3.3808999999999996 168
-11.468800000000002 14.148399999999999 -1.0566 249
-15.1875 18.7344 -0.8403 136
-17.7812 21.9375 -0.3293 228
-2.9629000000000003 3.6836 -0.8262 1
-2.9355 3.6483999999999996 -0.7075 97
-47.9375 59.5938 2.668 75
-2.9531 3.6699 -0.6006 142
-47.8438 59.4688 4.4375 141
-3.0117000000000003 3.7441000000000004 -0.5005 176
-47.7812 59.375 6.2227 234
-9.2422 11.4844 -1.2002 249
-20.25 25.1719 3.3926 217
-11.4531 14.2344 -1.0605 201
-15.1094 18.7812 -0.8398 199
-17.625 21.9062 -0.32789999999999997 179
-2.9355 3.6738 -0.8218000000000001 9
-2.9531 3.6952999999999996 -0.7148 161
-47.5625 59.5 2.6582 147
-2.9629000000000003 3.7089999999999996 -0.605 85
-47.5 59.4375 4.4258 106
-3.0293 3.7910000000000004 -0.5054 209
-47.4688 59.375 6.207000000000001 155
-9.2031 11.5156 -1.2002 189
-20.2656 25.3594 3.4082 20
-11.3594 14.218800000000002 -1.0566 122
-15.0625 18.8438 -0.8408 177
-18.9688 23.7344 4.625 42
-17.5 21.9062 -0.32689999999999997 189
-2.8887 3.6445 -0.8125 176
-2.9844 3.7637 -0.7256 201
-47.2188 59.5625 2.6523000000000003 12
-2.9805 3.7598000000000003 -0.6118 152
-47.1562 59.4688 4.4141 36
-3.0233999999999996 3.8125 -0.5068 15
-9.1641 11.5547 -1.2012 166
-19.7188 24.875 3.332 137
-11.3125 14.2656 -1.0566 84
-15.0078 18.9219 -0.8418000000000001 122
-17.3594 21.8906 -0.3257 44
-2.8827999999999996 3.6641000000000004 -0.8145 38
-2.9745999999999997 3.7793 -0.7271 183
-46.875 59.5312 2.6445 40
-2.9882999999999997 3.7949 -0.6157 209
-46.7812 59.4375 4.3984 188
-7.5898 9.6406 -1.2852000000000001 196
-46.7812 59.4375 6.175800000000001 203
-9.1094 11.5703 -1.1992 59
-19.8438 25.2031 3.3672000000000004 79
-11.2578 14.3047 -1.0566 159
-14.9531 19.0 -0.8423 139
-17.2344 21.9062 -0.325 155
-2.9219 3.7382999999999997 -0.8291 187
-2.9688 3.7988 -0.7290000000000001 177
-46.5312 59.5312 2.6367000000000003 177
-2.9922000000000004 3.8281 -0.6196 82
-46.4688 59.4375 4.3867 228
-7.5 9.5938 -1.2754 46
-18.4375 23.5938 2.4434 146
-9.0547 11.585899999999999 -1.1973 40
-19.5156 24.9688 3.3262 68
-11.210899999999999 14.343800000000002 -1.0566 11
-18.875 24.1562 3.9375 79
-14.851600000000001 19.0 -0.8408 11
-18.8281 24.0938 4.6562 91
-17.125 21.9062 -0.32420000000000004 144
-2.9608999999999996 3.8164 -0.8447 213
-3.0039 3.873 -0.7406999999999999 230
-46.1875 59.5312 2.6289 60
-46.125 59.4375 4.375 31
-7.4688 9.625 -1.2754 41
-18.75 24.1562 2.4941 14
-9.0156 11.625 -1.1982 166
-19.4375 25.0469 3.3262 79
-11.1797 14.406199999999998 -1.0586 163
-18.7812 24.2031 3.9355 146
-14.8047 19.0781 -0.8418000000000001 137
-18.7031 24.1094 4.6484 130
-16.9688 21.8594 -0.32280000000000003 64
-2.9589999999999996 3.8398000000000003 -0.8472 123
-2.9941000000000004 3.8867000000000003 -0.7417 154
-45.7812 59.4375 4.3633 200
-7.4297 9.6484 -1.2754 194
-18.625 24.1719 2.4883 210
-8.9766 11.656199999999998 -1.1982 253
-19.2969 25.0469 3.3183999999999996 233
-11.101600000000001 14.414100000000001 -1.0556999999999999 125
-18.75 24.3281 3.9452999999999996 5
-14.773399999999999 19.1719 -0.8432999999999999 231
-17.875 23.2031 4.457 113
-16.8594 21.875 -0.322 163
-2.9668 3.8789 -0.8534999999999999 190
-3.002 3.9238 -0.7471 175
-6.1875 8.0938 -1.3047 190
-45.4688 59.4375 4.3516 9
-7.386699999999999 9.6562 -1.2734 140
-18.5625 24.2656 2.4922 200
-8.9453 11.6953 -1.1992 224
-19.0156 24.875 3.2870999999999997 10
-11.0625 14.460899999999999 -1.0566 99
-17.5938 23.0 3.7188 230
-14.6953 19.2188 -0.8428 234
-17.6719 23.1094 4.4297 179
-16.7188 21.8594 -0.321 9
-2.9688 3.9062 -0.8579000000000001 248
-2.9941000000000004 3.9395 -0.748 145
-6.171900000000001 8.125 -1.3066 96
-45.1562 59.4062 4.3398 178
-7.3477 9.6719 -1.2715 64
-18.4375 24.2656 2.4863 49
-8.9062 11.718800000000002 -1.1982 25
-18.9062 24.875 3.2793 36
-11.0156 14.4922 -1.0566 245
-17.5469 23.0938 3.7266000000000004 218
-14.625 19.25 -0.8428 89
-17.5938 23.1562 4.4297 6
-16.625 21.875 -0.32030000000000003 42
-2.9863 3.957 -0.8667 104
-3.0039 3.9824 -0.7539 208
-6.1328 8.125 -1.3047 84
-44.8125 59.375 4.3242 57
-7.3125 9.6875 -1.2715 76
-18.2031 24.1094 2.4648 79
-8.8438 11.726600000000001 -1.1963 200
-19.0 25.1719 3.3105 150
-10.9531 14.5156 -1.0556999999999999 34
-17.8438 23.6562 3.8066000000000004 242
-14.585899999999999 19.3281 -0.8438 173
-17.625 23.3594 4.457 238
-16.5156 21.8906 -0.31980000000000003 137
-2.9961 4.0039 -0.8745 214
-5.2773 7.050800000000001 -1.3369 250
-6.0859000000000005 8.1328 -1.3008000000000002 91
-44.4375 59.4062 4.3125 161
-7.2734000000000005 9.7188 -1.2715 220
-44.3438 59.25 6.042999999999999 149
-8.7734 11.726600000000001 -1.1924 146
-17.4531 23.3125 3.0566000000000004 193
-10.9219 14.593800000000002 -1.0576 77
-17.7969 23.7812 3.8145 106
-14.476600000000001 19.3438 -0.8418000000000001 7
-17.9062 23.9219 4.5508 209
-16.3438 21.8438 -0.3181 109
-4.6016 6.1953 -1.3525 254
-5.238300000000001 7.0547 -1.334 27
-6.0312 8.125 -1.2959 201
-44.125 59.4062 4.3008 243
-7.2265999999999995 9.7344 -1.2695 207
-44.0312 59.3125 6.0312 194
-8.7188 11.7422 -1.1914 49
-17.4219 23.4531 3.0664 106
-10.843800000000002 14.601600000000001 -1.0556999999999999 86
-17.7812 23.9375 3.8301 45
-14.5 19.5312 -0.8477 182
-16.2344 21.8594 -0.3176 254
-4.5625 6.1875 -1.3477000000000001 202
-5.203099999999999 7.0547 -1.3300999999999998 5
-21.3125 28.8906 1.252 205
-6.0039 8.1406 -1.2959 81
-43.8438 59.4062 4.293 168
-7.175800000000001 9.7266 -1.2656 150
-43.7188 59.25 6.011699999999999 189
-8.6875 11.773399999999999 -1.1914 233
-17.4844 23.6875 3.0898000000000003 74
-10.8047 14.648399999999999 -1.0566 231
-18.2656 24.7656 3.9531 185
-14.4219 19.5469 -0.8467 94
-16.125 21.8438 -0.31670000000000004 138
-4.543 6.199199999999999 -1.3477000000000001 74
-5.1914 7.082000000000001 -1.3319999999999999 220
-21.1406 28.8438 1.2470999999999999 190
-5.980499999999999 8.1641 -1.2959 145
-43.5 59.3438 4.2773 163
-7.140599999999999 9.7422 -1.2656 219
-43.4062 59.25 5.9961 207
-8.6484 11.8125 -1.1924 249
-17.2969 23.625 3.0723000000000003 232
-10.7344 14.656199999999998 -1.0547 205
-18.25 24.9219 3.9668 130
-14.398399999999999 19.6406 -0.8486 23
-17.9219 24.4531 4.6172 37
-15.9922 21.8281 -0.3154 62
-4.5195 6.2148 -1.3477000000000001 77
-5.1523 7.0859000000000005 -1.3291 113
-20.9219 28.7656 1.2402 102
-5.949199999999999 8.1875 -1.2959 84
-43.1562 59.375 4.2695 130
-7.0938 9.7578 -1.2637 200
-17.875 24.5781 2.4785 72
-8.6016 11.8281 -1.1914 212
-17.25 23.7344 3.0801 170
-10.710899999999999 14.7344 -1.0576 193
-18.1562 24.9844 3.9668 102
-14.289100000000001 19.6562 -0.8467 247
-17.8594 24.5625 4.625 199
-15.898399999999999 21.8594 -0.3152 202
-4.4961 6.230499999999999 -1.3477000000000001 223
-5.1172 7.0898 -1.3271000000000002 255
-20.7969 28.8125 1.2383 191
-5.9140999999999995 8.1953 -1.2949000000000002 221
-42.8438 59.375 4.2578 226
-7.0586 9.7812 -1.2627 61
-17.7344 24.5625 2.4707 219
-8.5469 11.835899999999999 -1.1885 251
-17.1875 23.8125 3.082 133
-10.648399999999999 14.75 -1.0556999999999999 46
-18.3594 25.4375 4.0273 91
-14.2344 19.7188 -0.8477 229
-17.7812 24.625 4.625 87
-15.8203 21.9219 -0.3152 201
-4.4648 6.230499999999999 -1.3447 127
-5.0977 7.113300000000001 -1.3281 255
-20.6406 28.8125 1.2363 95
-5.8789 8.2031 -1.2930000000000001 200
-42.5312 59.3438 4.2461 58
-7.0234000000000005 9.8047 -1.2627 89
-18.7031 26.0938 2.6191000000000004 165
-8.5 11.8672 -1.1885 208
-17.0938 23.8438 3.0781 220
-10.6094 14.8047 -1.0566 52
-17.3906 24.2656 3.8339999999999996 136
-14.1719 19.7812 -0.8481000000000001 81
-17.6719 24.6719 4.6211 187
-15.6328 21.8281 -0.313 115
-4.4375 6.238300000000001 -1.3418 100
-5.0664 7.1211 -1.3262 57
-20.5938 28.9688 1.2393 52
-5.8438 8.2188 -1.2919999999999998 254
-42.1875 59.3438 4.2344 44
-6.980499999999999 9.8125 -1.2617 90
-18.5312 26.0625 2.6094 98
-8.4609 11.8906 -1.1885 142
-17.4844 24.5781 3.1660000000000004 134
-10.531199999999998 14.8125 -1.0547 115
-17.1094 24.0469 3.7910000000000004 45
-14.101600000000001 19.8281 -0.8481000000000001 10
-17.4219 24.4844 4.5742 54
-15.539100000000001 21.8438 -0.3127 247
-4.418 6.2539 -1.3428 219
-5.043 7.136699999999999 -1.3262 88
-20.5 29.0312 1.2393 237
-5.8164 8.2344 -1.291 72
-41.9062 59.3125 4.2227 53
-6.9336 9.8125 -1.2578 227
-41.8125 59.1875 5.917999999999999 37
-8.4219 11.9219 -1.1885 255
-17.2031 24.3594 3.1289 181
-10.5 14.8594 -1.0556999999999999 238
-17.0938 24.2031 3.8047000000000004 204
-14.0547 19.8906 -0.8486 216
-17.1562 24.2969 4.5312 202
-15.4453 21.8594 -0.312 74
-4.3906 6.261699999999999 -1.3408000000000002 225
-5.0078 7.140599999999999 -1.3232 64
-20.4219 29.125 1.2402 149
-5.7852 8.2422 -1.29 15
-41.5938 59.2812 4.2109 247
-6.8984000000000005 9.8281 -1.2578 225
-8.3828 11.9453 -1.1885 247
-17.1562 24.4688 3.1367000000000003 25
-10.4453 14.8906 -1.0556999999999999 96
-17.0156 24.2656 3.8066000000000004 104
-13.9844 19.9375 -0.8486 42
-17.0469 24.2969 4.5195 57
-4.3672 6.2773 -1.3408000000000002 120
-4.9844 7.1602 -1.3241999999999998 195
-20.375 29.2812 1.2441 160
-5.7422 8.2578 -1.2881 187
-41.2812 59.3438 4.2031 93
-6.855499999999999 9.8516 -1.2568000000000001 66
-18.5781 26.7031 2.6543 230
-8.3281 11.968800000000002 -1.1875 144
-17.0156 24.4688 3.1289 2
-10.414100000000001 14.960899999999999 -1.0576 255
-16.3281 23.4688 3.6719 86
-13.968800000000002 20.0781 -0.8521 209
-16.9219 24.3281 4.5117 119
-15.148399999999999 21.7812 -0.3093 250
-4.3359 6.2812 -1.3378999999999999 223
-4.957 7.175800000000001 -1.3232 223
-20.3281 29.4219 1.2470999999999999 43
-5.7109000000000005 8.2656 -1.2871000000000001 96
-40.9375 59.2812 4.1875 90
-6.824199999999999 9.8828 -1.2578 215
-17.8906 25.9062 2.5683999999999996 180
-8.2734 11.976600000000001 -1.1855 11
-16.9688 24.5781 3.1348000000000003 178
-10.3281 14.9531 -1.0547 82
-16.4219 23.7656 3.7108999999999996 48
-13.9297 20.1719 -0.8540000000000001 194
-16.8594 24.4062 4.5195 64
-15.0547 21.7969 -0.30879999999999996 242
-16.5 23.8906 5.1133 156
-4.3086 6.2852 -1.3359 85
-4.9336 7.199199999999999 -1.3241999999999998 215
-20.2656 29.5625 1.25 208
-5.6836 8.2891 -1.2871000000000001 81
-40.6875 59.3438 4.1836 241
-6.7734000000000005 9.8828 -1.2549 68
-17.7812 25.9375 2.5664 42
-8.2422 12.0156 -1.1865 104
-16.9688 24.7656 3.1504000000000003 25
-10.3203 15.0469 -1.0586 254
-16.3125 23.7969 3.707 194
-13.8672 20.2344 -0.8545 160
-16.4688 24.0312 4.4375 217
-14.960899999999999 21.8281 -0.3086 99
-16.4219 23.9531 5.1133 60
-4.293 6.3086 -1.3378999999999999 145
-4.8906 7.1914 -1.3193000000000001 43
-20.2344 29.7344 1.2539 184
-5.6484000000000005 8.2969 -1.2861000000000002 45
-40.375 59.3125 4.1719 38
-6.734400000000001 9.8984 -1.2539 255
-17.7188 26.0469 2.5702999999999996 116
-8.2109 12.0625 -1.1885 75
-16.8906 24.8281 3.1523000000000003 191
-10.2422 15.0469 -1.0566 133
-16.2812 23.9375 3.7188 230
-13.781199999999998 20.25 -0.8534999999999999 166
-16.5938 24.375 4.4883 188
-14.8594 21.8438 -0.3081 141
-16.2969 23.9688 5.1016 8
-4.2734 6.324199999999999 -1.3378999999999999 20
-4.8672 7.203099999999999 -1.3193000000000001 31
-20.1875 29.8906 1.2578 25
-5.6211 8.3203 -1.2861000000000002 185
-16.8281 24.9219 1.7471 250
-6.703099999999999 9.9219 -1.2539 40
-17.6406 26.125 2.5723000000000003 94
-8.1562 12.0781 -1.1865 92
-16.4219 24.2969 3.0781 83
-10.1953 15.093800000000002 -1.0576 22
-15.9375 23.5938 3.6562 232
-13.6875 20.2656 -0.8521 158
-15.781199999999998 23.3594 4.293 160
-14.7656 21.8594 -0.30760000000000004 178
-16.3125 24.1406 5.1289 189
-4.25 6.3398 -1.3378999999999999 118
-4.8477 7.2265999999999995 -1.3203 236
-20.1562 30.0469 1.2617 136
-5.5859000000000005 8.3281 -1.2841999999999998 109
-16.7188 24.9219 1.7431999999999999 71
-6.6640999999999995 9.9375 -1.2529000000000001 217
-17.4219 25.9844 2.5527 98
-8.1094 12.085899999999999 -1.1855 140
-15.460899999999999 23.0625 2.9141000000000004 124
-10.1719 15.164100000000001 -1.0595999999999999 119
-15.8594 23.6406 3.6562 243
-13.6797 20.3906 -0.8554999999999999 195
-15.710899999999999 23.4219 4.293 227
-14.664100000000001 21.8594 -0.3069 17
-16.2969 24.3125 5.1523 66
-4.2148 6.332000000000001 -1.334 96
-4.8125 7.230499999999999 -1.3184 254
-20.125 30.25 1.2666 110
-5.5390999999999995 8.3203 -1.2803 117
-16.6094 24.9531 1.7412 2
-6.640599999999999 9.9766 -1.2549 35
-17.3906 26.125 2.5605 29
-8.0625 12.1094 -1.1845999999999999 84
-15.3672 23.0938 2.9101999999999997 118
-10.0859 15.156199999999998 -1.0566 8
-16.1562 24.2656 3.7441000000000004 195
-13.593800000000002 20.4219 -0.855 227
-15.6094 23.4531 4.2891 32
-14.585899999999999 21.9219 -0.3069 64
-16.3281 24.5312 5.1875 21
-4.1953 6.3477 -1.334 214
-4.7891 7.2461 -1.3184 227
-20.125 30.4375 1.2725 188
-5.515599999999999 8.3438 -1.2812000000000001 63
-16.5312 25.0156 1.7422 220
-6.5938 9.9766 -1.252 244
-17.3594 26.25 2.5664 7
-8.0234 12.1406 -1.1845999999999999 162
-15.2969 23.1406 2.9101999999999997 41
-10.0469 15.2031 -1.0576 138
-16.7812 25.4062 3.9101999999999997 113
-13.4844 20.4062 -0.8521 95
-15.4297 23.3438 4.2617 14
-14.539100000000001 22.0 -0.30760000000000004 159
-14.914100000000001 22.5625 4.7617 116
-4.1719 6.363300000000001 -1.334 176
-4.7539 7.2539 -1.3163999999999998 127
-5.4922 8.375 -1.2822 164
-6.5352 9.9688 -1.248 54
-16.3594 24.9375 2.4316 124
-7.980499999999999 12.1719 -1.1855 98
-15.210899999999999 23.2031 2.9120999999999997 53
-9.9844 15.226600000000001 -1.0566 220
-16.7188 25.5 3.9160000000000004 37
-13.4297 20.4844 -0.8534999999999999 41
-15.3672 23.4375 4.2656 112
-14.5078 22.125 -0.3086 28
-16.2344 24.75 5.2109000000000005 188
-4.1445 6.3711 -1.3330000000000002 133
-19.8125 30.4531 0.4238 225
-4.7266 7.261699999999999 -1.3144999999999998 107
-5.453099999999999 8.3828 -1.2812000000000001 243
-16.2188 24.9219 1.7266 6
-6.515599999999999 10.0156 -1.251 39
-16.25 24.9844 2.4316 208
-7.9102 12.164100000000001 -1.1816 63
-15.1328 23.2656 2.9120999999999997 113
-9.9375 15.281199999999998 -1.0576 87
-17.125 26.3125 4.0312 45
-13.3594 20.5312 -0.8534999999999999 129
-14.6719 22.5469 4.0977 115
-14.4922 22.2656 -0.3098 21
-16.2031 24.9062 5.230499999999999 37
-4.125 6.390599999999999 -1.334 206
-19.7656 30.625 0.4253 166
-4.6953 7.2734000000000005 -1.3135 206
-5.4140999999999995 8.3906 -1.2783 191
-16.1094 24.9688 1.7266 203
-6.4727 10.0234 -1.25 123
-17.0312 26.375 2.5605 22
-7.855499999999999 12.1719 -1.1797 246
-15.0625 23.3281 2.9141000000000004 250
-9.9219 15.375 -1.0625 199
-17.0938 26.4688 4.0469 223
-13.3125 20.625 -0.8554999999999999 133
-15.1094 23.4219 4.2422 62
-14.468800000000002 22.4062 -0.311 238
-14.6406 22.6875 4.7539 68
-4.0938 6.390599999999999 -1.3311000000000002 215
-19.7188 30.7812 0.4265 32
-4.668 7.2890999999999995 -1.3135 165
-5.3789 8.3984 -1.2773 226
-6.4414 10.0625 -1.251 254
-15.343800000000002 23.9531 2.3203 171
-7.824199999999999 12.218800000000002 -1.1816 221
-15.789100000000001 24.6562 3.0723000000000003 169
-9.8594 15.3906 -1.0605 107
-15.1328 23.625 3.6035000000000004 145
-13.218800000000002 20.6406 -0.8540000000000001 65
-15.0469 23.5 4.25 17
-14.4375 22.5469 -0.3123 180
-14.5469 22.7031 4.7461 18
-4.0703 6.4062 -1.3311000000000002 189
-19.6875 30.9688 0.4282 227
-4.6523 7.3164 -1.3154 84
-15.8281 24.9062 1.0283 76
-5.3477 8.4141 -1.2773 8
-15.6328 24.5938 1.6934 244
-6.394500000000001 10.0547 -1.248 41
-17.4531 27.4688 2.6543 89
-7.765599999999999 12.218800000000002 -1.1787 246
-16.3438 25.7031 3.1973000000000003 15
-9.8047 15.4297 -1.0605 128
-14.960899999999999 23.5469 3.582 193
-13.156199999999998 20.6875 -0.8545 1
-14.656199999999998 23.0625 4.1602 243
-14.4375 22.7188 -0.31370000000000003 85
-14.476600000000001 22.7812 4.7539 70
-4.0469 6.417999999999999 -1.3311000000000002 136
-15.7031 24.9062 0.3433 90
-4.6133 7.3164 -1.3125 165
-15.664100000000001 24.8438 1.0234 209
-5.3164 8.4297 -1.2764 104
-15.531199999999998 24.625 1.6913999999999998 126
-6.359400000000001 10.0781 -1.248 143
-14.8906 23.6094 2.2754 56
-7.7227 12.2422 -1.1787 62
-14.7031 23.3125 2.8926 57
-9.7656 15.4844 -1.0625 213
-16.0156 25.4062 3.8574 251
-13.1094 20.7969 -0.8564 13
-14.1797 22.4844 4.0469 27
-14.414100000000001 22.8594 -0.3152 54
-14.4844 22.9688 4.7812 212
-4.0234 6.425800000000001 -1.3300999999999998 209
-15.6094 24.9219 0.34299999999999997 1
-4.582 7.3203 -1.3105000000000002 23
-15.585899999999999 24.8906 1.0234 75
-5.2812 8.4375 -1.2744 8
-6.3086 10.0781 -1.2451 40
-14.718800000000002 23.5156 2.2617 13
-7.6836 12.273399999999999 -1.1787 232
-14.648399999999999 23.3906 2.8964999999999996 216
-9.7031 15.5 -1.0615 245
-14.789100000000001 23.625 3.5801 166
-13.0469 20.8281 -0.8564 88
-14.1953 22.6719 4.0703 82
-14.460899999999999 23.0938 -0.3179 237
-14.5156 23.1875 4.8164 11
-4.0039 6.4414 -1.3300999999999998 159
-15.601600000000001 25.1094 0.3447 173
-4.5664 7.3477 -1.3125 178
-15.539100000000001 25.0 1.0264 240
-5.2461 8.4453 -1.2734 226
-36.8125 59.25 4.0547 46
-6.2734000000000005 10.0938 -1.2441 201
-14.718800000000002 23.6875 2.2734 109
-7.6211 12.2656 -1.1758 58
-14.648399999999999 23.5781 2.9120999999999997 5
-9.6484 15.523399999999999 -1.0605 237
-15.625 25.1406 3.8007999999999997 150
-12.960899999999999 20.8594 -0.8554999999999999 102
-14.2031 22.8594 4.0977 226
-15.6094 25.1094 -0.345 225
-14.3906 23.1562 4.8008 106
-3.9726999999999997 6.4453 -1.3271000000000002 251
-19.5 31.6406 0.4338 213
-4.5352 7.359400000000001 -1.3115 136
-5.207000000000001 8.4453 -1.2705 56
-36.5 59.2188 4.043 76
-6.2422 10.125 -1.2451 112
-14.6797 23.8125 2.2812 9
-7.5859000000000005 12.3125 -1.1777 160
-14.7656 23.9531 2.9531 142
-9.5703 15.531199999999998 -1.0586 42
-15.5547 25.2344 3.8066000000000004 151
-14.039100000000001 22.7656 4.0742 80
-14.2969 23.1875 4.7969 156
-3.9473000000000003 6.453099999999999 -1.3262 11
-19.4688 31.8281 0.4353 44
-4.5 7.355499999999999 -1.3086000000000002 91
-5.1797 8.4688 -1.2715 151
-36.1875 59.1562 4.0312 8
-6.203099999999999 10.1406 -1.2451 184
-16.7188 27.3438 2.6132999999999997 95
-7.550800000000001 12.343800000000002 -1.1787 77
-14.718800000000002 24.0625 2.9589999999999996 91
-9.5312 15.5781 -1.0595999999999999 193
-15.4219 25.2188 3.7969 45
-13.976600000000001 22.8438 4.0781 118
-14.1953 23.2031 4.7891 59
-3.9199 6.4609000000000005 -1.3252000000000002 212
-19.4531 32.0625 0.4375 150
-4.4844 7.386699999999999 -1.3115 92
-5.144500000000001 8.4766 -1.2705 34
-15.3125 25.2344 1.7147999999999999 5
-6.1562 10.1484 -1.2431999999999999 57
-16.5312 27.25 2.5995999999999997 246
-7.5039 12.3672 -1.1777 4
-14.289100000000001 23.5469 2.8906 141
-9.4688 15.601600000000001 -1.0595999999999999 15
-15.4219 25.4219 3.8202999999999996 19
-13.9375 22.9688 4.0898 165
-14.226600000000001 23.4531 4.8281 138
-3.9043 6.484400000000001 -1.3271000000000002 48
-19.3906 32.1875 0.4387 73
-4.4414 7.375 -1.3066 238
-5.1055 8.4844 -1.2676 224
-15.1875 25.2188 1.71 210
-6.113300000000001 10.1562 -1.2412 150
-16.6094 27.5938 2.627 61
-7.4453 12.3672 -1.1758 40
-14.1953 23.5781 2.8887 115
-9.4141 15.6328 -1.0586 233
-14.226600000000001 23.625 3.5410000000000004 245
-13.8203 22.9531 4.0781 110
-14.125 23.4531 4.8203 205
-3.8789 6.4922 -1.3262 173
-19.3906 32.4688 0.4412 154
-4.4141 7.386699999999999 -1.3056999999999999 114
-5.0742 8.4922 -1.2666 241
-14.085899999999999 23.5781 1.5947 87
-6.082000000000001 10.1797 -1.2422 125
-7.390599999999999 12.3672 -1.1729 54
-16.1094 26.9688 3.2969 213
-9.3672 15.6797 -1.0605 62
-14.156199999999998 23.6875 3.5449 28
-13.75 23.0156 4.082 233
-13.960899999999999 23.3594 4.793 185
-3.8476999999999997 6.488300000000001 -1.3222999999999998 14
-19.3438 32.625 0.4424 240
-4.3984 7.417999999999999 -1.3086000000000002 221
-5.0391 8.4922 -1.2646 109
-6.0234000000000005 10.1562 -1.2363 162
-14.101600000000001 23.7812 2.2539 82
-7.3515999999999995 12.398399999999999 -1.1738 32
-14.375 24.25 2.9589999999999996 86
-9.3047 15.6875 -1.0586 147
-15.273399999999999 25.7656 3.8476999999999997 198
-12.6797 21.375 -0.8662000000000001 82
-13.625 22.9688 4.0664 137
-13.9453 23.5156 4.8125 195
-3.8202999999999996 6.5 -1.3213 116
-4.3711 7.4336 -1.3086000000000002 3
-5.0 8.5078 -1.2637 90
-14.0625 23.9219 1.6122999999999998 2
-5.988300000000001 10.1875 -1.2373 92
-7.2890999999999995 12.398399999999999 -1.1709 74
-15.531199999999998 26.4219 3.2168 81
-9.25 15.726600000000001 -1.0586 174
-15.125 25.7344 3.8339999999999996 8
-12.593800000000002 21.4219 -0.8662000000000001 102
-13.5 22.9688 4.0547 193
-13.539100000000001 23.0312 4.7031 187
-3.8026999999999997 6.519500000000001 -1.3232 79
-4.3359 7.4336 -1.3056999999999999 173
-4.9648 8.5156 -1.2627 205
-14.0703 24.125 1.6230000000000002 113
-5.9453 10.1953 -1.2354 130
-14.0703 24.125 2.2773 197
-7.2539 12.4375 -1.1729 44
-15.375 26.3594 3.2031 105
-9.1797 15.75 -1.0576 111
-13.710899999999999 23.5156 3.4961 180
-12.5703 21.5625 -0.8695999999999999 47
-13.398399999999999 22.9688 4.0469 191
-14.101600000000001 24.1719 -0.3264 156
-13.4375 23.0469 4.6953 241
-3.7793 6.5273 -1.3222999999999998 12
-4.3086 7.4414 -1.3047 97
-4.9375 8.5234 -1.2617 221
-14.093800000000002 24.3438 1.6338 64
-5.921900000000001 10.2266 -1.2373 206
-7.207000000000001 12.4453 -1.1709 230
-15.460899999999999 26.7031 3.2382999999999997 162
-9.1172 15.75 -1.0566 22
-15.1719 26.2031 3.8906 239
-13.281199999999998 22.9375 4.0352 135
-13.3594 23.0781 4.6953 224
-3.7577999999999996 6.5390999999999995 -1.3222999999999998 57
-4.2891 7.4609000000000005 -1.3056999999999999 16
-4.8984 8.5312 -1.2598 17
-5.8828 10.2422 -1.2363 21
-7.1523 12.4453 -1.1689 187
-15.4922 26.9688 3.2637 21
-9.0703 15.781199999999998 -1.0566 21
-14.5781 25.375 3.7598000000000003 57
-12.4844 21.7188 -0.873 47
-13.593800000000002 23.6719 4.1562 176
-13.0625 22.7344 4.6133 10
-3.7285000000000004 6.546900000000001 -1.3213 214
-4.2578 7.4765999999999995 -1.3056999999999999 169
-4.8555 8.5234 -1.2568000000000001 199
-5.8359000000000005 10.25 -1.2344 124
-14.656199999999998 25.7344 2.416 200
-7.109400000000001 12.4844 -1.1699 63
-14.9844 26.3125 3.1776999999999997 229
-9.0 15.8047 -1.0556999999999999 148
-14.4453 25.3594 3.75 32
-12.4453 21.8594 -0.8765000000000001 38
-13.5781 23.8438 4.1758 190
-13.0156 22.8594 4.6289 220
-3.6992000000000003 6.550800000000001 -1.3193000000000001 233
-4.2344 7.4961 -1.3066 218
-4.8281 8.5469 -1.2578 64
-33.375 59.0938 3.9452999999999996 56
-5.800800000000001 10.2656 -1.2344 251
-14.5625 25.7812 2.416 96
-7.0625 12.5 -1.1689 36
-14.8672 26.3281 3.1738 234
-8.9609 15.8672 -1.0576 247
-14.5 25.6719 3.7870999999999997 149
-12.4219 21.9844 -0.8798999999999999 236
-13.4844 23.875 4.1758 199
-12.9453 22.9062 4.6328 4
-3.6776999999999997 6.5625 -1.3193000000000001 3
-4.1992 7.5 -1.3037 221
-33.1562 59.1875 2.3672 70
-4.8047 8.5781 -1.2588 67
-33.1562 59.1562 3.9433999999999996 156
-5.7422 10.25 -1.2305 35
-7.0078 12.5078 -1.168 145
-14.7031 26.2344 3.1562 63
-8.8906 15.8672 -1.0556999999999999 225
-14.343800000000002 25.6094 3.7695 111
-12.2969 21.9375 -0.8765000000000001 49
-13.3203 23.7812 4.1484 237
-12.851600000000001 22.9375 4.6289 45
-3.6620999999999997 6.5898 -1.3222999999999998 39
-4.168 7.5 -1.3018 237
-4.7656 8.5781 -1.2568000000000001 104
-32.8438 59.0938 3.9316000000000004 41
-5.7109000000000005 10.273399999999999 -1.2305 124
-14.5469 26.1875 2.4434 99
-6.9609000000000005 12.531199999999998 -1.167 28
-8.8125 15.8672 -1.0537 66
-14.1953 25.5469 3.7539 229
-12.1719 21.9062 -0.873 112
-13.2344 23.8125 4.1484 96
-3.6367000000000003 6.5938 -1.3203 191
-4.1406 7.5039 -1.3008000000000002 101
-4.7305 8.5781 -1.2539 150
-32.5938 59.125 3.9257999999999997 243
-5.671900000000001 10.289100000000001 -1.2305 6
-14.5 26.2812 2.4492 164
-6.921900000000001 12.5469 -1.167 79
-14.125 25.6094 3.0683999999999996 241
-8.7734 15.898399999999999 -1.0537 5
-14.085899999999999 25.5312 3.7461 195
-13.1953 23.9219 4.1602 218
-12.835899999999999 23.2656 4.6797 22
-3.6113 6.5977 -1.3193000000000001 133
-4.1133 7.519500000000001 -1.3008000000000002 249
-4.7031 8.5938 -1.2539 130
-32.3438 59.0938 3.9160000000000004 122
-5.6328 10.289100000000001 -1.2285 239
-6.875 12.5625 -1.166 237
-14.101600000000001 25.7656 3.082 73
-8.7109 15.914100000000001 -1.0527 54
-13.8828 25.375 3.7148000000000003 35
-13.0625 23.875 4.1445 96
-13.101600000000001 23.9375 4.8047 154
-3.5801 6.5977 -1.3163999999999998 221
-4.0898 7.5390999999999995 -1.3008000000000002 40
-4.668 8.6016 -1.2529000000000001 34
-32.0625 59.0938 3.9082 59
-5.5859000000000005 10.2969 -1.2266 95
-6.824199999999999 12.5781 -1.165 40
-14.25 26.2656 3.1367000000000003 72
-8.6562 15.9531 -1.0527 112
-13.7656 25.375 3.707 7
-12.039100000000001 22.2031 -0.8798999999999999 215
-13.0469 24.0469 4.1641 249
-12.9844 23.9375 4.793 247
-3.5547000000000004 6.605499999999999 -1.3154 254
-4.0508 7.5312 -1.2978999999999998 78
-4.6445 8.6328 -1.2549 196
-31.75 59.0312 3.8964999999999996 175
-5.5390999999999995 10.2969 -1.2246 31
-14.6875 27.3125 2.5293 236
-6.7812 12.601600000000001 -1.165 151
-13.6406 25.3594 3.0214999999999996 136
-8.5859 15.968800000000002 -1.0518 101
-13.726600000000001 25.5156 3.7207 50
-12.914100000000001 24.0 4.1523 134
-12.914100000000001 24.0 4.8008 80
-3.5370999999999997 6.6289 -1.3174000000000001 200
-4.0156 7.5234000000000005 -1.2938999999999998 21
-4.6055 8.6328 -1.2539 135
-31.5156 59.0938 3.8926 210
-5.5078 10.3203 -1.2246 41
-14.625 27.4219 2.5352 137
-6.738300000000001 12.6328 -1.166 20
-13.5625 25.4219 3.0233999999999996 113
-8.5391 16.0 -1.0527 30
-13.648399999999999 25.5938 3.7245999999999997 54
-13.710899999999999 25.7031 4.4375 116
-3.5137 6.640599999999999 -1.3174000000000001 247
-3.9922000000000004 7.542999999999999 -1.2949000000000002 176
-4.5703 8.6328 -1.251 226
-31.25 59.0625 3.8867000000000003 162
-5.4688 10.335899999999999 -1.2246 118
-6.6797 12.6328 -1.1631 83
-13.531199999999998 25.5781 3.0370999999999997 72
-8.4766 16.0312 -1.0527 190
-13.7031 25.9062 3.7637 141
-13.593800000000002 25.7031 4.4258 6
-12.8906 24.3594 -0.3215 211
-3.4882999999999997 6.6523 -1.3163999999999998 117
-3.9648000000000003 7.5625 -1.2959 95
-4.5312 8.6406 -1.25 28
-30.9688 59.0625 3.877 74
-5.4336 10.3594 -1.2246 128
-6.6211 12.6328 -1.1611 175
-13.8203 26.3594 3.125 138
-8.4297 16.0781 -1.0537 254
-13.6172 25.9688 3.7656 150
-13.351600000000001 25.4688 4.3789 154
-3.4629000000000003 6.6602 -1.3163999999999998 108
-3.9433999999999996 7.582000000000001 -1.2969 170
-4.5039 8.6641 -1.25 185
-30.7344 59.0938 3.873 90
-5.386699999999999 10.3594 -1.2227 185
-6.5898 12.6719 -1.1631 133
-13.718800000000002 26.3906 3.1211 212
-8.375 16.1094 -1.0537 190
-13.4844 25.9375 3.7558999999999996 236
-12.648399999999999 24.3281 -0.31980000000000003 162
-3.4433999999999996 6.675800000000001 -1.3174000000000001 16
-3.9120999999999997 7.5859000000000005 -1.2949000000000002 241
-4.4766 8.6797 -1.251 188
-30.4531 59.0625 3.8632999999999997 250
-5.3438 10.3594 -1.2207 77
-6.546900000000001 12.6953 -1.1631 133
-13.6406 26.4531 3.123 140
-8.3125 16.1094 -1.0527 91
-13.4375 26.0625 3.7656 197
-13.0547 25.3125 4.3359 157
-12.5781 24.3906 -0.3201 57
-13.3672 25.9219 5.1328 15
-3.4199 6.6836 -1.3163999999999998 156
-3.873 7.5703 -1.29 85
-4.457 8.7109 -1.2529000000000001 242
-30.2188 59.0938 3.8594 197
-5.3086 10.375 -1.2207 52
-6.488300000000001 12.6875 -1.1602 169
-12.8828 25.1875 2.9688 203
-8.25 16.125 -1.0518 25
-13.523399999999999 26.4375 3.8145 148
-12.906199999999998 25.2344 4.3164 134
-12.523399999999999 24.4844 -0.3206 74
-13.226600000000001 25.8594 5.1133 2
-3.3983999999999996 6.699199999999999 -1.3174000000000001 195
-3.8555 7.6015999999999995 -1.2930000000000001 251
-4.4141 8.7031 -1.25 140
-29.9375 59.0312 3.8495999999999997 95
-5.265599999999999 10.3828 -1.2187999999999999 106
-6.4414 12.7031 -1.1592 106
-12.8281 25.2969 2.9766000000000004 171
-8.1953 16.1562 -1.0518 110
-13.25 26.1406 3.7637 124
-12.773399999999999 25.1875 4.3008 249
-12.468800000000002 24.5781 -0.3215 180
-13.1953 26.0156 5.136699999999999 77
-3.3691000000000004 6.699199999999999 -1.3144999999999998 93
-3.8262 7.609400000000001 -1.2919999999999998 221
-4.3867 8.7188 -1.25 14
-29.6719 59.0 3.8398000000000003 26
-5.2422 10.4219 -1.2217 18
-6.390599999999999 12.7031 -1.1582 83
-13.414100000000001 26.6719 3.1327999999999996 173
-8.125 16.1562 -1.0488 107
-12.789100000000001 25.4375 3.6562 102
-12.75 25.3438 4.3203 165
-13.039100000000001 25.9219 5.1094 24
-3.3418 6.707000000000001 -1.3135 214
-3.793 7.609400000000001 -1.29 2
-4.3555 8.7422 -1.251 87
-29.4219 59.0312 3.8358999999999996 114
-5.1875 10.406199999999998 -1.2178 183
-6.3359000000000005 12.718800000000002 -1.1572 9
-12.476600000000001 25.0469 2.9355 76
-8.0703 16.1875 -1.0498 109
-12.5703 25.2344 3.6211 133
-12.8125 25.7031 4.3711 214
-12.9531 25.9844 5.1133 108
-3.3223000000000003 6.7227 -1.3154 90
-3.7598000000000003 7.609400000000001 -1.2881 15
-4.332 8.7656 -1.2529000000000001 246
-29.1406 59.0 3.8262 23
-5.140599999999999 10.406199999999998 -1.2148 183
-6.296900000000001 12.75 -1.1572 14
-13.3047 26.9219 3.1523000000000003 225
-8.0156 16.2188 -1.0498 61
-12.4531 25.2188 3.6113 23
-11.6953 23.6875 -0.9204000000000001 64
-12.5469 25.4062 4.3125 6
-3.2988 6.738300000000001 -1.3154 70
-3.7344 7.6289 -1.2891 230
-4.3008 8.7812 -1.2529000000000001 109
-28.9062 59.0625 3.8242000000000003 97
-5.1055 10.4297 -1.2158 200
-6.230499999999999 12.726600000000001 -1.1533 193
-12.664100000000001 25.875 3.0233999999999996 34
-7.949199999999999 16.2344 -1.0488 21
-12.5 25.5312 3.6523000000000003 204
-12.343800000000002 25.2188 4.2734 32
-3.2695 6.738300000000001 -1.3135 181
-3.707 7.640599999999999 -1.2881 255
-4.2656 8.7891 -1.251 176
-28.6406 59.0312 3.8145 31
-5.0703 10.4531 -1.2158 68
-6.1875 12.7578 -1.1543 241
-12.4922 25.75 3.002 10
-7.890599999999999 16.2656 -1.0498 177
-12.460899999999999 25.6875 3.668 18
-11.5156 23.7344 -0.9194 15
-12.0547 24.8438 4.2031 58
-3.2461 6.75 -1.3135 132
-3.6797000000000004 7.6523 -1.2881 83
-4.2383 8.8125 -1.2529000000000001 6
-28.3438 58.9688 3.8026999999999997 212
-5.0273 10.460899999999999 -1.2148 119
-12.125 25.2188 2.2812 69
-6.136699999999999 12.7656 -1.1533 197
-13.0625 27.1562 3.1620999999999997 19
-7.8359000000000005 16.2969 -1.0498 37
-12.3203 25.625 3.6523000000000003 178
-11.9844 24.9219 4.2109 207
-12.1953 25.3594 4.9531 121
-3.2148000000000003 6.7461 -1.3105000000000002 215
-3.6483999999999996 7.6562 -1.2861000000000002 103
-4.2031 8.8203 -1.252 176
-28.0938 58.9688 3.7969 42
-4.9805 10.4531 -1.2129 247
-12.0078 25.2031 2.2773 87
-6.0898 12.773399999999999 -1.1523 175
-12.9453 27.1562 3.1582 162
-7.7773 16.3281 -1.0498 93
-12.1797 25.5469 3.6348000000000003 56
-12.343800000000002 25.9062 4.3711 247
-12.1172 25.4219 4.957 119
-3.1973000000000003 6.769500000000001 -1.3125 34
-3.627 7.6797 -1.2881 204
-4.1719 8.8359 -1.251 21
-27.8906 59.0312 3.7969 128
-4.9453 10.468800000000002 -1.2129 75
-11.8828 25.1562 2.2695 213
-6.0390999999999995 12.781199999999998 -1.1514 72
-7.7227 16.3438 -1.0488 239
-12.0469 25.5 3.623 133
-12.156199999999998 25.7344 4.332 81
-12.0625 25.5312 4.9688 166
-3.1797000000000004 6.7852 -1.3144999999999998 112
-3.5976999999999997 7.6797 -1.2861000000000002 185
-4.1367 8.8281 -1.248 77
-27.625 58.9688 3.7870999999999997 203
-4.9023 10.460899999999999 -1.21 47
-11.7969 25.1875 2.2676 45
-5.988300000000001 12.781199999999998 -1.1494 209
-12.101600000000001 25.8438 2.9941000000000004 102
-7.667999999999999 16.3594 -1.0488 118
-11.9375 25.4844 3.6151999999999997 221
-11.031199999999998 23.5469 -0.9062 61
-12.210899999999999 26.0781 4.3828 173
-3.1562 6.8047 -1.3154 253
-3.5664 7.6836 -1.2852000000000001 218
-4.1094 8.8516 -1.25 53
-27.3594 58.9688 3.7793 164
-4.8711 10.5 -1.2119 53
-5.9297 12.781199999999998 -1.1475 171
-7.605499999999999 16.3906 -1.0488 148
-11.7656 25.3594 3.5898000000000003 240
-11.0156 23.7344 -0.9120999999999999 111
-12.0625 26.0 4.3633 174
-3.123 6.796900000000001 -1.3115 71
-3.5488 7.7188 -1.2891 253
-4.0742 8.8594 -1.249 86
-27.125 59.0 3.7754000000000003 48
-4.832 10.5078 -1.2109 105
-5.8828 12.7969 -1.1465 233
-11.851600000000001 25.7812 2.9766000000000004 72
-7.5312 16.3906 -1.0469 143
-11.789100000000001 25.6562 3.627 40
-10.8828 23.6719 -0.9081999999999999 10
-11.9922 26.0781 4.3711 241
-3.0995999999999997 6.8047 -1.3105000000000002 90
-3.5176 7.7188 -1.2871000000000001 63
-4.0391 8.8594 -1.2470999999999999 133
-4.7891 10.5078 -1.209 249
-5.8359000000000005 12.8125 -1.1465 168
-7.4609000000000005 16.375 -1.0439 7
-11.7422 25.7656 3.6367000000000003 76
-10.8047 23.7031 -0.9081999999999999 85
-11.9219 26.1562 4.3789 201
-3.0742000000000003 6.8047 -1.3096 142
-3.4824 7.7109000000000005 -1.2832 188
-4.0039 8.8672 -1.2461 133
-12.7656 28.2656 1.8018 236
-4.75 10.5156 -1.208 184
-5.792999999999999 12.8203 -1.1455 15
-7.4102 16.4062 -1.0449 125
-10.726600000000001 23.75 -0.9081999999999999 127
-11.781199999999998 26.0781 4.3594 73
-12.7969 28.3281 -0.3625 67
-3.0547000000000004 6.832000000000001 -1.3115 225
-12.7031 28.3906 0.3628 174
-3.4551 7.7227 -1.2832 33
-12.6797 28.3594 1.083 146
-3.9766000000000004 8.8906 -1.2470999999999999 188
-12.6953 28.3906 1.8066 244
-4.7109 10.531199999999998 -1.208 29
-5.738300000000001 12.8281 -1.1445 20
-7.355499999999999 16.4375 -1.0449 183
-11.710899999999999 26.1875 3.6855 225
-10.6094 23.7188 -0.9053 21
-11.6719 26.0938 4.3516 242
-12.6875 28.375 -0.3625 152
-10.375 23.2031 4.4727 157
-3.0351999999999997 6.8515999999999995 -1.3135 20
-3.4316000000000004 7.7422 -1.2852000000000001 66
-3.9355 8.8828 -1.2441 38
-4.6719 10.539100000000001 -1.207 146
-5.6875 12.835899999999999 -1.1426 94
-7.2852 16.4375 -1.0439 96
-10.531199999999998 23.7656 -0.9062 245
-11.5547 26.0625 4.3398 123
-3.0 6.8359000000000005 -1.3086000000000002 210
-3.4043 7.7539 -1.2852000000000001 150
-3.9004000000000003 8.8828 -1.2431999999999999 192
-25.875 58.9375 3.7422000000000004 179
-4.6328 10.5547 -1.207 49
-5.636699999999999 12.835899999999999 -1.1416 128
-7.2265999999999995 16.4688 -1.043 95
-35.8125 81.5625 11.4531 44
-10.4219 23.75 -0.9037999999999999 184
-11.4375 26.0625 4.332 40
-2.9766000000000004 6.8477 -1.3086000000000002 163
-3.375 7.761699999999999 -1.2841999999999998 129
-3.8711 8.9062 -1.2431999999999999 99
-25.6094 58.9062 3.7344 172
-4.5859 10.5469 -1.2041 198
-5.578099999999999 12.835899999999999 -1.1396 25
-7.1484000000000005 16.4375 -1.041 105
-35.3438 81.25 11.3906 192
-10.3281 23.75 -0.9023 113
-10.4844 24.125 4.0039 145
-2.9512 6.855499999999999 -1.3086000000000002 169
-3.3379000000000003 7.7539 -1.2803 123
-3.8438 8.9297 -1.2451 60
-10.5 24.3906 1.5419999999999998 31
-4.5508 10.5625 -1.2041 6
-5.5390999999999995 12.8594 -1.1406 21
-7.0938 16.4688 -1.041 60
-10.2266 23.75 -0.9009 194
-10.3828 24.1094 3.9961 178
-10.4844 24.3438 -0.3091 146
-10.2969 23.9062 4.582 189
-2.9276999999999997 6.863300000000001 -1.3086000000000002 220
-3.3183999999999996 7.7773 -1.2832 100
-10.3672 24.3125 0.9209 94
-3.8105 8.9297 -1.2441 178
-10.3828 24.3281 1.5361000000000002 49
-4.5078 10.5703 -1.2031 41
-5.488300000000001 12.8672 -1.1387 206
-10.398399999999999 24.375 2.7812 1
-7.042999999999999 16.5156 -1.042 19
-10.3594 24.2812 3.3906 245
-10.1406 23.7656 -0.9004000000000001 25
-10.3906 24.3438 -0.3086 52
-2.9082 6.886699999999999 -1.3105000000000002 88
-10.3125 24.4062 0.3091 92
-3.2851999999999997 7.7773 -1.2812000000000001 52
-10.289100000000001 24.3438 0.9214 16
-3.7714999999999996 8.9297 -1.2412 203
-10.2969 24.375 1.5371000000000001 25
-4.4688 10.5781 -1.2021 164
-5.449199999999999 12.898399999999999 -1.1396 134
-6.980499999999999 16.5312 -1.041 101
-10.0312 23.75 -0.8984000000000001 39
-10.3047 24.4062 -0.30879999999999996 213
-2.8808999999999996 6.886699999999999 -1.3086000000000002 66
-3.2676 7.8125 -1.2852000000000001 85
-3.7344 8.9297 -1.2393 196
-24.6406 58.9062 3.7129000000000003 238
-4.4297 10.585899999999999 -1.2012 214
-5.3789 12.8594 -1.1348 133
-6.9102 16.5156 -1.0391 235
-9.9609 23.8125 -0.8998999999999999 107
-10.2344 24.4688 4.6719 68
-2.8516000000000004 6.886699999999999 -1.3066 90
-3.2363 7.8125 -1.2832 73
-3.6973000000000003 8.9219 -1.2373 57
-11.8047 28.5 1.7919999999999998 235
-4.3906 10.601600000000001 -1.2012 196
-11.7578 28.375 2.5059 176
-5.3438 12.898399999999999 -1.1367 91
-6.8438 16.5156 -1.0381 164
-11.6875 28.2188 3.9238 144
-9.8672 23.8125 -0.8984000000000001 24
-11.6875 28.2188 4.6484 195
-10.2031 24.625 4.6914 33
-2.8301 6.8984000000000005 -1.3075999999999999 136
-3.2031 7.8086 -1.2803 139
-3.6757999999999997 8.9609 -1.2412 140
-11.656199999999998 28.4375 1.7852000000000001 109
-4.3438 10.585899999999999 -1.1982 178
-11.625 28.3438 2.5 131
-5.3047 12.9297 -1.1377 193
-6.7890999999999995 16.5469 -1.0381 190
-9.7812 23.8438 -0.8984000000000001 38
-11.593800000000002 28.2656 4.6523 236
-2.8145 6.921900000000001 -1.3105000000000002 118
-3.1757999999999997 7.8125 -1.2793 41
-3.6483999999999996 8.9766 -1.2412 125
-9.9375 24.4531 1.5332 198
-4.3164 10.6172 -1.2002 147
-11.531199999999998 28.375 2.498 58
-5.25 12.914100000000001 -1.1348 88
-6.7461 16.5938 -1.04 155
-9.6797 23.8125 -0.8955 5
-11.5078 28.3125 4.6523 24
-2.7891000000000004 6.9297 -1.3096 174
-3.1562 7.8398 -1.2822 233
-3.6055 8.9531 -1.2363 34
-9.8828 24.5625 1.5371000000000001 83
-4.2852 10.6406 -1.2012 108
-11.4531 28.4375 2.5 108
-5.203099999999999 12.9219 -1.1348 118
-6.667999999999999 16.5625 -1.0361 198
-9.6094 23.875 -0.8965000000000001 103
-11.4219 28.375 4.6562 215
-2.7598000000000003 6.9297 -1.3075999999999999 4
-3.1308999999999996 7.859400000000001 -1.2832 201
-3.5664 8.9531 -1.2344 218
-9.8672 24.7812 1.5488 6
-4.2383 10.6328 -1.1992 8
-11.3594 28.5156 2.5039 209
-5.1484000000000005 12.9219 -1.1328 93
-6.609400000000001 16.5938 -1.0361 247
-11.335899999999999 28.4531 3.9336 138
-9.5234 23.9062 -0.8965000000000001 195
-11.3281 28.4219 4.6602 80
-2.7324 6.9297 -1.3056999999999999 64
-3.1055 7.875 -1.2841999999999998 201
-3.5351999999999997 8.9609 -1.2334 150
-11.2969 28.6562 1.7891 53
-4.2031 10.656199999999998 -1.1992 184
-11.2656 28.5781 2.5059 34
-5.1016 12.9375 -1.1328 178
-6.5390999999999995 16.5781 -1.0342 112
-11.2344 28.5 3.9355 146
-9.4375 23.9375 -0.8965000000000001 253
-11.226600000000001 28.4844 4.6602 44
-2.7129000000000003 6.949199999999999 -1.3086000000000002 150
-3.0683999999999996 7.863300000000001 -1.2803 145
-11.25 28.8125 1.0781 54
-3.5077999999999996 8.9844 -1.2354 170
-11.2031 28.7188 1.791 55
-4.1523 10.6328 -1.1953 60
-11.1719 28.625 2.5059 11
-5.0586 12.968800000000002 -1.1328 156
-6.480499999999999 16.6094 -1.0342 113
-11.1406 28.5469 3.9355 56
-9.3516 23.9531 -0.8965000000000001 138
-11.1328 28.5312 4.6641 154
-2.6855 6.953099999999999 -1.3066 62
-3.0391000000000004 7.8711 -1.2803 165
-3.4785000000000004 9.0078 -1.2363 145
-11.1172 28.7812 1.7930000000000001 51
-4.1172 10.664100000000001 -1.1963 161
-11.0781 28.6875 2.5078 33
-5.0039 12.9531 -1.1309 197
-6.4297 16.6406 -1.0352 112
-11.0547 28.625 3.9414 243
-9.2578 23.9688 -0.8955 139
-11.0469 28.5938 4.668 252
-2.668 6.9765999999999995 -1.3096 2
-3.0195 7.894500000000001 -1.2822 171
-3.4433999999999996 9.0 -1.2344 141
-11.031199999999998 28.8281 1.7938999999999998 89
-4.0859 10.6797 -1.1973 34
-11.0 28.7656 2.5117 248
-4.957 12.968800000000002 -1.1299 85
-6.355499999999999 16.6094 -1.0322 83
-10.968800000000002 28.6719 3.9433999999999996 110
-9.1875 24.0156 -0.8965000000000001 170
-10.9531 28.625 4.668 206
-2.6387 6.9688 -1.3066 118
-2.9824 7.8789 -1.2783 237
-3.4004000000000003 8.9766 -1.2295 142
-10.9375 28.8906 1.7949000000000002 95
-4.0469 10.6875 -1.1963 72
-10.914100000000001 28.8125 2.5137 52
-4.9219 13.0 -1.1318000000000001 168
-6.296900000000001 16.625 -1.0322 137
-10.8828 28.7344 3.9473000000000003 49
-9.1172 24.0781 -0.8975 149
-10.875 28.7188 4.6758 170
-2.6094 6.9727 -1.3056999999999999 95
-2.9608999999999996 7.9140999999999995 -1.2822 120
-22.0625 58.9375 2.1953 159
-3.3789 9.0234 -1.2344 44
-10.835899999999999 28.9531 1.7959 40
-3.9941000000000004 10.6719 -1.1934 102
-10.8047 28.875 2.5156 44
-4.8633 12.9922 -1.1299 196
-6.2188 16.625 -1.0293 29
-10.781199999999998 28.7969 3.9512 5
-9.0234 24.1094 -0.8975 169
-10.789100000000001 28.8281 4.6875 233
-2.5898000000000003 6.9961 -1.3075999999999999 53
-10.976600000000001 29.6406 0.3689 60
-2.9276999999999997 7.9062 -1.2793 182
-11.0078 29.7344 1.1055 61
-3.3438 9.0312 -1.2334 152
-10.75 29.0156 1.7978999999999998 109
-3.9512 10.6719 -1.1914 116
-10.726600000000001 28.9531 2.5195 101
-4.8125 12.9922 -1.1279000000000001 126
-6.1640999999999995 16.6406 -1.0303 202
-8.9531 24.1875 -0.8989 80
-11.1094 30.0 4.8711 61
-11.0 29.7031 -0.3696 254
-2.5664 7.0 -1.3066 104
-10.8828 29.6875 0.3689 135
-2.8945 7.8984000000000005 -1.2764 156
-3.3145 9.0469 -1.2334 85
-3.9141000000000004 10.6797 -1.1904000000000001 56
-21.5156 58.6875 5.1016 39
-4.7695 13.0078 -1.1279000000000001 139
-6.0938 16.625 -1.0273 123
-8.9141 24.3125 -0.9023 132
-10.898399999999999 29.7188 -0.36939999999999995 147
-2.543 7.011699999999999 -1.3075999999999999 248
-10.7578 29.6406 0.3679 108
-2.8711 7.9140999999999995 -1.2773 35
-3.2812 9.0391 -1.2314 177
-21.3438 58.8125 3.6387 30
-3.875 10.6797 -1.1895 50
-21.2812 58.6562 5.0938 165
-4.7148 13.0 -1.126 95
-6.0390999999999995 16.6562 -1.0283 18
-8.8594 24.4219 -0.9053 131
-10.976600000000001 30.25 4.8984 152
-2.5137 7.011699999999999 -1.3056999999999999 166
-10.664100000000001 29.7188 0.36840000000000006 242
-2.8516000000000004 7.953099999999999 -1.2822 242
-21.0938 58.8438 2.1816 144
-3.2401999999999997 9.0391 -1.2295 241
-3.8398000000000003 10.7031 -1.1904000000000001 48
-21.0312 58.6562 5.0859 19
-4.6719 13.023399999999999 -1.126 46
-5.9765999999999995 16.6719 -1.0273 99
-8.7812 24.4844 -0.9067000000000001 173
-10.8281 30.1875 4.8828 116
-11.148399999999999 31.0781 -0.38530000000000003 89
-2.4863 7.0078 -1.3037 248
-2.8145 7.9375 -1.2773 207
-3.2148000000000003 9.0625 -1.2314 220
-20.8281 58.7188 3.6211 220
-3.7988 10.710899999999999 -1.1904000000000001 229
-20.8125 58.6875 5.082 188
-4.6211 13.023399999999999 -1.125 122
-5.9023 16.6406 -1.0244 122
-8.7109 24.5625 -0.9081999999999999 254
-10.523399999999999 29.6719 4.793 198
-2.4648 7.0273 -1.3056999999999999 39
-2.7733999999999996 7.9062 -1.2705 135
-10.6875 30.4844 1.126 12
-3.1816000000000004 9.0703 -1.2314 52
-10.7031 30.5156 1.8788999999999998 152
-3.7539 10.7031 -1.1875 234
-4.5742 13.039100000000001 -1.125 213
-5.828099999999999 16.625 -1.0225 87
-8.5859 24.4688 -0.9037999999999999 70
-10.5625 30.1094 4.8594 230
-2.4395 7.0312 -1.3047 47
-2.7461 7.9140999999999995 -1.2705 168
-10.664100000000001 30.7344 1.1348 90
-3.1523000000000003 9.0859 -1.2314 64
-10.6797 30.7969 1.8944999999999999 58
-3.7207 10.726600000000001 -1.1885 14
-4.5195 13.031199999999998 -1.123 71
-5.765599999999999 16.625 -1.0215 206
-10.9844 31.6719 4.3047 255
