# .PCD v0.7 - Point Cloud Data file format
VERSION 0.7
FIELDS x y z intensity
SIZE 4 4 4 4
TYPE F F F F
COUNT 1 1 1 1
WIDTH 1231
HEIGHT 1
VIEWPOINT 0 0 0 1 0 0 0
POINTS 1231
DATA ascii
-6.1640999999999995 -2.2656 -0.9951000000000001 176
-13.531199999999998 -4.9727 0.5015 100
-6.1797 -2.2715 -0.8412999999999999 188
-13.531199999999998 -4.9727 0.8359000000000001 123
-6.2265999999999995 -2.2891 -0.6923999999999999 181
-13.5078 -4.9648 1.1719 203
-9.0078 -3.3086 1.0039 120
-12.039100000000001 -4.4258 1.6444999999999999 36
-8.8672 -3.2577999999999996 1.4336000000000002 127
-13.4844 -4.957 -0.1671 197
-12.1172 -4.4531 2.2676 154
-6.171900000000001 -2.2422 -1.1504 127
-13.5547 -4.9219 0.1677 26
-6.167999999999999 -2.2402 -0.9945999999999999 19
-13.5156 -4.9102 0.5005 7
-6.1640999999999995 -2.2383 -0.8379000000000001 1
-13.539100000000001 -4.918 0.8354 133
-6.2265999999999995 -2.2617 -0.6914 29
-13.531199999999998 -4.9141 1.1719 229
-9.0078 -3.2714999999999996 1.002 1
-12.1406 -4.4102 1.6562000000000001 210
-11.8281 -4.2969 1.9121000000000001 106
-13.5 -4.9023 -0.16699999999999998 251
-8.875 -3.2226999999999997 1.6572 96
-6.167999999999999 -2.2168 -1.1484 10
-13.5625 -4.8711 0.16760000000000003 107
-6.171900000000001 -2.2168 -0.9932 115
-13.523399999999999 -4.8594 0.5 96
-6.171900000000001 -2.2188 -0.8384 87
-13.523399999999999 -4.8594 0.8334999999999999 129
-6.238300000000001 -2.2402 -0.6919 63
-13.531199999999998 -4.8594 1.1709 227
-9.0312 -3.2441000000000004 1.0039 112
-12.210899999999999 -4.3867 1.6631 144
-13.4922 -4.8477 -0.16670000000000001 228
-8.8828 -3.1914 1.6572 151
-6.1562 -2.1895 -1.1445 171
-13.539100000000001 -4.8125 0.1671 107
-6.1797 -2.1973 -0.9937 210
-13.531199999999998 -4.8125 0.49979999999999997 58
-6.175800000000001 -2.1953 -0.8379000000000001 20
-13.5078 -4.8008 0.8315 233
-6.2265999999999995 -2.2129 -0.6899 127
-13.523399999999999 -4.8086 1.1689 147
-9.0391 -3.2129000000000003 1.0039 100
-12.1953 -4.3359 1.6591999999999998 47
-11.8125 -4.1992 1.9053 128
-13.4922 -4.7969 -0.16649999999999998 108
-8.875 -3.1562 1.6533000000000002 178
-6.1640999999999995 -2.168 -1.1445 57
-13.539100000000001 -4.7617 0.16690000000000002 132
-6.171900000000001 -2.1719 -0.9912000000000001 249
-13.523399999999999 -4.7578 0.4988 174
-6.1875 -2.1758 -0.8379000000000001 121
-13.5078 -4.7539 0.8306 63
-6.2265999999999995 -2.1895 -0.6890000000000001 26
-13.523399999999999 -4.7578 1.167 249
-9.0859 -3.1973000000000003 1.0078 203
-12.1797 -4.2852 1.6553 179
-11.835899999999999 -4.1641 1.9062000000000001 108
-13.5 -4.75 -0.16649999999999998 241
-8.8906 -3.1289 1.6553 165
-6.167999999999999 -2.1445 -1.1445 214
-13.539100000000001 -4.707 0.16670000000000001 70
-6.1640999999999995 -2.1426 -0.9883 227
-13.531199999999998 -4.7031 0.49829999999999997 56
-6.1914 -2.1523 -0.8373999999999999 102
-13.531199999999998 -4.7031 0.8306 71
-6.2265999999999995 -2.166 -0.6884999999999999 73
-13.5156 -4.6992 1.165 15
-12.3672 -4.3008 1.3721 13
-12.2031 -4.2422 1.6562000000000001 92
-11.8203 -4.1094 1.9013999999999998 255
-13.523399999999999 -4.7031 -0.16649999999999998 241
-8.9062 -3.0976999999999997 1.6553 157
-6.1640999999999995 -2.1191 -1.1426 35
-13.539100000000001 -4.6523 0.16649999999999998 173
-6.167999999999999 -2.1191 -0.9878 137
-13.5078 -4.6445 0.4971 191
-6.171900000000001 -2.123 -0.8345 44
-13.5547 -4.6602 0.8315 15
-6.234400000000001 -2.1426 -0.6884999999999999 54
-9.1094 -3.1327999999999996 0.7831999999999999 70
-12.351600000000001 -4.2461 1.3681999999999999 97
-9.3203 -3.2031 1.2617 130
-8.5391 -2.9336 1.3700999999999999 8
-13.5 -4.6406 -0.1661 94
-12.1094 -4.1641 2.25 79
-6.1523 -2.0918 -1.1387 212
-13.601600000000001 -4.6211 0.1671 69
-6.171900000000001 -2.0977 -0.9873000000000001 183
-13.6094 -4.625 0.5 92
-6.1602 -2.0938 -0.8311 11
-13.6797 -4.6484 0.8379000000000001 241
-6.238300000000001 -2.1211 -0.688 168
-9.0938 -3.0918 0.7812 24
-9.25 -3.1445 1.0225 7
-9.3359 -3.1719 1.2627 100
-9.6328 -3.2733999999999996 1.5438999999999998 5
-13.5625 -4.6094 -0.1666 227
-8.0625 -2.7401999999999997 1.4941 245
-6.144500000000001 -2.0645 -1.1357 16
-13.7578 -4.6211 0.16879999999999998 152
-6.171900000000001 -2.0742 -0.9868000000000001 20
-13.7656 -4.625 0.5054 68
-6.167999999999999 -2.0723 -0.8315 76
-14.0078 -4.707 0.8573999999999999 177
-6.238300000000001 -2.0957 -0.687 50
-9.1094 -3.0605 0.7812 51
-9.2344 -3.1035000000000004 1.0195 232
-12.1875 -4.0938 1.6484 56
-9.5391 -3.2051 1.5283000000000002 62
-13.718800000000002 -4.6094 -0.16829999999999998 243
-8.0859 -2.7168 1.4971 176
-6.1562 -2.043 -1.1367 240
-14.023399999999999 -4.6523 0.17190000000000003 212
-6.167999999999999 -2.0469 -0.9843999999999999 59
-14.1094 -4.6836 0.5171 44
-6.171900000000001 -2.0488 -0.8311 50
-14.1875 -4.7109 0.8672 0
-6.230499999999999 -2.0684 -0.6851 57
-9.1094 -3.0233999999999996 0.7803 168
-9.2656 -3.0762 1.0215 78
-12.1953 -4.0469 1.6475 9
-8.0312 -2.6660000000000004 1.2841999999999998 5
-14.0781 -4.6719 -0.1726 104
-8.1094 -2.6914 1.499 155
-6.1562 -2.0195 -1.1348 179
-14.2344 -4.668 0.1743 198
-6.1602 -2.0215 -0.9823999999999999 239
-14.25 -4.6758 0.522 190
-6.175800000000001 -2.0254 -0.8306 94
-14.3203 -4.6953 0.8740000000000001 130
-6.234400000000001 -2.0449 -0.6851 211
-9.1172 -2.9901999999999997 0.7798 177
-12.351600000000001 -4.0508 1.3622999999999998 217
-12.1875 -3.998 1.6444999999999999 136
-8.4609 -2.7754000000000003 1.3516 30
-14.2344 -4.668 -0.1743 101
-12.093800000000002 -3.9648000000000003 2.2363 199
-6.1640999999999995 -1.999 -1.1348 181
-14.4453 -4.6875 0.17679999999999998 85
-6.1484000000000005 -1.9950999999999999 -0.9795 70
-14.414100000000001 -4.6758 0.5273 70
-6.1640999999999995 -1.999 -0.8281000000000001 193
-9.1328 -2.9608999999999996 0.5557 244
-6.238300000000001 -2.0234 -0.6851 236
-9.1406 -2.9648000000000003 0.7812 91
-12.343800000000002 -4.0039 1.3594 220
-12.1953 -3.9551 1.6436000000000002 3
-8.8047 -2.8555 1.4043 148
-14.3203 -4.6445 -0.1752 55
-8.9062 -2.8887 1.6436000000000002 214
-6.1602 -1.9756 -1.1328 6
-14.6094 -4.6836 0.17850000000000002 176
-6.167999999999999 -1.9775 -0.981 92
-14.5625 -4.668 0.5322 250
-6.1640999999999995 -1.9766 -0.8271 148
-9.1172 -2.9238 0.5542 83
-6.25 -2.0039 -0.6851 125
-14.7578 -4.7344 1.2627 139
-12.343800000000002 -3.9589999999999996 1.3584 19
-12.1953 -3.9120999999999997 1.6425999999999998 76
-6.4297 -2.0625 -0.23399999999999999 181
-14.5547 -4.668 -0.1779 34
-8.9219 -2.8613 1.6444999999999999 106
-6.1484000000000005 -1.9453 -1.1299 106
-14.718800000000002 -4.6602 0.1797 117
-6.171900000000001 -1.9531 -0.9804999999999999 157
-9.1016 -2.8789 0.33149999999999996 254
-6.171900000000001 -1.9531 -0.8271 127
-9.1094 -2.8827999999999996 0.5532 64
-6.234400000000001 -1.9727000000000001 -0.6826000000000001 111
-14.8594 -4.7031 1.2695 31
-12.335899999999999 -3.9043 1.3555000000000001 104
-12.1797 -3.8535000000000004 1.6377000000000002 163
-6.425800000000001 -2.0332 -0.2335 178
-14.6875 -4.6484 -0.1793 30
-12.0625 -3.8164 2.2227 152
-6.1523 -1.9228999999999998 -1.1289 179
-6.1602 -1.9258000000000002 -0.9775 194
-9.0859 -2.8418 0.3308 2
-6.175800000000001 -1.9297 -0.8267 49
-9.0859 -2.8418 0.5513 110
-6.230499999999999 -1.9472999999999998 -0.6812 195
-15.0625 -4.7109 1.2861000000000002 171
-12.351600000000001 -3.8613 1.3555000000000001 221
-12.1328 -3.793 1.6299000000000001 217
-6.425800000000001 -2.0078 -0.23329999999999998 197
-14.851600000000001 -4.6406 -0.18100000000000002 124
-12.0625 -3.7714999999999996 2.2207 234
-6.1602 -1.9033000000000002 -1.1299 39
-9.0547 -2.7969 0.1099 186
-6.1523 -1.9013999999999998 -0.9756 232
-9.0781 -2.8047000000000004 0.3301 230
-6.1836 -1.9111000000000002 -0.8271 30
-9.1016 -2.8125 0.5513 223
-6.2227 -1.9228999999999998 -0.6801999999999999 92
-15.25 -4.7109 1.2997999999999998 32
-12.351600000000001 -3.8164 1.3544999999999998 116
-12.1172 -3.7441000000000004 1.626 157
-6.4140999999999995 -1.9813999999999998 -0.2325 167
-8.9453 -2.7637 1.4209 211
-9.0312 -2.7910000000000004 -0.1097 30
-12.0781 -3.7305 2.2207 113
-6.1602 -1.8809 -1.1279000000000001 193
-9.0391 -2.7598000000000003 0.1096 244
-6.1562 -1.8799000000000001 -0.9751000000000001 160
-9.0781 -2.7714999999999996 0.3296 99
-6.167999999999999 -1.8838 -0.8242 55
-9.1094 -2.7832 0.5518 208
-6.234400000000001 -1.9033000000000002 -0.6807 115
-9.1016 -2.7812 0.7739 8
-7.6797 -2.3457 -0.6523 91
-12.343800000000002 -3.7695 1.3525 255
-12.164100000000001 -3.7148000000000003 1.6309 208
-6.4062 -1.9569999999999999 -0.2322 61
-8.8984 -2.7188 1.4121000000000001 100
-9.0156 -2.7539 -0.1094 187
-12.085899999999999 -3.6914 2.2207 215
-6.1602 -1.8563999999999998 -1.127 236
-9.0391 -2.7245999999999997 0.1096 61
-6.1602 -1.8563999999999998 -0.9745999999999999 169
-9.1016 -2.7422000000000004 0.3301 184
-6.1640999999999995 -1.8574000000000002 -0.8228 162
-9.1094 -2.7461 0.5513 205
-6.2461 -1.8818000000000001 -0.6807 15
-9.1172 -2.748 0.7739 251
-7.699199999999999 -2.3203 -0.6533 215
-12.335899999999999 -3.7188 1.3496000000000001 12
-12.1719 -3.668 1.6299000000000001 191
-6.421900000000001 -1.9355000000000002 -0.2324 246
-8.9844 -2.707 1.4247999999999998 164
-9.0156 -2.7168 -0.1093 60
-12.085899999999999 -3.6406 2.2168 6
-6.144500000000001 -1.8281 -1.123 186
-9.0391 -2.6895 0.1094 139
-6.167999999999999 -1.835 -0.9745999999999999 94
-9.1562 -2.7226999999999997 0.3318 209
-6.1602 -1.8330000000000002 -0.8212999999999999 148
-9.1562 -2.7226999999999997 0.5527000000000001 190
-6.230499999999999 -1.8544999999999998 -0.6787000000000001 84
-9.125 -2.7148000000000003 0.7739 99
-9.0781 -2.7012 0.9906999999999999 26
-12.1797 -3.625 1.6299000000000001 40
-6.4140999999999995 -1.9091999999999998 -0.23190000000000002 88
-11.851600000000001 -3.5254000000000003 1.8779 166
-9.0391 -2.6895 -0.1094 99
-12.085899999999999 -3.5957 2.2168 97
-6.1602 -1.8086000000000002 -1.125 192
-9.0625 -2.6601999999999997 0.10949999999999999 184
-6.1640999999999995 -1.8096 -0.9731000000000001 220
-15.4219 -4.5273 0.5596 36
-6.171900000000001 -1.8115 -0.8218000000000001 124
-15.4453 -4.5352 0.9340999999999999 111
-6.230499999999999 -1.8291 -0.6777 65
-9.1328 -2.6816000000000004 0.7739 209
-9.0781 -2.6641000000000004 0.9897 94
-12.1797 -3.5762 1.6279 44
-6.4297 -1.8877000000000002 -0.2322 83
-11.8047 -3.4668 1.8700999999999999 94
-9.0781 -2.6660000000000004 -0.1097 63
-8.8047 -2.5839999999999996 1.6103999999999998 49
-6.1640999999999995 -1.7861000000000002 -1.124 203
-9.1016 -2.6387 0.1099 214
-6.1562 -1.7841999999999998 -0.9706999999999999 127
-6.171900000000001 -1.7881 -0.8208 206
-6.230499999999999 -1.8056999999999999 -0.6772 52
-9.1719 -2.6582 0.7764 212
-9.0938 -2.6348000000000003 0.9902 95
-12.1953 -3.5332 1.6279 210
-6.4140999999999995 -1.8594 -0.2314 14
-11.8047 -3.4219 1.8681999999999999 179
-12.085899999999999 -3.502 2.2109 210
-6.1602 -1.7646000000000002 -1.123 56
-9.1875 -2.6308999999999996 0.1108 163
-6.167999999999999 -1.7656 -0.9717 124
-6.1602 -1.7646000000000002 -0.8188 176
-6.238300000000001 -1.7861000000000002 -0.6772 245
-15.4453 -4.4219 1.3086000000000002 94
-12.3672 -3.5410000000000004 1.3466999999999998 186
-8.9609 -2.5664 1.1943000000000001 101
-6.4414 -1.8447 -0.2322 212
-8.8984 -2.5488 1.4043 149
-15.5469 -4.4531 -0.1882 18
-12.093800000000002 -3.4648000000000003 2.2109 66
-6.1602 -1.7422 -1.1211 198
-6.167999999999999 -1.7441 -0.9706999999999999 234
-6.1640999999999995 -1.7431999999999999 -0.8184 170
-15.4922 -4.3789 0.9340999999999999 189
-6.2422 -1.7646000000000002 -0.6772 4
-15.460899999999999 -4.3711 1.3086000000000002 66
-9.2812 -2.623 1.0088 37
-8.9688 -2.5352 1.1934 143
-6.480499999999999 -1.8319999999999999 -0.2334 191
-8.9375 -2.5273 1.4091999999999998 180
-15.4531 -4.3711 -0.1869 184
-12.0781 -3.4160000000000004 2.2051 41
-6.1562 -1.7158000000000002 -1.1191 204
-6.1797 -1.7227000000000001 -0.9717 186
-15.5078 -4.3242 0.5600999999999999 245
-6.167999999999999 -1.7197 -0.8179000000000001 203
-16.3125 -4.5469 0.9829000000000001 198
-6.2422 -1.7402000000000002 -0.6762999999999999 82
-15.4531 -4.3086 1.3066 157
-9.2656 -2.5839999999999996 1.0068000000000001 89
-6.519500000000001 -1.8184 -0.2346 15
-11.851600000000001 -3.3047000000000004 1.8691 223
-15.406199999999998 -4.2969 -0.1862 18
-12.0703 -3.3651999999999997 2.2012 120
-6.1602 -1.6943000000000001 -1.1191 251
-6.175800000000001 -1.6991999999999998 -0.9702 186
-18.8438 -5.1836 0.6807 187
-6.171900000000001 -1.6972999999999998 -0.8179000000000001 230
-21.9375 -6.0312 1.3203 59
-6.234400000000001 -1.7147999999999999 -0.6748000000000001 152
-15.4453 -4.25 1.3047 241
-9.2969 -2.5566 1.0088 8
-12.1953 -3.3535000000000004 1.6211000000000002 239
-6.605499999999999 -1.8163999999999998 -0.23739999999999997 115
-11.8047 -3.248 1.8613 142
-15.468800000000002 -4.2539 -0.1868 70
-12.0781 -3.3223000000000003 2.2012 2
-6.167999999999999 -1.6709 -1.1191 135
-18.875 -5.1133 0.2278 93
-6.1562 -1.6680000000000001 -0.9662999999999999 203
-18.875 -5.1172 0.6812 221
-6.1836 -1.6747999999999998 -0.8184 2
-20.7344 -5.6172 1.2470999999999999 216
-6.230499999999999 -1.6885 -0.6738 224
-15.460899999999999 -4.1875 1.3047 245
-9.3203 -2.5254 1.0107 47
-12.1875 -3.3026999999999997 1.6191 201
-6.644500000000001 -1.8008000000000002 -0.2386 107
-8.8047 -2.3848 1.3847999999999998 71
-18.8281 -5.1016 -0.2273 204
-12.085899999999999 -3.2733999999999996 2.1992 111
-6.167999999999999 -1.6475 -1.1181999999999999 120
-17.6562 -4.7148 0.21280000000000002 172
-6.171900000000001 -1.6484 -0.9678 97
-19.3125 -5.1602 0.6962999999999999 151
-6.171900000000001 -1.6475 -0.8159000000000001 180
-19.5625 -5.2227 1.1758 204
-6.2461 -1.6680000000000001 -0.6748000000000001 203
-15.460899999999999 -4.1289 1.3037 143
-9.3203 -2.4883 1.0098 145
-12.218800000000002 -3.2617000000000003 1.6211000000000002 203
-8.8594 -2.3652 1.3916 44
-17.5938 -4.6953 -0.2119 182
-12.085899999999999 -3.2266000000000004 2.1992 232
-6.1562 -1.6221 -1.1152 138
-17.6719 -4.6562 0.21280000000000002 63
-6.1797 -1.6279 -0.9678 54
-19.5625 -5.1523 0.7045999999999999 13
-6.1640999999999995 -1.624 -0.8145 218
-19.625 -5.171900000000001 1.1777 239
-6.25 -1.6465 -0.6748000000000001 237
-15.460899999999999 -4.0742 1.3027000000000002 101
-9.3438 -2.4609 1.0107 212
-12.218800000000002 -3.2188 1.6191 0
-9.0547 -2.3848 1.4209 153
-17.5781 -4.6328 -0.21170000000000003 7
-12.085899999999999 -3.1836 2.1953 86
-6.1602 -1.6006 -1.1152 221
-17.7188 -4.6016 0.21309999999999998 97
-6.175800000000001 -1.6044999999999998 -0.9668000000000001 182
-19.75 -5.1289 0.7109000000000001 13
-6.167999999999999 -1.6025 -0.8145 39
-19.875 -5.1640999999999995 1.1924 135
-6.238300000000001 -1.6211000000000002 -0.6729 252
-15.539100000000001 -4.0352 1.3075999999999999 45
-9.375 -2.4355 1.0137 66
-12.210899999999999 -3.1719 1.6181999999999999 93
-9.1016 -2.3652 1.4277000000000002 64
-17.6094 -4.5742 -0.2119 133
-8.6719 -2.252 1.5713 159
-6.1562 -1.5781 -1.1133 214
-6.1602 -1.5791 -0.9629000000000001 247
-12.398399999999999 -3.1797000000000004 0.44530000000000003 52
-6.1797 -1.585 -0.8154 145
-12.3828 -3.1757999999999997 0.7412000000000001 174
-6.2422 -1.5996000000000001 -0.6724 250
-12.414100000000001 -3.1836 1.043 78
-9.4062 -2.4102 1.0156 235
-12.210899999999999 -3.1308999999999996 1.6162 116
-11.8203 -3.0293 1.8535 213
-12.3594 -3.1699 -0.1483 155
-12.023399999999999 -3.082 2.1816 210
-6.1640999999999995 -1.5586000000000002 -1.1133 155
-12.4453 -3.1464999999999996 0.1492 179
-6.1602 -1.5575999999999999 -0.9623999999999999 10
-12.3594 -3.125 0.4434 235
-6.175800000000001 -1.5615 -0.8140000000000001 217
-12.3594 -3.125 0.7393000000000001 90
-6.203099999999999 -1.5684 -0.6679999999999999 198
-12.351600000000001 -3.123 1.0371 219
-9.4297 -2.3848 1.0176 143
-12.218800000000002 -3.0879000000000003 1.6152000000000002 106
-11.773399999999999 -2.9785000000000004 1.8457 31
-12.343800000000002 -3.1211 -0.1479 33
-11.960899999999999 -3.0233999999999996 2.168 39
-6.1602 -1.5322 -1.1113 118
-12.3906 -3.082 0.1484 122
-6.171900000000001 -1.5352000000000001 -0.9629000000000001 109
-12.335899999999999 -3.0683999999999996 0.4421 231
-6.167999999999999 -1.5352000000000001 -0.8125 29
-12.351600000000001 -3.0723000000000003 0.7378 7
-6.1328 -1.5253999999999999 -0.6597 147
-12.3594 -3.0742000000000003 1.0361 209
-9.4688 -2.3555 1.0205 157
-6.3711 -1.585 -0.37939999999999996 83
-12.2344 -3.043 1.6162 96
-11.773399999999999 -2.9297000000000004 1.8437999999999999 57
-12.3047 -3.0605 -0.14730000000000001 206
-11.843800000000002 -2.9473000000000003 2.1445 132
-6.1523 -1.5078 -1.1094 123
-12.3594 -3.0273000000000003 0.1478 65
-6.167999999999999 -1.5116999999999998 -0.9619 215
-12.3281 -3.0214999999999996 0.4414 50
-6.1602 -1.5097999999999998 -0.8101 72
-12.351600000000001 -3.0273000000000003 0.7373000000000001 20
-6.109400000000001 -1.4971 -0.6567000000000001 243
-12.3672 -3.0312 1.0361 214
-9.5156 -2.332 1.0254 191
-6.3438 -1.5547 -0.3774 240
-12.2422 -3.002 1.6162 192
-11.7969 -2.8926 1.8457 86
-12.3203 -3.0195 -0.1475 176
-11.8125 -2.8945 2.1367 27
-6.144500000000001 -1.4834 -1.1074 26
-12.3906 -2.9901999999999997 0.1482 200
-6.171900000000001 -1.4902000000000002 -0.9619 105
-12.335899999999999 -2.9766000000000004 0.4412 109
-6.1640999999999995 -1.4883000000000002 -0.8101 226
-12.3672 -2.9844 0.7373000000000001 25
-6.0938 -1.4707 -0.6543000000000001 250
-12.4219 -2.998 1.04 196
-6.2265999999999995 -1.5029 -0.5195000000000001 197
-9.5781 -2.3105 1.0303 183
-6.3477 -1.5322 -0.3772 209
-12.25 -2.957 1.6152000000000002 59
-7.082000000000001 -1.709 -0.2527 92
-11.851600000000001 -2.8613 1.8525 226
-12.335899999999999 -2.9766000000000004 -0.1475 75
-9.1953 -2.2188 1.6602000000000001 67
-6.1484000000000005 -1.4609 -1.1064 212
-12.406199999999998 -2.9492000000000003 0.1482 196
-6.1640999999999995 -1.4647999999999999 -0.9595 155
-12.3906 -2.9452999999999996 0.4429 140
-6.171900000000001 -1.4678 -0.8105 152
-12.398399999999999 -2.9473000000000003 0.7387999999999999 172
-6.1015999999999995 -1.4502000000000002 -0.6548 119
-12.476600000000001 -2.9648000000000003 1.0439 41
-6.1875 -1.4707 -0.5156000000000001 228
-12.375 -2.9414 1.3319999999999999 48
-6.3398 -1.5068000000000001 -0.3765 200
-9.6406 -2.291 1.2695 247
-7.1562 -1.7012 -0.2551 195
-9.6719 -2.2988 1.5097999999999998 75
-12.351600000000001 -2.9355 -0.1476 138
-9.2031 -2.1875 1.6602000000000001 227
-6.1523 -1.4404 -1.1064 164
-12.476600000000001 -2.9219 0.1489 255
-6.1602 -1.4424000000000001 -0.9584999999999999 119
-12.4297 -2.9101999999999997 0.44380000000000003 93
-6.171900000000001 -1.4453 -0.8096 62
-12.4922 -2.9238 0.7437 120
-6.1172 -1.4325999999999999 -0.6557999999999999 28
-13.468800000000002 -3.1543 1.126 95
-6.1914 -1.4502000000000002 -0.5156000000000001 201
-12.5156 -2.9316000000000004 1.3466999999999998 83
-6.3477 -1.4872999999999998 -0.37670000000000003 121
-9.6406 -2.2578 1.2676 56
-7.2890999999999995 -1.7069999999999999 -0.2595 89
-9.6641 -2.2617 1.5068000000000001 170
-12.398399999999999 -2.9023000000000003 -0.1479 7
-11.781199999999998 -2.7577999999999996 2.127 3
-6.1640999999999995 -1.4219 -1.1084 68
-6.167999999999999 -1.4228999999999998 -0.9590000000000001 92
-12.4844 -2.8808999999999996 0.4458 26
-6.167999999999999 -1.4228999999999998 -0.8086 116
-13.4844 -3.1113 0.8027 253
-6.136699999999999 -1.416 -0.6577 93
-13.460899999999999 -3.1055 1.125 97
-6.2188 -1.4346 -0.5176 7
-13.460899999999999 -3.1055 1.4472999999999998 135
-6.355499999999999 -1.4658000000000002 -0.377 70
-9.6719 -2.2324 1.2715 151
-7.3398 -1.6934 -0.2612 225
-9.6562 -2.2285 1.5049000000000001 138
-12.460899999999999 -2.873 -0.14859999999999998 104
-9.6094 -2.2168 1.7305000000000001 88
-6.1523 -1.3936000000000002 -1.1045 131
-13.476600000000001 -3.0547000000000004 0.1606 59
-6.175800000000001 -1.3994 -0.9590000000000001 18
-13.476600000000001 -3.0547000000000004 0.4807 45
-6.1562 -1.3955000000000002 -0.8066 12
-13.476600000000001 -3.0547000000000004 0.8012999999999999 134
-6.1602 -1.3965 -0.6592 147
-13.476600000000001 -3.0547000000000004 1.125 14
-13.476600000000001 -3.0547000000000004 1.4472999999999998 90
-6.363300000000001 -1.4424000000000001 -0.377 44
-9.6953 -2.1973 1.2725 47
-7.5938 -1.7207 -0.27 115
-9.7266 -2.2051 1.5146000000000002 177
-13.4453 -3.0469 -0.1603 58
-9.5781 -2.1719 1.7246000000000001 250
-6.140599999999999 -1.3691 -1.1016 128
-13.476600000000001 -3.0058999999999996 0.1606 78
-6.1797 -1.3779 -0.9590000000000001 74
-13.476600000000001 -3.0039 0.4802 72
-6.171900000000001 -1.376 -0.8076000000000001 66
-13.468800000000002 -3.0039 0.8003 90
-6.2188 -1.3866999999999998 -0.665 191
-13.468800000000002 -3.0039 1.124 151
-13.476600000000001 -3.0039 1.4463 146
-12.2422 -2.7305 1.6084 194
-7.675800000000001 -1.7119 -0.2729 142
-9.8047 -2.1855 1.5253999999999999 235
-13.4453 -2.998 -0.1603 38
-9.5781 -2.1348 1.7227000000000001 238
-6.1484000000000005 -1.3486000000000002 -1.1025 24
-13.4922 -2.9589999999999996 0.1606 180
-6.1602 -1.3516 -0.9551000000000001 49
-13.468800000000002 -2.9551 0.4797 38
-6.175800000000001 -1.3544999999999998 -0.8076000000000001 172
-13.468800000000002 -2.9551 0.7998000000000001 173
-13.468800000000002 -2.9551 1.123 143
-13.4844 -2.957 1.4463 7
-12.2344 -2.6836 1.6055000000000001 117
-7.6836 -1.6855000000000002 -0.2729 225
-9.8906 -2.1699 1.5371000000000001 18
-13.460899999999999 -2.9531 -0.1603 198
-9.5703 -2.0996 1.7207 204
-6.1523 -1.3271000000000002 -1.1025 9
-13.476600000000001 -2.9062 0.1604 216
-6.1562 -1.3281 -0.9541 3
-13.460899999999999 -2.9023000000000003 0.479 255
-6.1797 -1.3330000000000002 -0.8076000000000001 75
-13.476600000000001 -2.9062 0.7993000000000001 82
-6.2734000000000005 -1.3525 -0.6698999999999999 204
-13.4531 -2.9004000000000003 1.1201 27
-13.4922 -2.9101999999999997 1.4463 41
-12.2422 -2.6406 1.6055000000000001 176
-13.468800000000002 -2.9043 -0.4792 41
-12.0469 -2.5976999999999997 1.8730000000000002 90
-13.460899999999999 -2.9023000000000003 -0.1602 123
-9.8438 -2.123 1.7686000000000002 231
-6.1523 -1.3047 -1.1016 190
-13.4453 -2.8516000000000004 0.1598 137
-6.1562 -1.3047 -0.9526 114
-13.4531 -2.8535000000000004 0.47850000000000004 220
-6.1640999999999995 -1.3066 -0.8051999999999999 201
-13.476600000000001 -2.8574 0.7988 214
-6.261699999999999 -1.3271000000000002 -0.6679999999999999 202
-13.468800000000002 -2.8555 1.1211 172
-13.468800000000002 -2.8555 1.4424000000000001 252
-12.2422 -2.5957 1.6044999999999998 84
-13.460899999999999 -2.8555 -0.4788 198
-12.0547 -2.5566 1.8730000000000002 196
-13.4531 -2.8516000000000004 -0.15990000000000001 130
-9.8906 -2.0957 1.7753999999999999 81
-6.144500000000001 -1.2803 -1.0986 6
-13.3594 -2.7851999999999997 0.15869999999999998 130
-6.171900000000001 -1.2861000000000002 -0.9545999999999999 16
-13.460899999999999 -2.8047000000000004 0.47850000000000004 75
-6.1640999999999995 -1.2841999999999998 -0.8042 6
-13.460899999999999 -2.8047000000000004 0.7974 116
-6.2734000000000005 -1.3075999999999999 -0.6689 11
-13.476600000000001 -2.8066000000000004 1.1201 197
-13.468800000000002 -2.8066000000000004 1.4413999999999998 207
-12.2422 -2.5508 1.6025 110
-13.4844 -2.8105 -0.4792 32
-12.0781 -2.5176 1.875 131
-13.4531 -2.8026999999999997 -0.1598 69
-11.7578 -2.4492 2.1113 24
-6.144500000000001 -1.2598 -1.0986 235
-13.3594 -2.7401999999999997 0.1586 107
-6.175800000000001 -1.2666 -0.9551000000000001 2
-13.476600000000001 -2.7637 0.47850000000000004 112
-6.171900000000001 -1.2666 -0.8051999999999999 37
-13.5156 -2.7714999999999996 0.7998000000000001 168
-6.261699999999999 -1.2841999999999998 -0.667 83
-13.5547 -2.7793 1.126 157
-13.460899999999999 -2.7617000000000003 1.4404 252
-12.25 -2.5117 1.6025 119
-13.476600000000001 -2.7637 -0.4788 198
-12.0781 -2.4785 1.874 70
-13.4453 -2.7577999999999996 -0.1597 152
-11.7578 -2.4102 2.1074 112
-6.140599999999999 -1.2383 -1.0967 0
-13.3594 -2.6933999999999996 0.15839999999999999 69
-6.167999999999999 -1.2431999999999999 -0.9526 90
-13.5547 -2.7324 0.48100000000000004 148
-6.175800000000001 -1.2451 -0.8047 84
-13.5547 -2.7344 0.8022 115
-6.25 -1.2607 -0.6655 46
-13.5781 -2.7363 1.1279000000000001 89
-6.4023 -1.291 -0.5297999999999999 230
-13.476600000000001 -2.7168 1.4404 57
-12.2344 -2.4668 1.6006 147
-13.460899999999999 -2.7148000000000003 -0.4778 229
-12.093800000000002 -2.4395 1.875 197
-13.460899999999999 -2.7148000000000003 -0.1597 170
-11.7422 -2.3672 2.1055 50
-6.136699999999999 -1.2129 -1.0957 185
-13.375 -2.6426 0.1586 218
-6.1523 -1.2158 -0.9497 67
-13.5781 -2.6836 0.4814 138
-6.1836 -1.2227 -0.8057 51
-13.5781 -2.6836 0.8027 241
-6.2422 -1.2334 -0.6640999999999999 90
-13.5703 -2.6816000000000004 1.126 137
-6.292999999999999 -1.2441 -0.5205 98
-13.476600000000001 -2.6641000000000004 1.4394999999999998 137
-12.25 -2.4219 1.6006 32
-13.460899999999999 -2.6601999999999997 -0.4775 0
-12.101600000000001 -2.3926 1.875 153
-13.460899999999999 -2.6601999999999997 -0.1595 200
-11.75 -2.3223 2.1055 180
-6.144500000000001 -1.1924 -1.0967 229
-13.3828 -2.5957 0.1586 214
-6.1640999999999995 -1.1963 -0.9512 254
-13.5625 -2.6308999999999996 0.4805 142
-6.1797 -1.1992 -0.8042 246
-13.601600000000001 -2.6387 0.8031999999999999 118
-6.3125 -1.2246 -0.6709 227
-13.5781 -2.6348000000000003 1.126 137
-6.2812 -1.2187999999999999 -0.519 11
-13.468800000000002 -2.6132999999999997 1.4375 182
-12.25 -2.377 1.5996000000000001 157
-13.460899999999999 -2.6113 -0.4771 49
-12.093800000000002 -2.3457 1.8721 68
-13.4453 -2.6094 -0.1593 17
-11.7656 -2.2832 2.1055 22
-6.1328 -1.1689 -1.0937999999999999 190
-13.375 -2.5488 0.1583 71
-6.1562 -1.1738 -0.9492 34
-13.5625 -2.5839999999999996 0.4805 94
-6.171900000000001 -1.1758 -0.8027 47
-13.585899999999999 -2.5898000000000003 0.8022 204
-6.3438 -1.209 -0.6738 16
-13.593800000000002 -2.5898000000000003 1.127 199
-6.300800000000001 -1.2002 -0.52 232
-13.4531 -2.5625 1.4346 53
-12.2578 -2.3359 1.5996000000000001 80
-13.468800000000002 -2.5664 -0.4768 165
-11.8594 -2.2598 1.835 242
-13.4453 -2.5625 -0.1592 23
-11.7656 -2.2422 2.1055 171
-6.1328 -1.1475 -1.0928 214
-13.375 -2.5039 0.1582 181
-6.171900000000001 -1.1553 -0.9512 46
-13.5781 -2.541 0.4805 83
-6.171900000000001 -1.1553 -0.8022 250
-13.5781 -2.541 0.8008 35
-6.3477 -1.1875 -0.6738 61
-13.601600000000001 -2.5449 1.126 179
-6.300800000000001 -1.1797 -0.52 183
-13.468800000000002 -2.5215 1.4355000000000002 131
-12.2344 -2.2891 1.5957 108
-13.476600000000001 -2.5215 -0.4771 201
-11.8594 -2.2188 1.8330000000000002 46
-13.4453 -2.5176 -0.1591 98
-11.773399999999999 -2.2031 2.1055 173
-6.1289 -1.124 -1.0918 108
-13.3828 -2.4551 0.1582 220
-6.1562 -1.1289 -0.9481999999999999 98
-13.5703 -2.4883 0.48 45
-6.1797 -1.1328 -0.8027 225
-13.585899999999999 -2.4902 0.8008 203
-6.300800000000001 -1.1553 -0.6685 96
-13.5781 -2.4883 1.124 134
-6.3164 -1.1582 -0.521 175
-13.476600000000001 -2.4707 1.4355000000000002 191
-12.2344 -2.2441 1.5947 115
-13.460899999999999 -2.4688 -0.47609999999999997 163
-11.8594 -2.1738 1.8319999999999999 187
-13.4531 -2.4668 -0.1591 9
-11.781199999999998 -2.1602 2.1055 33
-13.3906 -2.4082 0.1582 215
-6.1523 -1.1064 -0.9468000000000001 147
-13.5625 -2.4375 0.4792 213
-6.1836 -1.1113 -0.8027 202
-13.593800000000002 -2.4434 0.8008 46
-6.355499999999999 -1.1426 -0.6738 143
-13.5781 -2.4395 1.123 117
-6.3086 -1.1338 -0.52 182
-13.4922 -2.4258 1.4355000000000002 137
-12.2578 -2.2031 1.5966999999999998 134
-13.4453 -2.418 -0.4753 250
-11.875 -2.1348 1.8330000000000002 135
-13.4453 -2.418 -0.1589 50
-11.781199999999998 -2.1191 2.1035 127
-13.398399999999999 -2.3574 0.1582 51
-6.140599999999999 -1.0811 -0.9443 123
-13.5547 -2.3848 0.479 195
-6.171900000000001 -1.0859 -0.8008 15
-13.5781 -2.3906 0.7998000000000001 88
-6.359400000000001 -1.1191 -0.6738 168
-13.5781 -2.3906 1.123 35
-6.300800000000001 -1.1084 -0.519 231
-13.4844 -2.373 1.4346 140
-12.281199999999998 -2.1602 1.5986000000000002 219
-13.4531 -2.3672 -0.47509999999999997 58
-12.085899999999999 -2.127 1.8643 248
-13.4375 -2.3652 -0.15869999999999998 89
-11.789100000000001 -2.0742 2.1035 165
-6.511699999999999 -1.1220999999999999 -1.1582 222
-13.4375 -2.3164 0.1586 218
-6.1523 -1.0605 -0.9453 122
-13.5625 -2.3379 0.479 114
-6.167999999999999 -1.0635 -0.7993000000000001 98
-13.5781 -2.3398 0.7988 191
-6.363300000000001 -1.0967 -0.6738 133
-13.593800000000002 -2.3438 1.123 89
-6.3125 -1.0879 -0.5195000000000001 199
-13.4844 -2.3242 1.4336000000000002 170
-12.273399999999999 -2.1152 1.5957 221
-13.460899999999999 -2.3203 -0.47509999999999997 240
-12.1172 -2.0898 1.8691 114
-13.4219 -2.3145 -0.15839999999999999 236
-11.773399999999999 -2.0293 2.0977 209
-6.511699999999999 -1.0986 -1.1572 143
-13.4297 -2.2676 0.15839999999999999 221
-6.1523 -1.0381 -0.9448000000000001 142
-13.5547 -2.2891 0.4783 10
-6.175800000000001 -1.043 -0.8003 154
-13.5625 -2.2891 0.7974 47
-6.3672 -1.0742 -0.6738 97
-13.5781 -2.293 1.1211 165
-6.324199999999999 -1.0674 -0.52 54
-13.4922 -2.2773 1.4336000000000002 36
-7.5 -1.2656 -0.4397 130
-12.2578 -2.0684 1.5937999999999999 229
-13.468800000000002 -2.2734 -0.4753 173
-12.1172 -2.0449 1.8681999999999999 13
-13.4375 -2.2676 -0.15839999999999999 103
-11.7578 -1.9844 2.0957 131
-6.5352 -1.0791 -1.1602 48
-13.4219 -2.2168 0.1582 135
-6.1484000000000005 -1.0156 -0.9434 71
-13.5625 -2.2402 0.4783 85
-6.175800000000001 -1.0205 -0.7998000000000001 207
-13.5703 -2.2422 0.7979 110
-6.2578 -1.0332 -0.6620999999999999 119
-13.5625 -2.2402 1.1191 113
-6.421900000000001 -1.0615 -0.5283 219
-13.5078 -2.2324 1.4346 217
-7.6797 -1.2686 -0.45020000000000004 42
-12.25 -2.0234 1.5918 24
-13.460899999999999 -2.2246 -0.4746 240
-12.1094 -2.0 1.8652000000000002 134
-13.4297 -2.2188 -0.1583 218
-11.7656 -1.9434 2.0957 150
-6.3711 -1.0312000000000001 -1.1309 99
-13.4453 -2.1758 0.15839999999999999 66
-6.140599999999999 -0.9932 -0.9419 109
-13.5469 -2.1914 0.47729999999999995 165
-6.1836 -1.0 -0.8003 53
-13.5547 -2.1934 0.7959 99
-6.261699999999999 -1.0137 -0.6620999999999999 7
-13.5625 -2.1934 1.1181999999999999 18
-13.523399999999999 -2.1875 1.4355000000000002 36
-7.738300000000001 -1.252 -0.4534 147
-12.2578 -1.9824000000000002 1.5918 67
-13.4531 -2.1777 -0.47409999999999997 33
-12.1172 -1.96 1.8652000000000002 219
-13.4375 -2.1738 -0.1583 66
-11.7656 -1.9033000000000002 2.0938 112
-6.1797 -0.9790000000000001 -1.0957 176
-13.4453 -2.1289 0.1583 158
-6.1484000000000005 -0.9736 -0.9423999999999999 11
-13.523399999999999 -2.1426 0.4763 237
-6.171900000000001 -0.978 -0.7983 53
-13.539100000000001 -2.1445 0.7948999999999999 154
-6.2734000000000005 -0.9937 -0.6631 177
-13.4844 -2.1348 1.1113 189
-6.6484000000000005 -1.0527 -0.5459 92
-13.4531 -2.1309 1.4268 124
-7.7461 -1.2266 -0.4536 120
-12.2656 -1.9424000000000001 1.5918 185
-13.4531 -2.1309 -0.4736 215
-12.101600000000001 -1.9169999999999998 1.8622999999999998 91
-13.4297 -2.127 -0.15810000000000002 211
-11.773399999999999 -1.8652000000000002 2.0957 226
-6.1172 -0.9458 -1.084 173
-13.460899999999999 -2.082 0.15839999999999999 66
-6.1523 -0.9512 -0.9423999999999999 141
-13.4531 -2.0801 0.4736 135
-6.167999999999999 -0.9541 -0.7974 61
-13.4453 -2.0781 0.7886 210
-6.265599999999999 -0.9692000000000001 -0.6620999999999999 59
-13.4531 -2.0801 1.1084 149
-13.4453 -2.0781 1.4258000000000002 165
-12.273399999999999 -1.8975 1.5918 217
-13.468800000000002 -2.082 -0.47409999999999997 77
-12.101600000000001 -1.8711000000000002 1.8613 176
-13.4219 -2.0762 -0.158 143
-11.7656 -1.8184 2.0918 190
-6.105499999999999 -0.9224 -1.0811 86
-13.4375 -2.0293 0.158 160
-6.144500000000001 -0.9281999999999999 -0.9414 76
-13.4375 -2.0293 0.4727 251
-6.175800000000001 -0.9331 -0.7979 162
-13.4219 -2.0273 0.7870999999999999 42
-6.265599999999999 -0.9462999999999999 -0.6611 76
-13.460899999999999 -2.0332 1.1084 164
-13.4375 -2.0293 1.4238 195
-13.4375 -2.0293 -0.7881 94
-12.2656 -1.8525 1.5897999999999999 76
-13.460899999999999 -2.0332 -0.4736 81
-12.101600000000001 -1.8281 1.8603999999999998 214
-13.4297 -2.0293 -0.158 43
-11.7578 -1.7753999999999999 2.0898 128
-6.0898 -0.8979 -1.0781 166
-13.4531 -1.9844 0.15810000000000002 113
-6.144500000000001 -0.9062 -0.9404 106
-13.4375 -1.9824000000000002 0.4727 252
-6.1797 -0.9116 -0.7979 17
-13.4297 -1.9805000000000001 0.7870999999999999 51
-6.2578 -0.9229 -0.6602 68
-13.4531 -1.9834 1.1064 88
-6.855499999999999 -1.0107 -0.5625 241
-13.4453 -1.9824000000000002 1.4238 11
-13.4531 -1.9844 -0.7886 146
-12.2578 -1.8086000000000002 1.5888999999999998 105
-13.4453 -1.9834 -0.4729 16
-12.125 -1.7881 1.8613 185
-13.4375 -1.9813999999999998 -0.1578 164
-11.7578 -1.7344 2.0898 75
-6.1211 -0.8809 -1.083 238
-13.4297 -1.9336000000000002 0.1578 212
-6.144500000000001 -0.8843000000000001 -0.9399 205
-13.4297 -1.9325999999999999 0.4719 88
-6.1914 -0.8911 -0.7988 142
-13.4375 -1.9346 0.7876000000000001 173
-6.265599999999999 -0.9018999999999999 -0.6606000000000001 228
-13.4375 -1.9336000000000002 1.1055 38
-13.4453 -1.9346 1.4228999999999998 11
-12.2656 -1.7656 1.5888999999999998 108
-13.4375 -1.9346 -0.47240000000000004 222
-12.1172 -1.7441 1.8603999999999998 131
-13.4453 -1.9346 -0.158 226
-11.773399999999999 -1.6943000000000001 2.0898 3
-6.105499999999999 -0.8573999999999999 -1.0801 251
-13.4375 -1.8857 0.1577 151
-6.1523 -0.8637999999999999 -0.9409000000000001 231
-13.4297 -1.8847999999999998 0.4717 205
-6.1836 -0.8676999999999999 -0.7974 46
-13.4453 -1.8877000000000002 0.7870999999999999 194
-6.2734000000000005 -0.8804000000000001 -0.6611 142
-13.4297 -1.8847999999999998 1.1045 14
-6.925800000000001 -0.9722 -0.5674 120
-13.4375 -1.8857 1.4209 45
-13.4375 -1.8866999999999998 -0.7870999999999999 87
-12.273399999999999 -1.7227000000000001 1.5888999999999998 188
-13.539100000000001 -1.9003999999999999 -0.4756 64
-12.101600000000001 -1.6982 1.8574000000000002 125
-13.4297 -1.8847999999999998 -0.1577 89
-11.7656 -1.6522999999999999 2.0879 206
-6.1211 -0.8373999999999999 -1.082 32
-13.4453 -1.8388999999999998 0.1577 150
-6.1523 -0.8418000000000001 -0.9404 209
-13.4297 -1.8378999999999999 0.4717 122
-6.175800000000001 -0.8452 -0.7964 154
-13.4375 -1.8378999999999999 0.7866 167
-6.2734000000000005 -0.8584 -0.6611 207
-13.4531 -1.8408000000000002 1.1055 109
-6.8984000000000005 -0.9438 -0.5649000000000001 175
-13.4219 -1.8359 1.4188999999999998 19
-13.4219 -1.8359 -0.7856000000000001 117
-12.281199999999998 -1.6806999999999999 1.5888999999999998 15
-12.1172 -1.6572 1.8574000000000002 248
-13.4297 -1.8378999999999999 -0.1576 167
-11.7422 -1.6063999999999998 2.082 29
-6.1172 -0.8149 -1.0811 34
-13.4375 -1.791 0.1577 235
-6.207000000000001 -0.8271 -0.9481999999999999 216
-13.4375 -1.79 0.4714 5
-6.1836 -0.8242 -0.7968999999999999 205
-13.4297 -1.7891 0.7856000000000001 69
-6.2773 -0.8364 -0.6611 73
-12.539100000000001 -1.6709 1.0293 101
-7.0664 -0.9414 -0.5786 217
-12.5156 -1.6669999999999998 1.3222999999999998 78
-13.4297 -1.79 -0.7856000000000001 66
-12.2656 -1.6347999999999998 1.5859 10
-13.4531 -1.7930000000000001 -0.4722 36
-12.1172 -1.6152000000000002 1.8574000000000002 217
-13.4219 -1.7881 -0.1575 46
-11.7422 -1.5644999999999998 2.0801 0
-6.1289 -0.7948999999999999 -1.082 107
-13.4453 -1.7431999999999999 0.1576 49
-6.1875 -0.8022 -0.9448000000000001 97
-6.1836 -0.8018000000000001 -0.7964 135
-12.5156 -1.6230000000000002 0.7314 16
-6.2578 -0.8115000000000001 -0.6587000000000001 245
-12.4922 -1.6200999999999999 1.0254 96
-7.1797 -0.9312 -0.5879 194
-12.5156 -1.6230000000000002 1.3222999999999998 167
-13.4219 -1.7412 -0.7852 205
-12.25 -1.5888999999999998 1.5830000000000002 103
-13.4531 -1.7450999999999999 -0.4719 137
-12.1328 -1.5732 1.8584 74
-13.4297 -1.7422 -0.1575 56
-11.75 -1.5244 2.082 30
-6.167999999999999 -0.7793000000000001 -1.0889 237
-12.5078 -1.5800999999999998 0.1466 219
-6.1523 -0.7773 -0.9390000000000001 230
-12.5 -1.5791 0.43799999999999994 203
-6.199199999999999 -0.7831999999999999 -0.7983 50
-12.5156 -1.5811000000000002 0.7314 228
-6.2812 -0.7935 -0.6606000000000001 123
-12.4844 -1.5771000000000002 1.0244 242
-7.238300000000001 -0.9146 -0.5922999999999999 81
-12.4531 -1.5732 1.3144999999999998 223
-12.2578 -1.5488 1.584 240
-12.5156 -1.5811000000000002 -0.4387 209
-11.9531 -1.5097999999999998 1.8311000000000002 22
-12.5 -1.5791 -0.1465 92
-11.7578 -1.4853999999999998 2.082 48
-6.1953 -0.7617 -1.0928 164
-12.5156 -1.5391 0.1466 155
-6.1523 -0.7563 -0.9384999999999999 116
-12.4531 -1.5312000000000001 0.4363 150
-6.1875 -0.7606999999999999 -0.7964 221
-12.3906 -1.5244 0.7236 154
-6.300800000000001 -0.7744 -0.6626000000000001 231
-12.3672 -1.5205000000000002 1.0146 22
-7.3438 -0.9028 -0.6006 96
-12.351600000000001 -1.5194999999999999 1.3037 38
-12.5078 -1.5381 -0.7304999999999999 104
-12.2656 -1.5078 1.584 128
-12.523399999999999 -1.54 -0.4387 193
-11.875 -1.4609 1.8184 245
-12.460899999999999 -1.5322 -0.1459 85
-11.75 -1.4453 2.0801 145
-6.1953 -0.7373000000000001 -1.0928 46
-12.4219 -1.4794999999999998 0.1454 56
-6.1640999999999995 -0.7339 -0.9399 187
-12.3203 -1.4678 0.4316 187
-6.1836 -0.7363 -0.7954000000000001 114
-12.3203 -1.4668 0.7192000000000001 62
-6.292999999999999 -0.7490000000000001 -0.6616 57
-12.3594 -1.4716999999999998 1.0127 158
-12.3125 -1.4658000000000002 1.2988 74
-12.4531 -1.4824000000000002 -0.7271 18
-12.2656 -1.46 1.5830000000000002 120
-11.8828 -1.415 1.8184 217
-12.3047 -1.4647999999999999 -0.1439 126
-11.7422 -1.3984 2.0781 166
-6.1914 -0.7153 -1.0918 86
-12.3828 -1.4306999999999999 0.1449 55
-6.1562 -0.7114 -0.9384999999999999 233
-12.3047 -1.4219 0.43090000000000006 228
-6.1875 -0.7143999999999999 -0.7954000000000001 120
-12.289100000000001 -1.4188999999999998 0.7168000000000001 199
-6.2773 -0.7251000000000001 -0.6592 51
-12.3047 -1.4219 1.0078 237
-12.281199999999998 -1.4188999999999998 1.2949000000000002 70
-12.3281 -1.4247999999999998 -0.7197 80
-12.2578 -1.416 1.5819999999999999 82
-12.3281 -1.4238 -0.4316 232
-11.898399999999999 -1.374 1.8193000000000001 57
-12.273399999999999 -1.4180000000000001 -0.1436 81
-11.7344 -1.3563999999999998 2.0762 17
-6.1953 -0.6948000000000001 -1.0918 128
-12.2969 -1.3799000000000001 0.1438 8
-6.1523 -0.6904 -0.938 168
-12.289100000000001 -1.3779 0.4299 203
-6.203099999999999 -0.6958 -0.7974 166
-12.281199999999998 -1.3779 0.7162999999999999 76
-6.2852 -0.7051000000000001 -0.6602 208
-12.289100000000001 -1.3788999999999998 1.0068000000000001 71
-7.332000000000001 -0.8228 -0.5991 46
-12.2969 -1.3799000000000001 1.2959 18
-12.289100000000001 -1.3779 -0.7168000000000001 43
-12.2578 -1.375 1.5811000000000002 208
-12.3047 -1.3799000000000001 -0.4304 247
-12.101600000000001 -1.3574000000000002 1.8506 208
-12.281199999999998 -1.3769999999999998 -0.1436 192
-11.7344 -1.3163999999999998 2.0762 211
-6.2422 -0.6792 -1.0996 207
-12.3125 -1.3397999999999999 0.1439 105
-6.140599999999999 -0.6685 -0.9355 135
-12.289100000000001 -1.3378999999999999 0.4299 9
-6.207000000000001 -0.6753 -0.7974 153
-12.3047 -1.3388999999999998 0.7178 96
-6.3047 -0.6859999999999999 -0.6620999999999999 59
-12.3125 -1.3397999999999999 1.0078 241
-7.167999999999999 -0.7803 -0.5854 123
-12.335899999999999 -1.3418 1.2997999999999998 32
-12.273399999999999 -1.3359 -0.7158 47
-12.25 -1.3330000000000002 1.5791 226
-12.289100000000001 -1.3369 -0.42969999999999997 246
-12.1172 -1.3184 1.8525 253
-12.273399999999999 -1.3359 -0.1436 35
-11.7578 -1.2793 2.0781 141
-6.230499999999999 -0.6548 -1.0977 146
-12.335899999999999 -1.2969 0.1442 139
-6.1523 -0.6465000000000001 -0.9365000000000001 255
-12.281199999999998 -1.291 0.4294 142
-6.1953 -0.6514 -0.7959 105
-12.3125 -1.2938999999999998 0.7178 107
-6.3047 -0.6626000000000001 -0.6616 213
-12.375 -1.3008000000000002 1.0127 211
-7.136699999999999 -0.75 -0.5825 31
-12.375 -1.2997999999999998 1.3027000000000002 103
-12.289100000000001 -1.291 -0.7162999999999999 52
-12.2578 -1.2881 1.5800999999999998 14
-12.2969 -1.2930000000000001 -0.4299 44
-12.101600000000001 -1.2715 1.8486000000000002 252
-12.2656 -1.2891 -0.1433 16
-11.75 -1.2344 2.0762 148
-6.2461 -0.6343 -1.0996 97
-12.351600000000001 -1.2549 0.14429999999999998 251
-6.1602 -0.626 -0.938 218
-12.3281 -1.252 0.43090000000000006 109
-6.1914 -0.6289 -0.7948999999999999 54
-12.351600000000001 -1.2549 0.7197 177
-6.324199999999999 -0.6426000000000001 -0.6636 43
-12.4297 -1.2627 1.0166 60
-7.1875 -0.73 -0.5864 14
-12.4297 -1.2627 1.3086000000000002 194
-12.2969 -1.249 -0.7162999999999999 28
-12.3125 -1.251 1.5869 142
-12.3047 -1.25 -0.4302 191
-12.1094 -1.2295 1.8496000000000001 213
-12.281199999999998 -1.2470999999999999 -0.1434 153
-11.75 -1.1943000000000001 2.0762 225
-6.25 -0.6128 -1.1006 204
-12.375 -1.2129 0.1445 200
-6.1640999999999995 -0.6045 -0.938 222
-12.3672 -1.2129 0.4321 12
-6.203099999999999 -0.6084 -0.7964 193
-12.4531 -1.2207 0.7251000000000001 38
-6.324199999999999 -0.6201 -0.6636 7
-12.5 -1.2256 1.0225 226
-7.2188 -0.7075 -0.5889 74
-12.4922 -1.2246 1.3144999999999998 155
-12.3203 -1.208 -0.7173 70
-12.4297 -1.2187999999999999 1.6006 130
-12.335899999999999 -1.21 -0.43119999999999997 15
-12.101600000000001 -1.1865 1.8486000000000002 72
-12.3203 -1.208 -0.1438 82
-11.7344 -1.1504 2.0723 32
-6.261699999999999 -0.5918 -1.1016 103
-12.4922 -1.1806999999999999 0.1459 76
-6.1562 -0.5820000000000001 -0.9365000000000001 127
-12.4922 -1.1806999999999999 0.4365 91
-6.2148 -0.5874 -0.7974 200
-12.5 -1.1816 0.728 227
-6.3398 -0.5991 -0.6646 47
-12.5 -1.1816 1.0215 172
-7.2890999999999995 -0.6890000000000001 -0.5942000000000001 112
-12.5078 -1.1826 1.3154 19
-12.351600000000001 -1.168 -0.7192000000000001 37
-12.398399999999999 -1.1719 1.5966999999999998 84
-12.4219 -1.1738 -0.4338 21
-12.1094 -1.1445 1.8486000000000002 165
-12.460899999999999 -1.1777 -0.14550000000000002 108
-11.726600000000001 -1.1084 2.0703 60
-6.269500000000001 -0.5708 -1.1025 1
-12.5 -1.1377 0.1459 28
-6.140599999999999 -0.5590999999999999 -0.9336 64
-12.4922 -1.1367 0.4363 67
-6.2188 -0.5659000000000001 -0.7974 27
-12.5 -1.1377 0.7275 141
-6.3515999999999995 -0.5781000000000001 -0.6655 7
-12.4844 -1.1357 1.0205 15
-7.3438 -0.6685 -0.5986 218
-12.5078 -1.1387 1.3154 156
-12.4844 -1.1367 -0.7265999999999999 72
-12.476600000000001 -1.1357 1.6063999999999998 87
-12.5 -1.1377 -0.4365 54
-12.3203 -1.1211 1.8809 211
-12.4844 -1.1367 -0.1458 179
-11.7344 -1.0684 2.0703 65
-6.296900000000001 -0.5508 -1.1074 110
-12.5 -1.0937999999999999 0.1459 1
-6.1640999999999995 -0.5396 -0.937 143
-12.476600000000001 -1.0918 0.4355 121
-6.2148 -0.5439 -0.7968999999999999 243
-12.4922 -1.0928 0.7271 220
-6.375 -0.5576 -0.6679999999999999 133
-12.5 -1.0937999999999999 1.0215 56
-7.359400000000001 -0.644 -0.5996 207
-12.4922 -1.0928 1.3135 218
-12.4844 -1.0928 -0.7265999999999999 247
-12.4844 -1.0918 1.6063999999999998 65
-12.5078 -1.0937999999999999 -0.4365 218
-12.343800000000002 -1.0801 1.8828 236
-12.5 -1.0937999999999999 -0.1458 214
-11.7422 -1.0273 2.0703 75
-6.328099999999999 -0.5327000000000001 -1.1123 178
-12.5078 -1.0527 0.1459 72
-6.1797 -0.52 -0.9390000000000001 24
-12.4844 -1.0508 0.4355 211
-6.2109000000000005 -0.5229 -0.7964 228
-12.4922 -1.0508 0.7265999999999999 5
-6.4062 -0.5390999999999999 -0.6709 17
-12.5 -1.0518 1.0215 1
-7.390599999999999 -0.6215999999999999 -0.6021 100
-12.4453 -1.0469 1.3075999999999999 153
-12.476600000000001 -1.0498 -0.7261 93
-12.468800000000002 -1.0488 1.6035 173
-12.5 -1.0518 -0.4363 56
-12.335899999999999 -1.0381 1.8818000000000001 124
-12.4844 -1.0498 -0.1456 72
-11.7422 -0.9878 2.0703 135
-12.4922 -1.0098 0.1456 205
-6.1836 -0.49979999999999997 -0.9395 84
-12.468800000000002 -1.0078 0.4351 253
-6.2265999999999995 -0.5034000000000001 -0.7983 13
-12.4375 -1.0049 0.7231000000000001 69
-6.4102 -0.5181 -0.6714 71
-12.4531 -1.0068000000000001 1.0166 20
-12.5 -1.0098 -1.0205 126
-12.476600000000001 -1.0078 1.3105000000000002 33
-12.468800000000002 -1.0078 -0.7251000000000001 170
-12.4297 -1.0039 1.5986000000000002 248
-12.5078 -1.0107 -0.4363 136
-12.343800000000002 -0.9976 1.8818000000000001 82
-12.4531 -1.0059 -0.1451 67
-11.726600000000001 -0.9478 2.0664 109
-6.144500000000001 -0.47490000000000004 -1.0791 180
-12.460899999999999 -0.9634 0.14529999999999998 32
-6.1797 -0.4778 -0.9384999999999999 78
-12.4531 -0.9623999999999999 0.4343 98
-12.476600000000001 -0.9648 0.7256 80
-6.4336 -0.49729999999999996 -0.6738 98
-12.4922 -0.9658 1.0195 17
-12.4531 -0.9623999999999999 -1.0166 58
-12.4922 -0.9658 1.3125 11
-12.4297 -0.9609000000000001 -0.7227 7
-12.468800000000002 -0.9634 1.6025 242
-12.4531 -0.9623999999999999 -0.4343 99
-12.343800000000002 -0.9541 1.8809 108
-12.460899999999999 -0.9629000000000001 -0.14529999999999998 15
-11.7422 -0.9072 2.0684 218
-6.1562 -0.45530000000000004 -1.0811 92
-12.4922 -0.9238 0.14550000000000002 186
-6.1797 -0.457 -0.9384999999999999 240
-12.4844 -0.9233 0.4353 33
-12.4922 -0.9243000000000001 0.7261 221
-6.4648 -0.478 -0.6768000000000001 0
-12.476600000000001 -0.9229 1.0186 192
-12.460899999999999 -0.9218999999999999 -1.0176 148
-12.4922 -0.9238 1.3115 118
-12.468800000000002 -0.9224 -0.7251000000000001 57
-12.468800000000002 -0.9218999999999999 1.6025 195
-12.476600000000001 -0.9229 -0.4353 64
-12.335899999999999 -0.9126000000000001 1.8799000000000001 74
-12.4922 -0.9238 -0.1456 75
-11.726600000000001 -0.8676999999999999 2.0664 77
-6.1523 -0.4324 -1.0801 217
-12.5 -0.8784000000000001 0.1456 145
-6.1875 -0.43479999999999996 -0.9395 169
-12.4844 -0.8774 0.4353 155
-6.2422 -0.4387 -0.7993000000000001 140
-12.4922 -0.8779 0.7256 9
-6.5078 -0.4573 -0.6807 77
-12.476600000000001 -0.877 1.0186 183
-12.468800000000002 -0.8765000000000001 -1.0176 145
-12.4922 -0.8779 1.3115 81
-12.4844 -0.8774 -0.7256 72
-12.476600000000001 -0.877 1.6035 137
-12.5 -0.8784000000000001 -0.43579999999999997 206
-12.343800000000002 -0.8676999999999999 1.8809 45
-12.4844 -0.8774 -0.14550000000000002 130
-11.75 -0.8256999999999999 2.0703 38
-6.1523 -0.4106 -1.0801 23
-12.4922 -0.8340000000000001 0.14550000000000002 30
-6.207000000000001 -0.4143 -0.9419 192
-12.4922 -0.8340000000000001 0.4353 12
-6.2422 -0.4167 -0.7988 66
-12.4844 -0.8334999999999999 0.7256 156
-6.5312 -0.436 -0.6836 13
-12.4922 -0.8340000000000001 1.0186 23
-12.468800000000002 -0.833 -1.0176 157
-12.476600000000001 -0.833 1.3096 189
-12.476600000000001 -0.833 -0.7251000000000001 96
-12.476600000000001 -0.833 1.6035 214
-12.5 -0.8345 -0.4355 75
-12.4453 -0.8311 1.8955000000000002 124
-12.468800000000002 -0.8325 -0.14529999999999998 8
-11.8203 -0.7890999999999999 2.082 81
-6.144500000000001 -0.3887 -1.0781 67
-12.4922 -0.79 0.14550000000000002 56
-6.199199999999999 -0.3923 -0.9409000000000001 7
-12.4844 -0.79 0.4351 60
-6.25 -0.39549999999999996 -0.8003 14
-12.476600000000001 -0.7890999999999999 0.7245999999999999 51
-6.5352 -0.41359999999999997 -0.6836 129
-12.5 -0.7905 1.0195 120
-12.4844 -0.7896 -1.0186 234
-12.476600000000001 -0.7896 1.3096 239
-12.468800000000002 -0.7890999999999999 -0.7245999999999999 8
-12.468800000000002 -0.7890999999999999 1.6016 216
-12.5 -0.7909999999999999 -0.4355 199
-12.406199999999998 -0.7847 1.8887 105
-12.4844 -0.7896 -0.1454 164
-12.3281 -0.7798 2.1699 209
-6.1602 -0.3682 -1.0811 152
-12.4922 -0.7465999999999999 0.1454 4
-6.203099999999999 -0.37079999999999996 -0.9414 141
-12.4922 -0.7465999999999999 0.4353 119
-6.2422 -0.373 -0.7988 93
-12.476600000000001 -0.7456 0.7245999999999999 225
-6.5586 -0.3918 -0.6859999999999999 132
-12.4844 -0.7461 1.0186 185
-12.468800000000002 -0.7451000000000001 -1.0166 1
-12.4922 -0.7465999999999999 1.3105000000000002 95
-12.476600000000001 -0.7456 -0.7245999999999999 157
-12.468800000000002 -0.7451000000000001 1.6006 79
-12.4844 -0.7461 -0.4351 242
-12.4844 -0.7461 1.9003999999999999 85
-12.4922 -0.7465999999999999 -0.1454 164
-12.375 -0.7397 2.1797 7
-6.171900000000001 -0.3472 -1.082 248
-12.5078 -0.7036 0.1456 250
-6.203099999999999 -0.3489 -0.9409000000000001 39
-12.4844 -0.7026 0.43479999999999996 115
-6.2422 -0.35109999999999997 -0.7983 127
-12.4844 -0.7021 0.7245999999999999 199
-6.5938 -0.37079999999999996 -0.6895 240
-12.476600000000001 -0.7021 1.0176 160
-12.468800000000002 -0.7017 -1.0166 131
-12.4922 -0.7026 1.3105000000000002 121
-12.4844 -0.7021 -0.7245999999999999 182
