# .PCD v0.7 - Point Cloud Data file format
VERSION 0.7
FIELDS x y z intensity
SIZE 4 4 4 4
TYPE F F F F
COUNT 1 1 1 1
WIDTH 1274
HEIGHT 1
VIEWPOINT 0 0 0 1 0 0 0
POINTS 1274
DATA ascii
12.656199999999998 -1.2656 1.6309 156
12.656199999999998 -1.2656 -0.4424 217
12.6719 -1.2666 1.9355000000000002 113
12.6797 -1.2676 -0.1481 102
12.875 -1.2881 2.2754 173
12.6719 -1.3115 0.1481 16
12.6953 -1.3144999999999998 0.44409999999999994 35
12.5703 -1.3018 0.7329000000000001 135
12.5703 -1.3008000000000002 -1.3232 64
12.5781 -1.3018 1.0293 177
12.585899999999999 -1.3027000000000002 -1.0303 97
12.5078 -1.2949000000000002 1.3174000000000001 163
12.5625 -1.3008000000000002 -0.7319 234
12.648399999999999 -1.3096 1.6299000000000001 155
12.585899999999999 -1.3027000000000002 -0.4399 138
12.6797 -1.3125 1.9365 65
12.5625 -1.3008000000000002 -0.1469 143
12.8203 -1.3271000000000002 2.2656 244
12.5781 -1.3447 0.1471 36
12.585899999999999 -1.3447 0.44020000000000004 226
12.585899999999999 -1.3447 0.7334 194
12.5703 -1.3437999999999999 -1.3241999999999998 51
12.5625 -1.3428 1.0283 129
12.5781 -1.3437999999999999 -1.0293 215
12.5078 -1.3369 1.3184 83
12.5781 -1.3447 -0.7334 92
12.656199999999998 -1.3525 1.6318000000000001 57
12.5781 -1.3447 -0.4399 166
12.664100000000001 -1.3535 1.9355000000000002 195
12.5703 -1.3437999999999999 -0.147 28
12.789100000000001 -1.3672 2.2598 205
12.5781 -1.3866999999999998 0.1471 127
12.5625 -1.3847999999999998 0.4397 104
12.5781 -1.3857 0.7334 113
12.5703 -1.3857 -1.3252000000000002 234
12.5703 -1.3857 1.0293 245
12.5625 -1.3847999999999998 -1.0283 197
12.5 -1.3779 1.3174000000000001 38
12.5703 -1.3857 -0.7334 211
12.648399999999999 -1.3944999999999999 1.6318000000000001 104
12.5703 -1.3857 -0.4397 130
12.656199999999998 -1.3944999999999999 1.9355000000000002 200
12.5625 -1.3847999999999998 -0.147 52
12.7969 -1.4102000000000001 2.2617 219
12.5781 -1.4336000000000002 0.1472 158
12.5781 -1.4325999999999999 0.44020000000000004 201
12.5703 -1.4325999999999999 0.7334 255
12.5703 -1.4325999999999999 -1.3252000000000002 239
12.5781 -1.4336000000000002 1.0303 71
12.5703 -1.4316 -1.0293 194
12.5 -1.4238 1.3174000000000001 63
12.5703 -1.4316 -0.7334 137
12.648399999999999 -1.4413999999999998 1.6318000000000001 104
12.585899999999999 -1.4346 -0.4407 56
12.656199999999998 -1.4424000000000001 1.9365 169
12.5469 -1.4297 -0.1469 90
12.789100000000001 -1.4569999999999999 2.2617 243
12.5781 -1.4775 0.1472 248
12.5781 -1.4775 0.4404 44
12.5547 -1.4756 0.7329000000000001 75
12.5625 -1.4756 -1.3252000000000002 154
12.5781 -1.4775 1.0312000000000001 77
12.5703 -1.4766 -1.0303 126
12.4922 -1.4678 1.3174000000000001 108
12.5547 -1.4756 -0.7329000000000001 36
12.6406 -1.4853999999999998 1.6318000000000001 228
12.585899999999999 -1.4785 -0.4409 11
12.664100000000001 -1.4883000000000002 1.9385 38
12.5625 -1.4756 -0.147 64
12.875 -1.5127000000000002 2.2773 85
12.5703 -1.5215 0.1472 21
12.5781 -1.5225 0.4407 20
12.5703 -1.5205000000000002 0.7339 59
12.5625 -1.5205000000000002 -1.3252000000000002 50
12.5703 -1.5205000000000002 1.0303 1
12.5781 -1.5225 -1.0312000000000001 190
12.5 -1.5127000000000002 1.3184 27
12.5625 -1.5205000000000002 -0.7339 175
12.6328 -1.5283000000000002 1.6318000000000001 84
12.5781 -1.5215 -0.4404 104
12.664100000000001 -1.5332 1.9394999999999998 210
12.5625 -1.5205000000000002 -0.1471 177
12.5703 -1.5654 0.1472 0
12.5781 -1.5663999999999998 0.4407 211
12.5781 -1.5663999999999998 0.7349 219
12.5625 -1.5644999999999998 -1.3262 224
12.5625 -1.5644999999999998 1.0303 48
12.5625 -1.5654 -1.0303 83
12.5078 -1.5575999999999999 1.3203 181
12.5625 -1.5644999999999998 -0.7339 121
12.6406 -1.5741999999999998 1.6328 30
12.5703 -1.5654 -0.4404 250
12.664100000000001 -1.5771000000000002 1.9394999999999998 99
12.5703 -1.5654 -0.1472 146
12.9297 -1.6103999999999998 2.2891 30
12.5703 -1.6103999999999998 0.14730000000000001 10
12.5703 -1.6103999999999998 0.4407 152
12.5703 -1.6103999999999998 0.7349 253
12.5781 -1.6113 -1.3281 237
12.5625 -1.6094 1.0312000000000001 50
12.5625 -1.6084 -1.0303 75
12.4922 -1.6006 1.3193000000000001 1
12.5781 -1.6113 -0.7354 96
12.648399999999999 -1.6200999999999999 1.6347999999999998 45
12.5703 -1.6103999999999998 -0.4407 140
12.6406 -1.6200999999999999 1.9375 252
12.5547 -1.6084 -0.1471 175
12.9375 -1.6572 2.293 66
12.585899999999999 -1.6562000000000001 0.1475 189
12.5703 -1.6553 0.4409 67
12.5703 -1.6553 0.7349 170
12.5703 -1.6553 -1.3281 147
12.5703 -1.6553 1.0322 189
12.5625 -1.6543 -1.0312000000000001 108
12.4922 -1.6444999999999999 1.3193000000000001 209
12.5625 -1.6533000000000002 -0.7343999999999999 24
12.656199999999998 -1.666 1.6366999999999998 103
12.5703 -1.6553 -0.4409 243
12.648399999999999 -1.665 1.9394999999999998 108
12.5547 -1.6522999999999999 -0.1471 155
12.906199999999998 -1.6991999999999998 2.2891 240
12.5703 -1.7002000000000002 0.1475 42
12.5703 -1.6991999999999998 0.4412 227
12.5547 -1.6972999999999998 0.7343999999999999 136
12.5625 -1.6982 -1.3271000000000002 255
12.5703 -1.7002000000000002 1.0322 90
12.5703 -1.6991999999999998 -1.0322 178
12.4844 -1.6885 1.3193000000000001 207
12.5547 -1.6982 -0.7349 152
12.6406 -1.709 1.6347999999999998 196
12.5781 -1.7002000000000002 -0.4414 45
12.648399999999999 -1.71 1.9394999999999998 3
12.5547 -1.6982 -0.14730000000000001 214
12.8906 -1.7431999999999999 2.2871 254
12.5703 -1.7441 0.1475 193
12.5781 -1.7461000000000002 0.44189999999999996 147
12.5625 -1.7441 0.7354 69
12.5547 -1.7422 -1.3281 21
12.5625 -1.7431999999999999 1.0322 176
12.5625 -1.7431999999999999 -1.0322 113
12.5 -1.7344 1.3213 20
12.5625 -1.7431999999999999 -0.7354 36
12.6328 -1.7529 1.6347999999999998 163
12.5703 -1.7441 -0.4414 98
12.656199999999998 -1.7559 1.9413999999999998 217
12.5703 -1.7441 -0.1475 111
12.898399999999999 -1.7891 2.2891 61
12.5625 -1.7832 0.1475 55
12.5703 -1.7841999999999998 0.44170000000000004 175
12.5625 -1.7841999999999998 0.7358 175
12.5547 -1.7822 -1.3281 117
12.5547 -1.7822 1.0322 208
12.5547 -1.7822 -1.0322 131
12.5 -1.7744 1.3222999999999998 26
12.5625 -1.7832 -0.7354 228
12.6328 -1.7938999999999998 1.6357 84
12.5547 -1.7822 -0.4412 102
12.6328 -1.7938999999999998 1.9394999999999998 64
12.5625 -1.7832 -0.1475 59
12.906199999999998 -1.8319999999999999 2.291 93
12.5625 -1.8262 0.1476 54
12.5625 -1.8262 0.4414 131
12.5703 -1.8262 0.7363 237
12.5703 -1.8271000000000002 -1.3300999999999998 117
12.5703 -1.8271000000000002 1.0342 213
12.5469 -1.8241999999999998 -1.0322 241
12.4844 -1.8144999999999998 1.3213 81
12.5703 -1.8262 -0.7363 193
12.656199999999998 -1.8388999999999998 1.6396000000000002 61
12.5547 -1.8252000000000002 -0.4414 36
12.6172 -1.834 1.9375 77
12.5625 -1.8262 -0.1476 11
12.9219 -1.8788999999999998 2.2949 183
12.5781 -1.8769999999999998 0.1478 254
12.5703 -1.876 0.44189999999999996 195
12.5625 -1.875 0.7363 179
12.5703 -1.876 -1.3311000000000002 83
12.5703 -1.876 1.0342 245
12.5469 -1.8730000000000002 -1.0332 44
12.476600000000001 -1.8622999999999998 1.3213 184
12.5469 -1.8730000000000002 -0.7354 115
12.656199999999998 -1.8896000000000002 1.6406 174
12.5703 -1.8769999999999998 -0.4421 221
12.6172 -1.8838 1.9394999999999998 148
12.5469 -1.8730000000000002 -0.1475 59
12.898399999999999 -1.9258000000000002 2.293 154
12.5625 -1.9199000000000002 0.1477 62
12.5781 -1.9219 0.4424 129
12.5547 -1.9188999999999998 0.7363 32
12.5625 -1.9199000000000002 -1.3311000000000002 182
12.5703 -1.9209 1.0352 226
12.5469 -1.9180000000000001 -1.0332 177
12.4844 -1.9082 1.3232 73
12.539100000000001 -1.9169999999999998 -0.7354 26
12.6406 -1.9316 1.6387 190
12.5703 -1.9209 -0.4421 84
12.6328 -1.9306999999999999 1.9413999999999998 142
12.5547 -1.9188999999999998 -0.1476 212
12.8828 -1.9687999999999999 2.291 199
12.5625 -1.9619 0.1477 107
12.5781 -1.9647999999999999 0.4426 22
12.5547 -1.9619 0.7368000000000001 31
12.5469 -1.9609 -1.3300999999999998 34
12.5703 -1.9638999999999998 1.0352 65
12.5625 -1.9628999999999999 -1.0352 16
12.5 -1.9521000000000002 1.3252000000000002 67
12.5469 -1.9609 -0.7363 83
12.6406 -1.9746000000000001 1.6396000000000002 194
12.5547 -1.9619 -0.4421 120
12.6172 -1.9716999999999998 1.9413999999999998 88
12.5625 -1.9628999999999999 -0.1478 1
12.898399999999999 -2.0156 2.2949 228
12.5625 -2.0059 0.1478 239
12.5625 -2.0059 0.4424 133
12.5547 -2.0039 0.7373000000000001 114
12.5625 -2.0059 -1.3330000000000002 123
12.5547 -2.0039 1.0352 4
12.539100000000001 -2.002 -1.0342 87
12.4922 -1.9950999999999999 1.3252000000000002 84
12.5469 -2.0039 -0.7368000000000001 184
12.6406 -2.0176 1.6416 232
12.5625 -2.0059 -0.4424 208
12.6094 -2.0137 1.9404 53
12.5625 -2.0059 -0.1478 89
12.9453 -2.0664 2.3027 140
12.5703 -2.0547 0.1481 178
12.5547 -2.0527 0.4426 152
12.5625 -2.0527 0.7378 25
12.5703 -2.0547 -1.334 131
12.5625 -2.0527 1.0361 142
12.539100000000001 -2.0488 -1.0342 96
12.4844 -2.0391 1.3252000000000002 68
12.5469 -2.0508 -0.7368000000000001 209
12.6328 -2.0645 1.6416 129
12.5547 -2.0508 -0.4424 37
12.6094 -2.0605 1.9413999999999998 10
12.5469 -2.0508 -0.1478 149
12.9922 -2.123 2.3125 130
12.5547 -2.0977 0.1479 88
12.5547 -2.0977 0.4429 38
12.5547 -2.0957 0.7378 41
12.5703 -2.0996 -1.335 67
12.5781 -2.0996 1.0381 248
12.539100000000001 -2.0938 -1.0342 245
12.4844 -2.084 1.3252000000000002 9
12.5469 -2.0957 -0.7373000000000001 236
12.656199999999998 -2.1133 1.6455000000000002 127
12.5703 -2.0996 -0.4434 31
12.6094 -2.1055 1.9424000000000001 206
12.531199999999998 -2.0918 -0.1476 202
12.898399999999999 -2.1543 2.2988 143
12.5547 -2.1406 0.1481 183
12.5547 -2.1406 0.4429 53
12.5469 -2.1406 0.7378 14
12.5625 -2.1426 -1.335 131
12.5703 -2.1445 1.0381 39
12.5469 -2.1406 -1.0361 195
12.4844 -2.1289 1.3262 225
12.531199999999998 -2.1367 -0.7368000000000001 198
12.648399999999999 -2.1562 1.6444999999999999 7
12.5781 -2.1445 -0.4436 65
12.6094 -2.1504 1.9443000000000001 111
12.5547 -2.1406 -0.1481 20
12.875 -2.1953 2.2949 160
12.5547 -2.1875 0.1481 141
12.5625 -2.1875 0.4434 18
12.5469 -2.1855 0.7383 238
12.5469 -2.1855 -1.334 173
12.5625 -2.1875 1.0381 84
12.539100000000001 -2.1836 -1.0361 159
12.4922 -2.1758 1.3281 108
12.539100000000001 -2.1836 -0.7378 172
12.6328 -2.2012 1.6444999999999999 112
12.5703 -2.1895 -0.44380000000000003 165
12.625 -2.1992 1.9472999999999998 199
12.539100000000001 -2.1836 -0.1479 145
12.8828 -2.2441 2.2988 205
12.5547 -2.2344 0.1483 42
12.5547 -2.2344 0.4434 139
12.5547 -2.2344 0.7393000000000001 13
12.5469 -2.2324 -1.335 110
12.5469 -2.2324 1.0371 175
12.539100000000001 -2.2305 -1.0361 127
12.5 -2.2246 1.3300999999999998 64
12.531199999999998 -2.2305 -0.7378 9
12.6406 -2.248 1.6455000000000002 90
12.5547 -2.2344 -0.4436 210
12.6094 -2.2441 1.9472999999999998 4
12.5547 -2.2344 -0.1482 189
12.8828 -2.293 2.3008 242
12.5625 -2.2812 0.1484 181
8.2578 -1.499 -1.2734 2
12.539100000000001 -2.2754 0.44310000000000005 106
12.5469 -2.2793 0.7393000000000001 2
12.5547 -2.2793 -1.3369 125
12.5547 -2.2793 1.0381 17
12.523399999999999 -2.2734 -1.0361 183
12.4844 -2.2656 1.3291 115
12.5469 -2.2773 -0.7393000000000001 170
12.6328 -2.293 1.6465 4
12.5547 -2.2793 -0.44380000000000003 53
12.601600000000001 -2.2871 1.9463 7
12.539100000000001 -2.2754 -0.1481 68
12.8906 -2.3398 2.3027 150
12.5625 -2.3242 0.1484 92
8.2656 -1.5293 -1.2754 81
12.5469 -2.3223 0.44380000000000003 123
8.25 -1.5263999999999998 -1.0742 215
12.5547 -2.3223 0.7402 90
8.2891 -1.5332 -0.8813 172
12.5625 -2.3242 1.04 69
12.5469 -2.3203 -1.0381 239
12.4844 -2.3086 1.3300999999999998 196
12.531199999999998 -2.3184 -0.7387999999999999 134
12.648399999999999 -2.3398 1.6484 85
12.5625 -2.3242 -0.4443 106
12.6094 -2.332 1.9491999999999998 254
12.523399999999999 -2.3164 -0.1479 229
12.898399999999999 -2.3848 2.3047 19
12.5547 -2.3652 0.14859999999999998 107
12.5469 -2.3652 0.44409999999999994 165
12.539100000000001 -2.3613 0.7397 9
8.2812 -1.5605000000000002 -0.8813 252
12.5703 -2.3691 1.041 112
8.2969 -1.5635 -0.6859999999999999 56
12.4844 -2.3535 1.3311000000000002 15
8.2969 -1.5635 -0.4885 164
12.6172 -2.377 1.6455000000000002 252
12.5703 -2.3672 -0.4448 159
12.6172 -2.377 1.9512 8
12.5469 -2.3633 -0.1484 204
12.914100000000001 -2.4316 2.3086 70
12.5469 -2.4102 0.14859999999999998 8
12.5469 -2.4082 0.4443 92
12.5469 -2.4082 0.7406999999999999 91
12.539100000000001 -2.4082 -1.3369 162
12.5625 -2.4121 1.041 241
12.5625 -2.4121 -1.041 206
12.4922 -2.3984 1.3319999999999999 89
8.2891 -1.5918 -0.4885 72
12.6172 -2.4219 1.6465 31
8.3203 -1.5966999999999998 -0.2939 58
12.625 -2.4238 1.9541 129
12.9219 -2.4824 2.3125 7
8.3438 -1.6309 0.09849999999999999 149
12.539100000000001 -2.4512 0.4443 242
12.5469 -2.4531 0.7412000000000001 169
12.601600000000001 -2.4629 -1.3447 150
12.5469 -2.4531 1.041 75
12.5547 -2.4531 -1.041 185
12.4922 -2.4414 1.3330000000000002 69
12.5703 -2.457 -0.7426999999999999 193
12.6172 -2.4668 1.6484 36
12.5547 -2.4531 -0.4448 127
12.6172 -2.4668 1.9541 155
8.3281 -1.6279 -0.0983 91
12.851600000000001 -2.5117 2.3008 29
8.3359 -1.6611000000000002 0.0984 32
8.3281 -1.6591999999999998 0.29469999999999996 4
12.6797 -2.5273 -1.3544999999999998 166
12.5469 -2.5 1.042 144
12.6797 -2.5254 -1.0527 49
12.476600000000001 -2.4863 1.3330000000000002 2
12.6406 -2.5176 -0.7471 214
12.625 -2.5156 1.6503999999999999 205
12.593800000000002 -2.5098 -0.4468 9
12.601600000000001 -2.5117 1.9521000000000002 140
12.7969 -2.5488 2.293 27
12.6172 -2.5605 0.1497 0
8.3359 -1.6913999999999998 0.2952 211
8.3438 -1.6934 0.4929 240
12.6719 -2.5702999999999996 -1.3544999999999998 238
8.375 -1.6991999999999998 0.6943 207
12.7344 -2.5839999999999996 -1.0576 102
12.7656 -2.5898000000000003 -0.7554000000000001 172
12.6172 -2.5605 1.6513999999999998 228
12.6172 -2.5586 1.9561000000000002 195
12.6953 -2.5762 -0.1506 71
12.7578 -2.5898000000000003 2.2891 20
12.7344 -2.6289 0.15109999999999998 187
12.656199999999998 -2.6132999999999997 0.4495 74
12.539100000000001 -2.5898000000000003 0.7426999999999999 87
12.664100000000001 -2.6172000000000004 -1.3544999999999998 93
8.3516 -1.7246000000000001 0.6929000000000001 220
12.726600000000001 -2.6289 -1.0576 108
8.3594 -1.7275 0.8931 63
12.726600000000001 -2.6289 -0.7534000000000001 111
8.3672 -1.7285 1.0937999999999999 50
12.726600000000001 -2.6289 -0.45189999999999997 117
12.6094 -2.6055 1.9569999999999999 252
12.7031 -2.623 -0.1508 30
12.7656 -2.6367000000000003 2.291 200
12.835899999999999 -2.6973000000000003 0.1525 85
12.726600000000001 -2.6738 0.4521 22
12.531199999999998 -2.6348000000000003 0.7426999999999999 148
12.664100000000001 -2.6620999999999997 -1.3555000000000001 136
12.5469 -2.6367000000000003 1.043 72
12.7578 -2.6816000000000004 -1.0615 232
12.5078 -2.6289 1.3388999999999998 197
12.7422 -2.6776999999999997 -0.7548999999999999 9
8.3516 -1.7549000000000001 1.0918 237
12.781199999999998 -2.6855 -0.45409999999999995 149
12.625 -2.6523000000000003 1.96 110
12.710899999999999 -2.6719 -0.151 20
12.781199999999998 -2.6855 2.2949 88
12.8203 -2.7422000000000004 0.1525 75
12.6875 -2.7129000000000003 0.4512 96
12.5469 -2.6836 0.7441 223
12.664100000000001 -2.7089999999999996 -1.3563999999999998 212
12.531199999999998 -2.6797000000000004 1.043 78
12.7031 -2.7168 -1.0576 191
12.4844 -2.6699 1.3378999999999999 55
12.718800000000002 -2.7207 -0.7544 38
12.6094 -2.6973000000000003 1.6533000000000002 254
12.7656 -2.7305 -0.45409999999999995 42
12.601600000000001 -2.6952999999999996 1.9580000000000002 7
12.7422 -2.7245999999999997 -0.1515 246
12.851600000000001 -2.748 2.3086 82
12.914100000000001 -2.8086 0.1536 129
12.718800000000002 -2.7656 0.4526 23
12.5469 -2.7285000000000004 0.7441 11
12.6797 -2.7577999999999996 -1.3594 225
12.5156 -2.7226999999999997 1.043 250
12.7422 -2.7714999999999996 -1.0615 8
12.476600000000001 -2.7148000000000003 1.3378999999999999 240
12.7344 -2.7695 -0.7559 60
12.625 -2.7461 1.6562000000000001 188
12.7344 -2.7695 -0.4531 195
12.6094 -2.7422000000000004 1.9609 113
12.718800000000002 -2.7676 -0.1514 112
12.8594 -2.7969 2.3125 22
12.6953 -2.8066000000000004 0.4521 255
12.531199999999998 -2.7714999999999996 0.7441 21
12.6797 -2.8047000000000004 -1.3603999999999998 193
12.523399999999999 -2.7695 1.0439 213
12.75 -2.8183999999999996 -1.0625 70
12.468800000000002 -2.7577999999999996 1.3378999999999999 189
12.726600000000001 -2.8145 -0.7554000000000001 179
12.625 -2.793 1.6582 136
12.781199999999998 -2.8281 -0.4556 218
12.601600000000001 -2.7851999999999997 1.9609 156
12.718800000000002 -2.8125 -0.1514 40
12.914100000000001 -2.8555 2.3242 174
12.7344 -2.8632999999999997 0.4539 21
12.539100000000001 -2.8183999999999996 0.7451000000000001 145
12.6719 -2.8495999999999997 -1.3603999999999998 17
12.5156 -2.8145 1.0439 193
12.7578 -2.8672000000000004 -1.0645 157
12.468800000000002 -2.8026999999999997 1.3388999999999998 202
12.718800000000002 -2.8594 -0.7559 68
12.6172 -2.8358999999999996 1.6582 107
12.726600000000001 -2.8613 -0.4536 159
12.6094 -2.8339999999999996 1.9638999999999998 79
12.6953 -2.8555 -0.1512 130
12.8828 -2.8964999999999996 2.3223 252
12.781199999999998 -2.9199 0.1525 98
12.75 -2.9141000000000004 0.4551 84
12.531199999999998 -2.8613 0.7451000000000001 145
12.664100000000001 -2.8926 -1.3603999999999998 138
12.5156 -2.8594 1.0449 1
12.773399999999999 -2.918 -1.0664 94
12.476600000000001 -2.8516000000000004 1.3408000000000002 41
12.7578 -2.9160000000000004 -0.7587999999999999 175
12.6094 -2.8808999999999996 1.6582 193
12.7969 -2.9238 -0.45649999999999996 207
12.6172 -2.8827999999999996 1.9668 96
12.7969 -2.9238 -0.15259999999999999 233
12.8672 -2.9395 2.3203 79
12.851600000000001 -2.9844 0.1534 70
12.710899999999999 -2.9512 0.4539 25
12.539100000000001 -2.9120999999999997 0.7465999999999999 163
12.664100000000001 -2.9395 -1.3622999999999998 86
12.4844 -2.8983999999999996 1.0439 211
12.6797 -2.9452999999999996 -1.0595999999999999 90
12.4844 -2.8983999999999996 1.3428 130
12.7031 -2.9492000000000003 -0.7559 16
12.6172 -2.9276999999999997 1.6602000000000001 139
12.7422 -2.9589999999999996 -0.4551 125
12.593800000000002 -2.9238 1.9658000000000002 49
12.773399999999999 -2.9648000000000003 -0.1525 174
12.8672 -2.9882999999999997 2.3223 67
12.835899999999999 -3.0273000000000003 0.1533 24
12.773399999999999 -3.0117000000000003 0.45630000000000004 235
12.5469 -2.9589999999999996 0.7476 184
12.664100000000001 -2.9882999999999997 -1.3633000000000002 30
12.5078 -2.9492000000000003 1.0459 4
12.7578 -3.0098000000000003 -1.0674 121
12.460899999999999 -2.9395 1.3408000000000002 136
12.7422 -3.0058999999999996 -0.7593000000000001 177
12.6328 -2.9785000000000004 1.6641 101
12.7422 -3.0039 -0.45530000000000004 100
12.601600000000001 -2.9707 1.9678 235
12.718800000000002 -3.0 -0.1519 123
12.875 -3.0351999999999997 2.3242 7
12.7578 -3.0566000000000004 0.45649999999999996 119
12.539100000000001 -3.002 0.7476 5
12.664100000000001 -3.0332 -1.3643 10
12.5078 -2.9961 1.0469 59
12.726600000000001 -3.0469 -1.0654000000000001 88
12.4531 -2.9824 1.3408000000000002 10
12.726600000000001 -3.0469 -0.7587999999999999 18
12.6172 -3.0214999999999996 1.6631 169
12.75 -3.0547000000000004 -0.4561 50
12.601600000000001 -3.0176 1.9687999999999999 163
12.7344 -3.0488 -0.1522 51
12.8594 -3.0801 2.3242 146
12.7422 -3.0976999999999997 0.1525 137
12.656199999999998 -3.0762 0.4531 224
12.523399999999999 -3.0449 0.7476 90
12.656199999999998 -3.0762 -1.3643 44
12.4922 -3.0370999999999997 1.0469 179
12.7656 -3.1016000000000004 -1.0693000000000001 232
12.4531 -3.0254000000000003 1.3418 151
12.718800000000002 -3.0918 -0.7587999999999999 160
12.6172 -3.0664 1.665 47
12.718800000000002 -3.0918 -0.45530000000000004 120
12.6094 -3.0645 1.9716999999999998 95
12.7344 -3.0957 -0.1523 90
12.8594 -3.125 2.3262 216
12.773399999999999 -3.1483999999999996 0.4575 152
12.523399999999999 -3.0879000000000003 0.748 47
12.648399999999999 -3.1191000000000004 -1.3643 118
12.4922 -3.0801 1.0469 222
12.7656 -3.1464999999999996 -1.0703 213
12.476600000000001 -3.0762 1.3457 217
12.7578 -3.1464999999999996 -0.7622 61
12.6094 -3.1094 1.665 42
12.7656 -3.1464999999999996 -0.4573 217
12.6094 -3.1074 1.9736000000000002 75
12.7344 -3.1387 -0.1525 206
12.8672 -3.1719 2.3281 198
12.726600000000001 -3.1875 0.45630000000000004 229
12.531199999999998 -3.1387 0.7490000000000001 74
12.648399999999999 -3.168 -1.3662 213
12.4844 -3.127 1.0479 168
12.7344 -3.1875 -1.0684 94
12.476600000000001 -3.123 1.3466999999999998 168
12.6875 -3.1757999999999997 -0.7583 157
12.601600000000001 -3.1562 1.666 72
12.6875 -3.1776999999999997 -0.4551 208
12.593800000000002 -3.1543 1.9736000000000002 162
12.7344 -3.1895 -0.15259999999999999 242
12.8906 -3.2285000000000004 2.3359 214
12.7656 -3.2441000000000004 0.45799999999999996 46
12.531199999999998 -3.1855 0.7495 135
12.648399999999999 -3.2148000000000003 -1.3672 53
12.4922 -3.1757999999999997 1.0498 236
12.7578 -3.2422000000000004 -1.0713 82
12.460899999999999 -3.168 1.3466999999999998 119
12.789100000000001 -3.25 -0.7651 16
12.6172 -3.207 1.6688999999999998 61
12.781199999999998 -3.248 -0.4587 77
12.593800000000002 -3.1992000000000003 1.9746000000000001 93
12.7656 -3.2441000000000004 -0.1532 211
12.8672 -3.2714999999999996 2.334 17
12.8906 -3.3242000000000003 0.1548 7
12.7969 -3.3007999999999997 0.4597 102
12.523399999999999 -3.2305 0.75 10
12.664100000000001 -3.2676 -1.3700999999999999 148
12.5 -3.2226999999999997 1.0508 14
12.6875 -3.2714999999999996 -1.0664 2
12.4531 -3.2108999999999996 1.3466999999999998 141
12.718800000000002 -3.2793 -0.7617 174
12.6172 -3.252 1.6699000000000002 133
12.7656 -3.2910000000000004 -0.4585 210
12.6094 -3.252 1.9785 90
12.75 -3.2870999999999997 -0.1531 22
12.851600000000001 -3.3125 2.332 48
12.75 -3.3358999999999996 0.4585 192
12.5156 -3.2733999999999996 0.75 89
12.656199999999998 -3.3125 -1.3711000000000002 96
12.4922 -3.2695 1.0518 51
12.7656 -3.3379000000000003 -1.0742 126
12.4531 -3.2577999999999996 1.3486000000000002 187
12.7344 -3.332 -0.7631999999999999 243
12.6094 -3.2969 1.6709 20
12.718800000000002 -3.3262 -0.4573 170
12.6328 -3.3047000000000004 1.9844 85
12.7344 -3.332 -0.1531 155
12.8594 -3.3632999999999997 2.3359 28
12.789100000000001 -3.3926 0.46020000000000005 138
12.523399999999999 -3.3223000000000003 0.7515000000000001 68
12.648399999999999 -3.3574 -1.3711000000000002 166
12.4922 -3.3145 1.0518 21
12.7422 -3.3808999999999996 -1.0732 25
12.468800000000002 -3.3066000000000004 1.3506 217
12.718800000000002 -3.375 -0.7631999999999999 150
12.593800000000002 -3.3398000000000003 1.6699000000000002 31
12.726600000000001 -3.377 -0.45799999999999996 14
12.6406 -3.3535000000000004 1.9883000000000002 204
12.7344 -3.377 -0.1531 44
12.8594 -3.4101999999999997 2.3379 148
12.7969 -3.4433999999999996 0.46090000000000003 31
12.531199999999998 -3.373 0.7524 164
12.656199999999998 -3.4062 -1.3730000000000002 175
12.4844 -3.3594 1.0527 176
12.726600000000001 -3.4238 -1.0732 246
12.476600000000001 -3.3574 1.3535 147
12.6953 -3.4160000000000004 -0.7622 185
12.601600000000001 -3.3906 1.6728999999999998 195
12.664100000000001 -3.4082 -0.4561 224
12.664100000000001 -3.4082 1.9941 122
12.718800000000002 -3.4238 -0.1532 110
12.8672 -3.4608999999999996 2.3418 88
12.726600000000001 -3.4707 0.4587 203
12.531199999999998 -3.418 0.7529 192
12.664100000000001 -3.4551 -1.375 203
12.4922 -3.4062 1.0537 228
12.7422 -3.4745999999999997 -1.0752 112
12.460899999999999 -3.4004000000000003 1.3535 86
12.7656 -3.4824 -0.7670999999999999 132
12.601600000000001 -3.4375 1.6747999999999998 82
12.75 -3.4785000000000004 -0.4597 63
12.664100000000001 -3.4551 1.9950999999999999 16
12.726600000000001 -3.4726999999999997 -0.1533 14
12.8906 -3.5156 2.3477 212
12.773399999999999 -3.5332 0.46090000000000003 2
12.523399999999999 -3.4629000000000003 0.7529 135
12.664100000000001 -3.502 -1.376 203
12.5 -3.457 1.0556999999999999 246
12.6875 -3.5077999999999996 -1.0713 225
12.460899999999999 -3.4452999999999996 1.3535 71
12.6797 -3.5077999999999996 -0.7626999999999999 215
12.6094 -3.4863 1.6768 138
12.7578 -3.5273000000000003 -0.4604 82
12.6875 -3.5077999999999996 2.0 171
12.710899999999999 -3.5156 -0.1533 106
12.914100000000001 -3.5723000000000003 2.3555 186
12.75 -3.5742000000000003 0.4604 138
12.5156 -3.5077999999999996 0.7534000000000001 62
12.648399999999999 -3.5449 -1.376 161
12.4922 -3.502 1.0566 198
12.7422 -3.5723000000000003 -1.0771 9
12.460899999999999 -3.4941000000000004 1.3555000000000001 229
12.7656 -3.5801 -0.769 254
12.593800000000002 -3.5293 1.6768 40
12.789100000000001 -3.5858999999999996 -0.4619 90
12.6953 -3.5586 2.0039 68
12.7344 -3.5702999999999996 -0.15380000000000002 241
12.851600000000001 -3.6035000000000004 2.3457 84
12.8047 -3.6387 0.1548 15
12.773399999999999 -3.6289 0.4619 128
12.5156 -3.5566000000000004 0.7544 158
12.648399999999999 -3.5938 -1.3769999999999998 189
12.476600000000001 -3.5449 1.0556999999999999 233
12.7422 -3.6191000000000004 -1.0781 219
12.460899999999999 -3.5410000000000004 1.3574000000000002 13
12.7344 -3.6172000000000004 -0.7676000000000001 129
12.585899999999999 -3.5762 1.6777000000000002 165
12.8125 -3.6387 -0.46340000000000003 28
12.6875 -3.6035000000000004 2.0039 30
12.789100000000001 -3.6348000000000003 -0.1545 221
12.851600000000001 -3.6504000000000003 2.3477 68
12.851600000000001 -3.6992000000000003 0.1555 26
12.773399999999999 -3.6776999999999997 0.46240000000000003 110
12.523399999999999 -3.6055 0.7554000000000001 108
12.648399999999999 -3.6406 -1.3788999999999998 34
12.476600000000001 -3.5918 1.0566 12
12.656199999999998 -3.6445 -1.0723 249
12.460899999999999 -3.5879000000000003 1.3584 48
12.656199999999998 -3.6445 -0.7637 184
12.593800000000002 -3.625 1.6797 172
12.656199999999998 -3.6445 -0.4583 166
12.6797 -3.6504000000000003 2.0059 206
12.726600000000001 -3.6641000000000004 -0.1539 23
12.8594 -3.7012 2.3516 173
12.7344 -3.7148000000000003 0.1542 49
12.6719 -3.6952999999999996 0.45899999999999996 231
12.523399999999999 -3.6523000000000003 0.7563 199
12.5625 -3.6641000000000004 -1.3700999999999999 235
12.468800000000002 -3.6367000000000003 1.0576 25
12.625 -3.6816000000000004 -1.0703 67
12.460899999999999 -3.6348000000000003 1.3594 185
12.656199999999998 -3.6914 -0.7642 134
12.585899999999999 -3.6719 1.6816 10
12.6797 -3.6973000000000003 -0.4595 137
12.6797 -3.6992000000000003 2.0078 175
12.6719 -3.6952999999999996 -0.1534 113
12.656199999999998 -3.7401999999999997 0.1534 246
12.6406 -3.7344 0.4585 120
12.5156 -3.6992000000000003 0.7568 98
12.531199999999998 -3.7012 -1.3681999999999999 176
12.460899999999999 -3.6816000000000004 1.0576 56
12.5156 -3.6992000000000003 -1.0625 44
12.4453 -3.6776999999999997 1.3594 247
12.531199999999998 -3.7031 -0.7578 80
12.585899999999999 -3.7188 1.6836000000000002 194
12.585899999999999 -3.7168 -0.45630000000000004 57
12.6875 -3.748 2.0098 162
12.5781 -3.7168 -0.1525 46
12.7422 -3.7656 2.3359 25
12.5625 -3.7598000000000003 0.1525 81
12.6094 -3.7733999999999996 0.4578 58
12.5156 -3.7441000000000004 0.7573000000000001 33
12.5156 -3.7441000000000004 -1.3681999999999999 15
12.460899999999999 -3.7285000000000004 1.0586 11
12.5156 -3.7441000000000004 -1.0635 236
12.4531 -3.7266000000000004 1.3613 37
12.5078 -3.7441000000000004 -0.7573000000000001 182
12.585899999999999 -3.7656 1.6846 247
12.531199999999998 -3.75 -0.4551 211
12.6797 -3.7949 2.0117 159
12.5078 -3.7441000000000004 -0.1517 28
12.6797 -3.7949 2.3262 33
12.5078 -3.7870999999999997 0.1519 93
12.523399999999999 -3.793 0.4551 127
12.5156 -3.7910000000000004 0.7583 39
12.5078 -3.7891000000000004 -1.3691 153
12.4531 -3.7733999999999996 1.0595999999999999 100
12.523399999999999 -3.793 -1.0654000000000001 56
12.4453 -3.7695 1.3622999999999998 81
12.5078 -3.7891000000000004 -0.7578 130
12.5781 -3.8086 1.6846 137
12.523399999999999 -3.793 -0.4551 209
12.6094 -3.8202999999999996 2.002 63
12.5156 -3.7910000000000004 -0.152 208
12.6172 -3.8202999999999996 2.3164 60
12.5156 -3.8358999999999996 0.1522 195
12.5078 -3.8339999999999996 0.4551 45
12.523399999999999 -3.8379000000000003 0.7593000000000001 92
12.5078 -3.8339999999999996 -1.3700999999999999 228
12.4375 -3.8125 1.0586 177
12.5156 -3.8339999999999996 -1.0654000000000001 107
12.4531 -3.8183999999999996 1.3643 2
12.523399999999999 -3.8379000000000003 -0.7593000000000001 151
12.5781 -3.8555 1.6875 76
12.5078 -3.8339999999999996 -0.4551 127
12.593800000000002 -3.8594 2.002 65
12.523399999999999 -3.8379000000000003 -0.1523 119
12.6094 -3.8651999999999997 2.3184 85
12.5156 -3.8867000000000003 0.1523 231
12.5078 -3.8827999999999996 0.4556 20
12.523399999999999 -3.8867000000000003 0.7603 48
12.523399999999999 -3.8867000000000003 -1.3730000000000002 34
12.4297 -3.8594 1.0595999999999999 95
12.5078 -3.8827999999999996 -1.0664 145
12.4375 -3.8632999999999997 1.3643 47
12.5156 -3.8848000000000003 -0.7598 13
12.593800000000002 -3.9101999999999997 1.6904 44
12.5156 -3.8848000000000003 -0.4558 176
12.585899999999999 -3.9082 2.002 84
12.5078 -3.8848000000000003 -0.1523 31
12.6094 -3.9160000000000004 2.3203 8
12.5156 -3.9355 0.15259999999999999 104
12.5 -3.9297000000000004 0.4558 201
12.5156 -3.9336 0.7606999999999999 253
12.523399999999999 -3.9375 -1.375 253
12.4375 -3.9101999999999997 1.0615 221
12.4922 -3.9276999999999997 -1.0664 237
12.4375 -3.9101999999999997 1.3652000000000002 110
12.5078 -3.9316000000000004 -0.7598 15
12.601600000000001 -3.9608999999999996 1.6934 55
12.523399999999999 -3.9355 -0.45649999999999996 159
12.5781 -3.9531 2.0039 61
12.5078 -3.9336 -0.1525 83
12.601600000000001 -3.9608999999999996 2.3203 131
12.5078 -3.9785000000000004 0.15259999999999999 94
12.5156 -3.9824 0.4568 224
12.5 -3.9766000000000004 0.7606999999999999 151
12.5156 -3.9824 -1.376 173
12.4453 -3.9589999999999996 1.0635 106
12.5 -3.9785000000000004 -1.0684 172
12.4531 -3.9629000000000003 1.3691 128
12.5 -3.9766000000000004 -0.7603 30
12.5781 -4.0039 1.6934 92
12.523399999999999 -3.9863 -0.4573 235
12.593800000000002 -4.0078 2.0078 16
12.5078 -3.9805 -0.15259999999999999 199
12.585899999999999 -4.0039 2.3223 133
12.5 -4.0234 0.15259999999999999 252
12.5156 -4.0312 0.4573 186
12.5 -4.0273 0.7617 58
12.5078 -4.0273 -1.3769999999999998 194
12.4375 -4.0039 1.0635 180
12.5078 -4.0273 -1.0693000000000001 216
12.468800000000002 -4.0156 1.3721 100
12.5 -4.0234 -0.7612000000000001 9
12.5703 -4.0469 1.6934 59
12.523399999999999 -4.0312 -0.4575 44
12.593800000000002 -4.0547 2.0117 118
12.5156 -4.0312 -0.1528 175
12.585899999999999 -4.0547 2.3242 124
12.5078 -4.0781 0.153 40
12.5 -4.0742 0.4575 24
12.5156 -4.0781 0.7631999999999999 245
12.5156 -4.0781 -1.3788999999999998 122
12.4297 -4.0508 1.0645 188
12.4922 -4.0703 -1.0693000000000001 76
12.4844 -4.0664 1.375 13
12.5 -4.0742 -0.7622 124
12.5781 -4.1016 1.6963 130
12.5156 -4.0781 -0.4578 2
12.585899999999999 -4.1016 2.0117 87
12.5078 -4.0781 -0.153 75
12.593800000000002 -4.1055 2.3281 178
12.5 -4.1211 0.153 25
12.4922 -4.1172 0.4575 246
12.5156 -4.1289 0.7642 163
12.5078 -4.125 -1.3799000000000001 169
12.4297 -4.0977 1.0654000000000001 124
12.4922 -4.1211 -1.0713 45
12.5156 -4.125 1.3799000000000001 171
12.5 -4.1211 -0.7631999999999999 115
12.5781 -4.1484 1.6982 221
12.523399999999999 -4.1289 -0.4587 180
12.5781 -4.1484 2.0137 84
12.5078 -4.125 -0.1531 65
12.593800000000002 -4.1523 2.3301 40
12.5078 -4.1719 0.1533 113
12.5 -4.168 0.4583 131
12.5078 -4.1719 0.7646 180
12.5156 -4.1758 -1.3818000000000001 53
12.4297 -4.1484 1.0674 57
12.5 -4.1719 -1.0732 15
12.523399999999999 -4.1758 1.3828 210
12.5 -4.168 -0.7642 198
12.585899999999999 -4.1992 1.7012 237
12.523399999999999 -4.1758 -0.45899999999999996 137
12.585899999999999 -4.1992 2.0176 148
12.4922 -4.168 -0.1532 132
12.585899999999999 -4.1992 2.332 146
12.4922 -4.2188 0.1533 182
12.4922 -4.2148 0.4585 248
12.5 -4.2188 0.7646 78
12.5156 -4.2227 -1.3838 119
12.4453 -4.1992 1.0693000000000001 51
12.5078 -4.2188 -1.0742 45
12.5703 -4.2422 1.3896000000000002 191
12.4922 -4.2148 -0.7646 52
12.5781 -4.2461 1.7021000000000002 51
12.5156 -4.2266 -0.4595 248
12.5781 -4.2461 2.0176 81
12.5 -4.2188 -0.1534 64
12.5781 -4.2461 2.334 219
12.4844 -4.2617 0.1534 110
12.5078 -4.2695 0.4597 9
12.5 -4.2695 0.7661 196
12.4297 -4.2461 -1.376 243
12.4375 -4.2461 1.0693000000000001 186
12.5078 -4.2695 -1.0762 72
12.585899999999999 -4.2969 1.3936000000000002 61
12.5078 -4.2695 -0.7661 58
12.5469 -4.2812 1.6991999999999998 105
12.5156 -4.2734 -0.46 72
12.585899999999999 -4.2969 2.0215 247
12.5 -4.2656 -0.1536 168
12.5781 -4.293 2.3359 3
12.4844 -4.3125 0.1536 140
12.5 -4.3164 0.46 35
12.5 -4.3164 0.7666 116
12.398399999999999 -4.2812 -1.374 239
12.4297 -4.293 1.0703 115
12.398399999999999 -4.2812 -1.0674 206
12.585899999999999 -4.3477 1.3944999999999999 151
12.4375 -4.293 -0.7626999999999999 20
12.5469 -4.332 1.7021000000000002 252
12.5078 -4.3164 -0.46020000000000005 118
12.5781 -4.3438 2.0234 103
12.5 -4.3164 -0.15380000000000002 175
12.585899999999999 -4.3477 2.3398 86
12.4375 -4.3438 0.1532 237
12.4844 -4.3594 0.46 44
12.5156 -4.3711 0.7686 27
12.398399999999999 -4.3281 -1.376 235
12.4297 -4.3398 1.0713 63
12.3672 -4.3164 -1.0664 136
12.5781 -4.3945 1.3965 147
12.3828 -4.3242 -0.7603 230
12.5547 -4.3828 1.7050999999999998 36
12.398399999999999 -4.332 -0.457 175
12.5781 -4.3906 2.0254 232
12.414100000000001 -4.3359 -0.153 72
12.593800000000002 -4.3984 2.3438 2
12.414100000000001 -4.3828 0.1531 202
12.406199999999998 -4.3828 0.4578 7
12.4219 -4.3867 0.7642 73
12.5078 -4.418 -1.3896000000000002 175
12.4297 -4.3906 1.0732 240
12.460899999999999 -4.3984 -1.0752 201
12.460899999999999 -4.4023 1.3847999999999998 89
12.398399999999999 -4.3789 -0.7626999999999999 39
12.476600000000001 -4.4062 1.6963 48
12.398399999999999 -4.3789 -0.4575 78
12.5469 -4.4297 2.0215 80
12.3906 -4.375 -0.1527 30
12.5703 -4.4375 2.3418 170
12.406199999999998 -4.4297 0.1532 23
3.8516000000000004 -1.375 -0.6172 14
12.414100000000001 -4.4297 0.4585 186
3.8281 -1.3672 -0.5176 41
12.406199999999998 -4.4297 0.7637 67
12.4453 -4.4453 1.0762 220
12.4922 -4.4609 -1.0801 214
12.4219 -4.4375 1.3818000000000001 121
12.4922 -4.4609 -0.769 74
12.4844 -4.457 1.6991999999999998 238
12.5156 -4.4688 -0.4622 165
12.5078 -4.4648 2.0195 170
12.4453 -4.4453 -0.1537 255
12.4844 -4.457 2.3301 161
3.7891000000000004 -1.3681999999999999 -0.7026 116
12.414100000000001 -4.4805 0.1534 112
3.8183999999999996 -1.3779 -0.6123 157
12.414100000000001 -4.4805 0.45899999999999996 240
12.414100000000001 -4.4805 0.7651 145
3.8613 -1.3936000000000002 -0.42700000000000005 133
12.4219 -4.4844 1.0752 234
3.8438 -1.3877000000000002 -0.3301 125
12.4297 -4.4883 1.3847999999999998 136
12.4531 -4.4961 1.6972999999999998 227
12.5078 -4.5156 -0.46240000000000003 68
12.5 -4.5117 2.0195 13
12.4922 -4.5117 -0.15439999999999998 254
12.4922 -4.5117 2.3359 51
3.7441000000000004 -1.3652000000000002 -0.6953 23
12.4844 -4.5547 0.1545 14
3.7637 -1.3730000000000002 -0.6045 212
12.4922 -4.5586 0.46259999999999996 122
3.7988 -1.3857 -0.5146000000000001 127
12.4844 -4.5508 0.7705 120
3.8202999999999996 -1.3936000000000002 -0.4226 135
12.414100000000001 -4.5273 1.0752 226
12.523399999999999 -4.5664 1.3965 223
3.8555 -1.4062000000000001 -0.2361 4
12.5078 -4.5625 1.7069999999999999 130
12.5078 -4.5625 -0.4631 223
12.539100000000001 -4.5742 2.0293 190
12.5078 -4.5625 -0.1548 116
12.5078 -4.5625 2.3398 106
3.707 -1.3662 -0.6895 172
12.4922 -4.6055 0.1548 64
3.7266000000000004 -1.3730000000000002 -0.5991 183
12.4922 -4.6055 0.4631 32
3.7461 -1.3809 -0.5083 219
12.5 -4.6055 0.7725 168
3.7812 -1.3936000000000002 -0.4189 239
12.4219 -4.5781 1.0781 53
3.7910000000000004 -1.3975 -0.3264 175
12.5703 -4.6328 1.4043 89
12.5703 -4.6328 1.7178 213
12.5703 -4.6328 2.0352 218
12.5 -4.6055 -0.1549 59
12.5781 -4.6367 2.3574 0
3.6543 -1.3622999999999998 -0.6801999999999999 244
12.5 -4.6602 0.1552 150
3.6914 -1.376 -0.5942000000000001 138
12.4922 -4.6562 0.4636 93
3.6992000000000003 -1.3788999999999998 -0.5024000000000001 29
12.4922 -4.6562 0.7729 118
3.7441000000000004 -1.3955000000000002 -0.4153 169
12.4219 -4.6289 1.0791 75
3.752 -1.3984 -0.3235 206
12.5625 -4.6836 1.4053 204
3.793 -1.4131 -0.2328 70
12.5703 -4.6836 1.7197 31
3.8651999999999997 -1.4404 -0.1422 169
12.5703 -4.6836 2.0391 43
12.4844 -4.6523 -0.1549 135
12.5703 -4.6836 2.3574 156
3.6151999999999997 -1.3613 -0.6738 27
12.4922 -4.7031 0.1552 178
3.6464999999999996 -1.374 -0.5879 61
12.4922 -4.707 0.4644 102
3.6504000000000003 -1.375 -0.4961 58
12.4844 -4.7031 0.7734000000000001 92
3.6952999999999996 -1.3916 -0.4104 126
12.4219 -4.6758 1.0801 6
3.7089999999999996 -1.3965 -0.3201 188
12.5781 -4.7383 1.4082 118
3.7285000000000004 -1.4043 -0.2291 123
12.5703 -4.7344 1.7216999999999998 17
3.8145 -1.4365 -0.1405 79
12.5703 -4.7344 2.041 143
12.4922 -4.707 -0.1552 111
12.5547 -4.7305 2.3574 224
3.5488 -1.3506 -0.6620999999999999 102
12.4844 -4.7539 0.15539999999999998 233
3.5938 -1.3681999999999999 -0.5801 152
12.4922 -4.7578 0.46509999999999996 115
3.6308999999999996 -1.3818000000000001 -0.4941 148
12.4844 -4.7539 0.7744 1
3.6406 -1.3857 -0.4048 190
12.398399999999999 -4.7227 1.0801 118
3.6660000000000004 -1.3955000000000002 -0.31670000000000004 108
12.5625 -4.7852 1.4082 202
3.6914 -1.4053 -0.2271 167
12.5547 -4.7812 1.7227000000000001 168
3.7461 -1.4258000000000002 -0.1382 252
12.5781 -4.7891 2.0469 12
12.4922 -4.7578 -0.15539999999999998 140
12.5625 -4.7812 2.3633 14
3.5273000000000003 -1.3574000000000002 -0.6592 202
12.4844 -4.8008 0.1555 197
3.5586 -1.3681999999999999 -0.5747 157
12.476600000000001 -4.8008 0.46509999999999996 255
3.5898000000000003 -1.3809 -0.4893 187
12.4922 -4.8047 0.7759 199
3.6035000000000004 -1.3857 -0.4011 35
12.406199999999998 -4.7734 1.082 35
3.627 -1.3944999999999999 -0.31370000000000003 161
12.5703 -4.8359 1.4111000000000002 203
3.6543 -1.4053 -0.22510000000000002 174
12.5625 -4.832 1.7256 15
3.7245999999999997 -1.4325999999999999 -0.1376 97
12.5625 -4.832 2.0449 170
12.4922 -4.8047 -0.15560000000000002 231
12.5703 -4.8359 2.3672 0
3.5058999999999996 -1.3622999999999998 -0.6557999999999999 72
12.4844 -4.8516 0.1558 120
3.5214999999999996 -1.3681999999999999 -0.5698 136
12.476600000000001 -4.8477 0.4656 18
3.5214999999999996 -1.3681999999999999 -0.4807 178
12.4922 -4.8555 0.7773 138
3.5742000000000003 -1.3887 -0.39840000000000003 248
12.414100000000001 -4.8242 1.085 169
3.5723000000000003 -1.3877000000000002 -0.3093 224
12.5703 -4.8867 1.4131 93
3.6151999999999997 -1.4053 -0.223 21
12.5625 -4.8828 1.7285 115
3.668 -1.4247999999999998 -0.1356 1
12.5625 -4.8789 2.0488 102
12.4844 -4.8516 -0.1558 128
12.5781 -4.8867 2.3711 146
3.4414 -1.3506 -0.6445000000000001 50
12.4922 -4.8984 0.156 172
3.4901999999999997 -1.3691 -0.5649000000000001 254
12.4844 -4.8984 0.46659999999999996 59
3.4901999999999997 -1.3691 -0.4768 248
12.4922 -4.9023 0.7783 116
3.5391000000000004 -1.3877000000000002 -0.395 198
12.4219 -4.8711 1.0859 43
3.5449 -1.3906 -0.3074 137
12.5703 -4.9297 1.4141 47
3.5664 -1.3994 -0.2202 4
12.5625 -4.9258 1.7305000000000001 240
3.6483999999999996 -1.4316 -0.1351 220
12.5625 -4.9258 2.0508 240
12.468800000000002 -4.8945 -0.1558 170
12.5703 -4.9297 2.373 253
3.4062 -1.3506 -0.6386999999999999 6
12.4922 -4.957 0.1562 116
3.4452999999999996 -1.3672 -0.5586 209
12.4844 -4.9531 0.467 248
3.4608999999999996 -1.3730000000000002 -0.47340000000000004 141
12.476600000000001 -4.9492 0.7783 53
3.4941000000000004 -1.3866999999999998 -0.3906 5
12.4297 -4.9336 1.0889 186
3.5058999999999996 -1.3906 -0.3044 87
12.5703 -4.9883 1.4169999999999998 225
3.5233999999999996 -1.3975 -0.21780000000000002 255
12.5547 -4.9805 1.7324000000000002 18
3.6132999999999997 -1.4336000000000002 -0.13390000000000002 21
12.5703 -4.9883 2.0566 33
12.476600000000001 -4.9492 -0.1561 168
12.5469 -4.9766 2.373 96
3.3867000000000003 -1.3574000000000002 -0.6357 21
12.476600000000001 -5.0 0.1562 183
3.3887 -1.3574000000000002 -0.5498 41
12.4922 -5.0078 0.4683 183
3.4238 -1.3730000000000002 -0.469 107
12.476600000000001 -5.0 0.7798 241
3.4395 -1.3788999999999998 -0.3848 144
12.406199999999998 -4.9727 1.0879 187
3.4726999999999997 -1.3916 -0.302 136
12.5703 -5.0391 1.4188999999999998 211
3.5 -1.4022999999999999 -0.2167 103
12.5469 -5.0273 1.7334 34
3.6094 -1.4463 -0.13390000000000002 178
12.5703 -5.0352 2.0586 18
3.7988 -1.5225 -0.046900000000000004 8
12.5625 -5.0352 2.3789 110
3.3516000000000004 -1.3563999999999998 -0.6304 117
4.375 -1.7715 0.054299999999999994 15
3.3691000000000004 -1.3633000000000002 -0.5478999999999999 42
12.476600000000001 -5.0508 0.4683 249
3.3945 -1.3730000000000002 -0.4656 22
12.4922 -5.0547 0.7812 153
3.4062 -1.3779 -0.38159999999999994 252
12.414100000000001 -5.0234 1.0898 102
3.4257999999999997 -1.3857 -0.2981 78
12.5547 -5.0781 1.4188999999999998 165
3.4551 -1.3984 -0.21420000000000003 188
12.539100000000001 -5.0742 1.7353999999999998 177
3.5547000000000004 -1.4385 -0.1322 198
12.5625 -5.082 2.0605 208
3.7363 -1.5116999999999998 -0.0462 153
12.5703 -5.0859 2.3828 11
3.3086 -1.3516 -0.623 171
3.3339999999999996 -1.3622999999999998 -0.5429999999999999 121
12.406199999999998 -5.0664 0.4661 222
12.4219 -5.0742 0.7778 105
3.3926 -1.3857 -0.3804 204
12.406199999999998 -5.0664 1.0908 47
3.3789 -1.3799000000000001 -0.2944 112
12.4375 -5.082 1.4082 11
3.4120999999999997 -1.3936000000000002 -0.2118 114
12.4531 -5.0859 1.7246000000000001 194
3.5058999999999996 -1.4325999999999999 -0.1305 231
12.476600000000001 -5.0977 2.0488 95
3.6308999999999996 -1.4834 -0.045 235
12.5078 -5.1094 2.375 216
3.2695 -1.3506 -0.6162 142
3.3086 -1.3662 -0.5390999999999999 103
12.281199999999998 -5.0703 0.4622 4
3.3555 -1.3857 -0.46140000000000003 67
12.273399999999999 -5.0703 0.77 113
3.3516000000000004 -1.3838 -0.3765 57
12.3125 -5.0859 1.085 136
3.3457 -1.3818000000000001 -0.292 180
12.3047 -5.082 1.3944999999999999 130
3.3867000000000003 -1.3984 -0.2104 157
12.3281 -5.0938 1.7109 82
3.5 -1.4463 -0.1305 171
12.343800000000002 -5.0977 2.0293 219
3.5762 -1.4775 -0.0443 187
12.398399999999999 -5.1211 2.3574 87
3.2245999999999997 -1.3447 -0.6089 170
3.2733999999999996 -1.3652000000000002 -0.5342 177
3.2695 -1.3633000000000002 -0.45020000000000004 3
12.125 -5.0547 0.7617 31
3.3145 -1.3828 -0.373 119
12.1797 -5.082 1.0742 249
3.332 -1.3896000000000002 -0.2913 51
12.1875 -5.082 1.3828 211
3.3457 -1.3955000000000002 -0.20829999999999999 250
12.2031 -5.0898 1.6953 131
3.4043 -1.4199000000000002 -0.127 32
12.2344 -5.1016 2.0156 114
3.5098000000000003 -1.4638999999999998 -0.0436 77
12.2578 -5.1094 2.334 212
3.2031 -1.3477000000000001 -0.6054999999999999 52
4.3516 -1.8311000000000002 0.054299999999999994 7
3.2207 -1.3544999999999998 -0.5264 32
4.3711 -1.8397999999999999 0.1638 237
3.2207 -1.3544999999999998 -0.44380000000000003 43
12.0 -5.0508 0.7548999999999999 57
3.2637 -1.3730000000000002 -0.3674 209
12.023399999999999 -5.0625 1.0625 7
3.293 -1.3857 -0.28809999999999997 200
12.0547 -5.0742 1.3700999999999999 153
3.293 -1.3857 -0.2051 106
12.0703 -5.0781 1.6797 251
3.3983999999999996 -1.4306999999999999 -0.127 38
12.1172 -5.0977 1.9971 157
3.4688 -1.46 -0.0431 148
12.1406 -5.1094 2.3145 192
3.1757999999999997 -1.3486000000000002 -0.6011 72
11.914100000000001 -5.0586 0.15039999999999998 103
3.1875 -1.3544999999999998 -0.5215 167
4.293 -1.8232 0.1611 48
3.2207 -1.3681999999999999 -0.4446 77
11.898399999999999 -5.0547 0.7495 34
3.2305 -1.3711000000000002 -0.3643 20
11.914100000000001 -5.0586 1.0537 116
3.248 -1.3788999999999998 -0.2844 5
11.9297 -5.0664 1.3584 98
3.2695 -1.3887 -0.204 183
11.9453 -5.0703 1.6631 98
3.3945 -1.4413999999999998 -0.127 166
11.9844 -5.0898 1.9794999999999998 63
3.4219 -1.4531 -0.0426 10
12.0156 -5.1016 2.2949 132
3.1504000000000003 -1.3516 -0.5967 240
11.898399999999999 -5.1055 0.1505 135
3.1738 -1.3613 -0.52 237
11.8672 -5.0898 0.44920000000000004 63
3.1895 -1.3681999999999999 -0.4412 20
11.906199999999998 -5.1055 0.7509999999999999 76
11.906199999999998 -5.1055 1.0547 61
3.2168 -1.3799000000000001 -0.2822 60
11.906199999999998 -5.1094 1.3574000000000002 174
3.2441000000000004 -1.3916 -0.2026 131
11.8906 -5.1016 1.6591999999999998 26
3.3887 -1.4541 -0.127 4
11.8906 -5.1016 1.9658000000000002 146
3.373 -1.4472999999999998 -0.042 173
11.9219 -5.1133 2.2793 22
3.1211 -1.3516 -0.5922999999999999 186
11.8906 -5.1523 0.1506 36
3.1483999999999996 -1.3633000000000002 -0.5166 190
11.8672 -5.140599999999999 0.45 33
3.1464999999999996 -1.3633000000000002 -0.43579999999999997 51
11.8906 -5.1523 0.7515000000000001 71
3.1797000000000004 -1.3769999999999998 -0.35960000000000003 0
11.906199999999998 -5.1562 1.0566 138
3.1855 -1.3799000000000001 -0.28 31
11.898399999999999 -5.1562 1.3584 194
3.2089999999999996 -1.3906 -0.20079999999999998 228
11.898399999999999 -5.1523 1.6621000000000001 22
11.8906 -5.1484000000000005 1.9687999999999999 185
3.3262 -1.4413999999999998 -0.0415 207
11.8906 -5.1523 2.2773 207
3.0664 -1.3408000000000002 -0.5825 168
11.8828 -5.1953 0.1508 106
3.1191000000000004 -1.3643 -0.5127 39
11.8828 -5.1953 0.4512 192
3.1094 -1.3603999999999998 -0.43119999999999997 154
11.8828 -5.199199999999999 0.752 130
3.1483999999999996 -1.3769999999999998 -0.3567 235
11.906199999999998 -5.207000000000001 1.0576 140
3.1641000000000004 -1.3838 -0.2783 3
11.8906 -5.199199999999999 1.3594 231
3.1738 -1.3877000000000002 -0.1989 125
11.875 -5.1914 1.6621000000000001 169
3.2870999999999997 -1.4375 -0.1235 11
11.898399999999999 -5.203099999999999 1.9736000000000002 149
3.2733999999999996 -1.4306999999999999 -0.0409 47
11.8906 -5.199199999999999 2.2812 67
3.0547000000000004 -1.3486000000000002 -0.5811 44
11.875 -5.2422 0.1509 136
3.082 -1.3603999999999998 -0.5073 177
11.8828 -5.2461 0.45189999999999997 40
3.0879000000000003 -1.3633000000000002 -0.42869999999999997 46
11.898399999999999 -5.25 0.7539 102
3.1151999999999997 -1.375 -0.3533 222
11.898399999999999 -5.2539 1.0586 219
3.125 -1.3799000000000001 -0.2754 155
11.906199999999998 -5.2539 1.3633000000000002 182
3.1445 -1.3887 -0.1974 222
11.8672 -5.238300000000001 1.6631 62
3.1914 -1.4082 -0.12 56
11.898399999999999 -5.25 1.9766 241
3.2637 -1.4404 -0.0408 61
11.8906 -5.25 2.2852 126
3.0195 -1.3457 -0.5752 110
11.8828 -5.292999999999999 0.1512 240
3.0332 -1.3525 -0.5 138
11.875 -5.292999999999999 0.4521 137
3.0702999999999996 -1.3681999999999999 -0.42700000000000005 105
11.898399999999999 -5.3047 0.7554000000000001 115
3.0957 -1.3799000000000001 -0.35159999999999997 179
11.8906 -5.296900000000001 1.0595999999999999 183
3.0898000000000003 -1.3769999999999998 -0.2727 119
11.906199999999998 -5.3047 1.3652000000000002 150
3.1191000000000004 -1.3896000000000002 -0.1959 52
11.875 -5.292999999999999 1.6669999999999998 140
3.1776999999999997 -1.416 -0.1197 33
11.8906 -5.300800000000001 1.9785 50
3.2344 -1.4413999999999998 -0.0405 3
11.8906 -5.300800000000001 2.2891 72
3.0058999999999996 -1.3516 -0.5737 107
11.898399999999999 -5.3515999999999995 0.1516 164
3.0098000000000003 -1.3535 -0.4966 37
11.851600000000001 -5.332000000000001 0.4521 87
3.0293 -1.3622999999999998 -0.4216 71
11.898399999999999 -5.3515999999999995 0.7563 80
3.0586 -1.376 -0.3479 158
11.8906 -5.3477 1.0615 90
11.898399999999999 -5.3515999999999995 1.3672 144
3.0839999999999996 -1.3877000000000002 -0.1941 64
11.8906 -5.3477 1.6719 9
3.1816000000000004 -1.4306999999999999 -0.12 54
11.8906 -5.3477 1.9813999999999998 88
3.1933999999999996 -1.4365 -0.04 205
11.8906 -5.3515999999999995 2.293 64
2.9726999999999997 -1.3496000000000001 -0.5679 243
11.8906 -5.3984000000000005 0.1517 51
3.002 -1.3633000000000002 -0.4963 172
11.875 -5.394500000000001 0.4536 82
3.0 -1.3622999999999998 -0.4182 66
11.8906 -5.3984000000000005 0.7573000000000001 144
3.0332 -1.3769999999999998 -0.3455 70
11.8906 -5.3984000000000005 1.0635 216
3.0176 -1.3700999999999999 -0.2671 86
11.8906 -5.3984000000000005 1.3681999999999999 192
3.0547000000000004 -1.3866999999999998 -0.1925 131
11.8906 -5.3984000000000005 1.6747999999999998 147
3.1757999999999997 -1.4424000000000001 -0.12 208
11.8828 -5.394500000000001 1.9844 230
3.1562 -1.4325999999999999 -0.039599999999999996 121
11.8828 -5.394500000000001 2.293 132
2.9316000000000004 -1.3428 -0.561 21
11.8828 -5.4453 0.152 172
2.9745999999999997 -1.3633000000000002 -0.4924 114
