# .PCD v0.7 - Point Cloud Data file format
VERSION 0.7
FIELDS x y z intensity
SIZE 4 4 4 4
TYPE F F F F
COUNT 1 1 1 1
WIDTH 1303
HEIGHT 1
VIEWPOINT 0 0 0 1 0 0 0
POINTS 1303
DATA ascii
-12.375 2.8223000000000003 -1.3291 110
-12.3828 2.8242000000000003 1.0332 134
-12.3672 2.8202999999999996 -1.0322 109
-12.3828 2.8242000000000003 1.3300999999999998 32
-12.351600000000001 2.8183999999999996 -0.7349 127
-12.3594 2.8183999999999996 1.625 199
-12.3672 2.8223000000000003 -0.4412 207
-12.375 2.8223000000000003 1.9287 103
-12.3594 2.8202999999999996 -0.14730000000000001 208
-12.273399999999999 2.8007999999999997 2.2129 148
-12.3594 2.8672000000000004 0.1475 47
-8.9141 2.0684 -1.3887 147
-12.3672 2.8691000000000004 0.4414 247
-10.3672 2.4043 -1.3633000000000002 210
-12.3672 2.8672000000000004 0.7358 71
-12.3594 2.8672000000000004 -1.3291 119
-12.3672 2.8691000000000004 1.0332 93
-12.3594 2.8672000000000004 -1.0332 174
-12.375 2.8711 1.3311000000000002 75
-12.3594 2.8672000000000004 -0.7354 72
-12.343800000000002 2.8632999999999997 1.625 163
-12.3594 2.8672000000000004 -0.4412 103
-12.375 2.8711 1.9306999999999999 16
-12.3672 2.8691000000000004 -0.1476 142
-12.273399999999999 2.8476999999999997 2.2148 88
-12.3594 2.9141000000000004 0.1476 88
-8.9062 2.0996 -1.3896000000000002 37
-12.3594 2.9120999999999997 0.44170000000000004 123
-10.351600000000001 2.4395 -1.3622999999999998 76
-12.3672 2.9141000000000004 0.7368000000000001 227
-12.3672 2.9141000000000004 -1.3311000000000002 208
-12.351600000000001 2.9120999999999997 1.0332 220
-12.351600000000001 2.9101999999999997 -1.0332 9
-12.3828 2.918 1.3330000000000002 173
-12.3672 2.9141000000000004 -0.7363 219
-12.343800000000002 2.9082 1.626 60
-12.3594 2.9120999999999997 -0.4414 25
-12.3594 2.9120999999999997 1.9297 106
-12.375 2.9160000000000004 -0.1478 122
-12.273399999999999 2.8926 2.2168 134
-12.3672 2.9608999999999996 0.1478 232
-8.8906 2.1289 -1.3877000000000002 5
-12.3594 2.957 0.44189999999999996 33
-10.3281 2.4707 -1.3603999999999998 5
-12.3672 2.9608999999999996 0.7373000000000001 224
-12.375 2.9608999999999996 -1.3330000000000002 252
-12.3594 2.9589999999999996 1.0342 8
-12.351600000000001 2.957 -1.0342 173
-12.3672 2.9608999999999996 1.3319999999999999 185
-12.3672 2.9589999999999996 -0.7368000000000001 159
-12.351600000000001 2.957 1.6288999999999998 234
-12.3672 2.9589999999999996 -0.4424 65
-12.351600000000001 2.957 1.9306999999999999 115
-12.343800000000002 2.9551 -0.1476 190
-12.273399999999999 2.9375 2.2168 107
-12.3672 3.0058999999999996 0.1479 188
-8.8906 2.1602 -1.3877000000000002 93
-12.3594 3.0039 0.4424 173
-10.3594 2.5176 -1.3662 23
-12.351600000000001 3.002 0.7373000000000001 48
-12.375 3.0077999999999996 -1.334 24
-12.375 3.0077999999999996 1.0361 224
-12.351600000000001 3.002 -1.0342 138
-12.3594 3.0039 1.3319999999999999 242
-12.351600000000001 3.002 -0.7368000000000001 11
-12.3594 3.0039 1.6309 206
-12.3828 3.0098000000000003 -0.44310000000000005 216
-12.3594 3.0039 1.9325999999999999 118
-12.351600000000001 3.002 -0.1477 57
-12.2656 2.9805 2.2188 235
-12.3594 3.0488 0.1479 67
-8.8672 2.1895 -1.3866999999999998 77
-12.3594 3.0488 0.4429 180
-10.335899999999999 2.5508 -1.3643 57
-12.351600000000001 3.0488 0.7378 106
-12.3672 3.0507999999999997 -1.334 95
-12.375 3.0547000000000004 1.0381 22
-12.351600000000001 3.0469 -1.0352 136
-12.3672 3.0526999999999997 1.335 211
-12.343800000000002 3.0449 -0.7373000000000001 63
-12.343800000000002 3.0469 1.6309 145
-12.375 3.0547000000000004 -0.4434 239
-12.3672 3.0507999999999997 1.9355000000000002 225
-12.343800000000002 3.0449 -0.1478 202
-12.2656 3.0254000000000003 2.2207 85
-12.351600000000001 3.0938 0.1481 29
-8.8438 2.2148 -1.3838 176
-12.3672 3.0957 0.4434 196
-10.3281 2.5879000000000003 -1.3643 3
-12.3594 3.0938 0.7383 193
-12.351600000000001 3.0938 -1.334 103
-12.351600000000001 3.0918 1.0361 129
-12.3594 3.0957 -1.0371 229
-12.375 3.0976999999999997 1.3359 57
-12.351600000000001 3.0918 -0.7378 145
-12.335899999999999 3.0898000000000003 1.6309 58
-12.3672 3.0976999999999997 -0.4434 145
-12.3594 3.0957 1.9365 151
-12.3672 3.0957 -0.1482 171
-12.273399999999999 3.0742000000000003 2.2227 152
-12.343800000000002 3.1387 0.1481 53
-8.8281 2.2441 -1.3828 94
-12.351600000000001 3.1406 0.4434 180
-10.3125 2.6211 -1.3633000000000002 63
-12.3594 3.1406 0.7393000000000001 76
-12.343800000000002 3.1387 -1.334 242
-12.343800000000002 3.1367000000000003 1.0361 216
-12.335899999999999 3.1348000000000003 -1.0361 231
-12.3672 3.1426 1.3369 236
-12.351600000000001 3.1387 -0.7387999999999999 95
-12.343800000000002 3.1367000000000003 1.6328 221
-12.3594 3.1406 -0.4434 94
-12.351600000000001 3.1387 1.9365 209
-12.351600000000001 3.1387 -0.1481 148
-12.273399999999999 3.1191000000000004 2.2246 159
-12.351600000000001 3.1855 0.1483 197
-8.8203 2.2754 -1.3828 24
-12.343800000000002 3.1836 0.4434 108
-10.2969 2.6562 -1.3622999999999998 181
-12.351600000000001 3.1855 0.7397 200
-12.351600000000001 3.1855 -1.3359 43
-12.351600000000001 3.1855 1.0381 28
-12.335899999999999 3.1797000000000004 -1.0371 40
-12.3594 3.1875 1.3369 206
-12.3672 3.1895 -0.7402 144
-12.343800000000002 3.1836 1.6347999999999998 232
-12.3672 3.1895 -0.4443 204
-12.343800000000002 3.1836 1.9375 196
-12.3594 3.1875 -0.1484 73
-12.2656 3.1641000000000004 2.2266 4
-12.3672 3.2324 0.14859999999999998 113
-8.8125 2.3027 -1.3818000000000001 30
-12.335899999999999 3.2245999999999997 0.4436 113
-10.2656 2.6836 -1.3603999999999998 17
-12.351600000000001 3.2305 0.7402 55
-12.351600000000001 3.2285000000000004 -1.3369 180
-12.3672 3.2324 1.041 124
-12.3281 3.2226999999999997 -1.0371 100
-12.351600000000001 3.2305 1.3378999999999999 121
-12.335899999999999 3.2245999999999997 -0.7393000000000001 205
-12.3594 3.2305 1.6377000000000002 32
-12.3828 3.2363 -0.4451 119
-12.343800000000002 3.2266000000000004 1.9394999999999998 119
-12.343800000000002 3.2266000000000004 -0.1483 179
-12.25 3.2012 2.2246 174
-12.343800000000002 3.2714999999999996 0.1484 5
-8.8047 2.332 -1.3828 191
-12.343800000000002 3.2714999999999996 0.4443 125
-10.2422 2.7148000000000003 -1.3574000000000002 174
-12.343800000000002 3.2714999999999996 0.7402 245
-12.3203 3.2637 -1.335 192
-12.351600000000001 3.2733999999999996 1.04 28
-12.343800000000002 3.2714999999999996 -1.04 8
-12.3594 3.2754000000000003 1.3397999999999999 54
-12.335899999999999 3.2695 -0.7402 138
-12.343800000000002 3.2714999999999996 1.6377000000000002 142
-12.3594 3.2754000000000003 -0.4448 230
-12.3594 3.2733999999999996 1.9424000000000001 211
-12.351600000000001 3.2714999999999996 -0.1484 30
-12.2578 3.248 2.2285 60
-12.343800000000002 3.3183999999999996 0.14859999999999998 216
-8.7812 2.3613 -1.3799000000000001 185
-12.351600000000001 3.3202999999999996 0.4448 4
-10.25 2.7558999999999996 -1.3594 67
-12.351600000000001 3.3202999999999996 0.7412000000000001 172
-12.3047 3.3086 -1.335 191
-12.3594 3.3223000000000003 1.042 47
-12.351600000000001 3.3223000000000003 -1.041 140
-12.3594 3.3242000000000003 1.3408000000000002 18
-12.351600000000001 3.3202999999999996 -0.7417 224
-12.335899999999999 3.3164 1.6377000000000002 131
-12.3594 3.3242000000000003 -0.44530000000000003 84
-12.351600000000001 3.3202999999999996 1.9434 207
-12.351600000000001 3.3223000000000003 -0.1487 233
-12.2656 3.2969 2.2324 216
-12.343800000000002 3.3651999999999997 0.1487 164
-8.7656 2.3887 -1.3788999999999998 146
-12.343800000000002 3.3651999999999997 0.4451 98
-10.2344 2.7891000000000004 -1.3584 26
-12.343800000000002 3.3651999999999997 0.7417 109
-12.2969 3.3535000000000004 -1.335 119
-12.343800000000002 3.3651999999999997 1.041 160
-12.351600000000001 3.3672000000000004 -1.042 222
-12.3594 3.3691000000000004 1.3418 213
-12.351600000000001 3.3672000000000004 -0.7422 92
-12.343800000000002 3.3651999999999997 1.6396000000000002 215
-12.3594 3.3691000000000004 -0.4456 38
-12.343800000000002 3.3672000000000004 1.9453 49
-12.3594 3.3691000000000004 -0.1489 11
-12.2656 3.3438 2.2344 153
-12.343800000000002 3.4101999999999997 0.14880000000000002 62
-8.7578 2.4199 -1.3788999999999998 68
-12.3281 3.4082 0.4448 12
-10.2031 2.8183999999999996 -1.3555000000000001 193
-12.351600000000001 3.4141000000000004 0.7432 206
-12.25 3.3848000000000003 -1.3311000000000002 116
-12.343800000000002 3.4120999999999997 1.043 69
-12.335899999999999 3.4101999999999997 -1.042 9
-12.343800000000002 3.4120999999999997 1.3418 107
-12.3594 3.4160000000000004 -0.7432 236
-12.351600000000001 3.4141000000000004 1.6425999999999998 155
-12.3594 3.4160000000000004 -0.446 72
-12.335899999999999 3.4101999999999997 1.9453 104
-12.343800000000002 3.4101999999999997 -0.14880000000000002 175
-12.25 3.3867000000000003 2.2344 38
-12.3672 3.4648000000000003 0.1493 151
-8.7734 2.457 -1.3828 139
-12.343800000000002 3.457 0.4458 146
-10.1797 2.8535000000000004 -1.3544999999999998 228
-12.351600000000001 3.4608999999999996 0.7437 131
-12.2656 3.4375 -1.334 88
-12.3594 3.4629000000000003 1.0449 231
-12.351600000000001 3.4608999999999996 -1.0439 29
-12.351600000000001 3.4589999999999996 1.3437999999999999 236
-12.335899999999999 3.4551 -0.7426999999999999 192
-12.3594 3.4629000000000003 1.6455000000000002 194
-12.3672 3.4648000000000003 -0.4468 205
-12.351600000000001 3.4589999999999996 1.9491999999999998 36
-12.335899999999999 3.4551 -0.1489 146
-12.2578 3.4336 2.2363 81
-12.335899999999999 3.5039 0.149 16
-8.75 2.4844 -1.3799000000000001 54
-12.343800000000002 3.5039 0.44630000000000003 229
-10.1797 2.8887 -1.3555000000000001 254
-12.335899999999999 3.502 0.7432 148
-12.2422 3.4766000000000004 -1.3330000000000002 247
-12.351600000000001 3.5077999999999996 1.0449 204
-12.343800000000002 3.5058999999999996 -1.0449 91
-12.351600000000001 3.5058999999999996 1.3447 230
-12.343800000000002 3.5039 -0.7441 233
-12.343800000000002 3.5039 1.6444999999999999 142
-12.3672 3.5117000000000003 -0.4473 100
-12.351600000000001 3.5077999999999996 1.9512 165
-12.335899999999999 3.502 -0.149 225
-12.2422 3.4766000000000004 2.2363 57
-12.335899999999999 3.5488 0.1492 112
-8.7344 2.5117 -1.3788999999999998 125
-12.343800000000002 3.5507999999999997 0.4468 238
-10.1797 2.9276999999999997 -1.3563999999999998 166
-12.343800000000002 3.5526999999999997 0.7451000000000001 24
-12.226600000000001 3.5176 -1.3330000000000002 14
-12.335899999999999 3.5488 1.0449 42
-12.351600000000001 3.5547000000000004 -1.0469 120
-12.3672 3.5566000000000004 1.3477000000000001 21
-12.335899999999999 3.5507999999999997 -0.7445999999999999 131
-12.3281 3.5469 1.6444999999999999 79
-12.343800000000002 3.5526999999999997 -0.4468 91
-12.7344 3.6620999999999997 2.0137 252
-12.343800000000002 3.5507999999999997 -0.1493 10
-12.25 3.5233999999999996 2.2402 93
-12.351600000000001 3.5995999999999997 0.1495 134
-8.7031 2.5371 -1.376 161
-12.343800000000002 3.5976999999999997 0.4473 161
-10.1719 2.9648000000000003 -1.3574000000000002 236
-12.351600000000001 3.5995999999999997 0.7461 146
-12.2031 3.5566000000000004 -1.3311000000000002 199
-12.351600000000001 3.6016000000000004 1.0479 166
-12.343800000000002 3.5976999999999997 -1.0469 151
-19.0469 5.550800000000001 2.0801 54
-12.343800000000002 3.5995999999999997 -0.7456 114
-12.343800000000002 3.5976999999999997 -0.4473 247
-12.789100000000001 3.7266000000000004 2.0254 201
-12.351600000000001 3.5995999999999997 -0.1495 223
-12.2578 3.5723000000000003 2.2441 68
-12.3828 3.6562 0.15 213
-8.7109 2.5702999999999996 -1.3779 7
-12.343800000000002 3.6445 0.44780000000000003 25
-10.1641 3.0 -1.3574000000000002 23
-12.1719 3.5938 -1.3291 197
-12.343800000000002 3.6445 -1.0479 100
-19.1094 5.644500000000001 2.0898 176
-12.343800000000002 3.6445 -0.7461 255
-12.3672 3.6504000000000003 -0.4485 15
-17.9688 5.3086 2.8516000000000004 160
-12.406199999999998 3.6641000000000004 -0.15039999999999998 94
-19.3438 5.7109000000000005 3.5488 116
-108.5 32.4688 1.3241999999999998 218
-8.6797 2.5957 -1.375 62
-10.1406 3.0332 -1.3555000000000001 218
-12.1719 3.6406 -1.3311000000000002 233
-12.3672 3.6973000000000003 -1.0508 217
-19.25 5.7578 2.1074 69
-12.539100000000001 3.752 -0.7593000000000001 91
-17.9688 5.375 2.8535000000000004 7
-19.2656 5.761699999999999 3.5391000000000004 237
-8.6719 2.627 -1.376 54
-10.125 3.0683999999999996 -1.3555000000000001 163
-12.148399999999999 3.6797000000000004 -1.3300999999999998 157
-19.0 5.7539 2.082 33
-19.7656 5.984400000000001 -1.1992 3
-17.9219 5.4297 2.8495999999999997 105
-28.9219 8.7578 -0.3525 208
-19.375 5.8711 3.5625 201
-8.6484 2.6523000000000003 -1.3730000000000002 140
-10.125 3.1035000000000004 -1.3563999999999998 235
-12.125 3.7188 -1.3281 123
-14.8672 4.5586 -1.2666 91
-19.0781 5.8515999999999995 2.0918 28
-19.75 6.0547 -1.1992 128
-17.9375 5.5039 2.8555 17
-28.8594 8.8516 -0.3521 160
-19.4062 5.949199999999999 3.5702999999999996 78
-8.6328 2.6797000000000004 -1.3711000000000002 139
-10.1016 3.1367000000000003 -1.3555000000000001 26
-12.101600000000001 3.7577999999999996 -1.3271000000000002 28
-14.875 4.6172 -1.2686 198
-19.1094 5.9336 2.0977 233
-19.5625 6.078099999999999 -1.1895 164
-18.0 5.5898 2.8672000000000004 103
-19.3594 6.011699999999999 3.5664 103
-8.6016 2.7012 -1.3681999999999999 146
-10.0938 3.1699 -1.3555000000000001 57
-23.3438 7.332000000000001 1.4209 23
-12.093800000000002 3.7988 -1.3281 90
-14.8047 4.6523 -1.2637 191
-19.0938 5.9961 2.0977 177
-19.5 6.1289 -1.1875 151
-18.125 5.6914 2.4375 117
-26.8594 8.4375 -0.981 138
-17.9844 5.6484000000000005 2.8672000000000004 242
-28.8125 9.0547 -0.35229999999999995 135
-19.3281 6.074199999999999 3.5645 154
-8.6094 2.7363 -1.3721 112
-23.4375 7.449199999999999 0.8573999999999999 76
-10.0781 3.2031 -1.3544999999999998 166
-23.3438 7.417999999999999 1.4228999999999998 40
-12.093800000000002 3.8438 -1.3291 242
-23.4219 7.4453 2.0039 57
-14.8047 4.707 -1.2656 185
-19.4062 6.167999999999999 -1.1826 14
-18.1406 5.761699999999999 2.4414 25
-17.9844 5.7148 2.8711 131
-19.2656 6.1211 3.5566000000000004 215
-8.6016 2.7656 -1.3711000000000002 238
-23.3594 7.515599999999999 0.855 91
-10.0625 3.2363 -1.3535 45
-23.3281 7.5039 1.4238 9
-12.0625 3.8789 -1.3271000000000002 102
-14.7422 4.7422 -1.2607 74
-19.375 6.230499999999999 -1.1816 134
-18.0469 5.800800000000001 2.4316 55
-23.375 7.519500000000001 -0.8554999999999999 16
-17.8906 5.7539 2.8594 30
-19.5156 6.2773 3.6074 247
-8.5781 2.7891000000000004 -1.3681999999999999 54
-10.0547 3.2695 -1.3544999999999998 255
-23.3594 7.5977 1.4258000000000002 222
-12.0625 3.9238 -1.3281 53
-14.7578 4.8008 -1.2637 86
-19.3281 6.2890999999999995 -1.1806999999999999 156
-18.0469 5.8672 2.4355 253
-23.3906 7.609400000000001 -0.8569 154
-16.9062 5.5 2.7051 123
-16.7969 5.4609000000000005 3.1055 210
-8.5625 2.8183999999999996 -1.3672 80
-10.0469 3.3086 -1.3555000000000001 67
-12.0469 3.9688 -1.3281 220
-14.664100000000001 4.8281 -1.2568000000000001 191
-19.5938 6.453099999999999 2.1621 103
-19.2969 6.359400000000001 -1.1797 95
-18.0 5.9297 2.4336 131
-16.8281 5.542999999999999 2.6952999999999996 126
-19.4062 6.390599999999999 3.5957 11
-93.3125 31.0938 1.1494 252
-8.5547 2.8495999999999997 -1.3681999999999999 156
-10.0312 3.3418 -1.3544999999999998 147
-12.0547 4.0195 -1.3311000000000002 208
-14.648399999999999 4.8828 -1.2578 20
-19.5312 6.511699999999999 2.1602 244
-19.2344 6.4102 -1.1777 44
-18.0312 6.0078 2.4395 197
-16.7812 5.5938 2.6914 24
-19.2344 6.4062 3.5664 183
-93.25 31.4375 1.1494 4
-8.5469 2.8808999999999996 -1.3691 189
-10.0078 3.375 -1.3535 129
-12.039100000000001 4.0586 -1.3311000000000002 213
-14.6172 4.9297 -1.2568000000000001 45
-19.5156 6.582000000000001 2.1602 115
-19.1875 6.4688 -1.1758 135
-17.9688 6.0586 2.4336 190
-16.7656 5.6523 2.6914 134
-16.8125 5.667999999999999 3.1211 211
-8.5312 2.9101999999999997 -1.3681999999999999 233
-10.0078 3.4120999999999997 -1.3544999999999998 144
-12.0625 4.1133 -1.335 248
-14.601600000000001 4.9766 -1.2559 151
-19.6875 6.7148 2.1816 80
-19.0938 6.511699999999999 -1.1709 110
-17.1719 5.859400000000001 2.3281 27
-16.7969 5.7265999999999995 2.6992000000000003 197
-16.7656 5.7188 3.1151999999999997 87
-90.5625 31.25 1.1201 75
-8.5156 2.9375 -1.3672 235
-9.9844 3.4433999999999996 -1.3525 131
-12.023399999999999 4.1484 -1.3319999999999999 180
-14.5625 5.0234 -1.2549 215
-19.6406 6.7773 2.1797 2
-19.0625 6.578099999999999 -1.1709 56
-17.25 5.949199999999999 2.3398 133
-16.7188 5.765599999999999 3.1094 219
-8.5078 2.9688 -1.3681999999999999 173
-9.9531 3.4726999999999997 -1.3506 59
-12.031199999999998 4.1992 -1.335 134
-14.523399999999999 5.0664 -1.2529000000000001 229
-19.5156 6.8086 2.168 61
-18.9375 6.605499999999999 -1.1641 142
-17.3281 6.046900000000001 2.3555 116
-21.8906 7.636699999999999 -0.8081 187
-17.8125 6.2148 2.8711 209
-8.4922 2.998 -1.3672 173
-9.9375 3.5077999999999996 -1.3506 169
-12.0547 4.2539 -1.3388999999999998 121
-14.4844 5.1133 -1.251 79
-19.5 6.8828 2.1699 244
-19.2812 6.8047 -1.1875 110
-17.3906 6.140599999999999 2.3672 245
-17.7344 6.2578 2.8613 33
-16.8125 5.9297 3.1348000000000003 109
-8.4766 3.0254000000000003 -1.3662 50
-9.9453 3.5488 -1.3525 51
-12.039100000000001 4.2969 -1.3388999999999998 17
-14.460899999999999 5.1602 -1.251 109
-19.4844 6.953099999999999 2.1699 233
-19.5156 6.9648 -1.2031 63
-17.7031 6.3164 2.4121 100
-17.7188 6.324199999999999 2.8632999999999997 50
-16.7812 5.988300000000001 3.1348000000000003 185
-8.4609 3.0488 -1.3652000000000002 7
-9.9062 3.5702999999999996 -1.3486000000000002 176
-12.0156 4.332 -1.3378999999999999 133
-14.414100000000001 5.1953 -1.248 22
-17.6719 6.3672 1.9687999999999999 39
-19.4375 7.0039 -1.1992 97
-17.5938 6.3398 2.4004 22
-17.2031 6.199199999999999 2.7812 48
-16.9844 6.1211 3.1757999999999997 84
-8.4375 3.0723000000000003 -1.3622999999999998 157
-9.9141 3.6113 -1.3516 159
-12.0156 4.375 -1.3397999999999999 238
-14.406199999999998 5.2461 -1.248 43
-17.6406 6.421900000000001 1.9687999999999999 58
-19.2969 7.0273 -1.1924 35
-17.2188 6.269500000000001 2.3516 244
-17.1562 6.2461 2.7773000000000003 36
-17.0469 6.207000000000001 3.1914 123
-8.4062 3.0957 -1.3594 115
-9.8984 3.6445 -1.3506 16
-12.0156 4.4258 -1.3418 115
-14.335899999999999 5.2812 -1.2441 209
-19.2812 7.105499999999999 -1.1934 228
-19.6562 7.238300000000001 2.6875 120
-18.8281 6.9375 3.0526999999999997 20
-23.125 8.5156 -0.2874 195
-17.4844 6.4414 3.2793 210
-8.3984 3.127 -1.3603999999999998 48
-69.8125 25.9844 2.5995999999999997 22
-9.8594 3.6699 -1.3477000000000001 66
-12.0156 4.4727 -1.3428 208
-14.2969 5.324199999999999 -1.2422 252
-19.3125 7.1875 -1.1963 244
-18.7031 6.9609000000000005 3.0351999999999997 60
-23.0781 8.5938 -0.2871 107
-17.7031 6.5898 3.3223000000000003 12
-8.3906 3.1601999999999997 -1.3613 233
-9.8438 3.7051 -1.3477000000000001 0
-12.0469 4.5352 -1.3486000000000002 75
-8.7422 3.2910000000000004 0.7593000000000001 50
-14.281199999999998 5.375 -1.2422 208
-8.6797 3.2676 0.9702 144
-19.2656 7.2539 -1.1953 79
-8.6719 3.2656 1.1865 162
-23.0469 8.6719 -0.2871 145
-8.6172 3.2422000000000004 1.6152000000000002 211
-8.3594 3.1816000000000004 -1.3574000000000002 166
-8.7188 3.3164 -1.1943000000000001 59
-8.6328 3.2832 0.5347 123
-8.7188 3.3164 -0.9756 167
-8.6797 3.3026999999999997 0.7548999999999999 193
-14.2422 5.417999999999999 -1.2412 6
-8.6406 3.2851999999999997 0.9668000000000001 163
-19.2969 7.3438 -1.1982 70
-8.6016 3.2733999999999996 1.1787 120
-21.7969 8.2891 -0.8125 112
-8.6328 3.2851999999999997 1.4022999999999999 196
-8.5703 3.2598000000000003 1.6094 152
-8.3438 3.2089999999999996 -1.3563999999999998 16
-8.6094 3.3105 -1.1816 248
-8.6094 3.3086 0.5337 32
-8.5781 3.2988 -0.9614 167
-8.5938 3.3047000000000004 0.7484999999999999 95
-14.210899999999999 5.4648 -1.2402 249
-8.6016 3.3066000000000004 0.9639 118
-19.2344 7.394500000000001 -1.1963 158
-8.5703 3.2949 1.1758 155
-8.6719 3.3339999999999996 -0.3225 136
-8.6172 3.3125 1.4013999999999998 95
-8.6328 3.3202999999999996 -0.1073 202
-8.5859 3.3007999999999997 1.6152000000000002 110
-8.6406 3.3574 0.1075 62
-8.3359 3.2382999999999997 -1.3563999999999998 33
-8.5391 3.3183999999999996 -1.1738 170
-8.5938 3.3379000000000003 0.5337 97
-8.5391 3.3164 -0.958 64
-8.5703 3.3281 0.7471 226
-8.6484 3.3594 -0.7539 121
-8.6016 3.3418 0.9653 7
-8.6328 3.3535000000000004 -0.5361 236
-8.5625 3.3281 1.1768 120
-8.6328 3.3535000000000004 -0.3215 69
-8.6562 3.3613 1.4091999999999998 215
-8.5859 3.3358999999999996 -0.1069 42
-8.5781 3.332 1.6152000000000002 7
-8.5859 3.3672000000000004 0.1069 98
-8.3125 3.2617000000000003 -1.3555000000000001 132
-8.5781 3.3651999999999997 0.31980000000000003 177
-8.5 3.3339999999999996 -1.1689 23
-8.5859 3.3691000000000004 0.5342 63
-8.5234 3.3438 -0.9575 154
-8.5703 3.3613 0.748 250
-8.5938 3.3711 -0.7505 190
-8.5859 3.3672000000000004 0.9643999999999999 213
-8.5859 3.3691000000000004 -0.5342 224
-8.5781 3.3672000000000004 1.1806999999999999 104
-8.5938 3.3711 -0.3206 240
-8.5781 3.3632999999999997 -0.10679999999999999 143
-17.5781 6.894500000000001 3.3223000000000003 99
-8.5938 3.4043 0.1072 88
-8.3047 3.2910000000000004 -1.3563999999999998 72
-8.5625 3.3906 0.3196 188
-8.4766 3.3574 -1.167 37
-8.5703 3.3945 0.5337 171
-8.5156 3.373 -0.958 72
-8.5781 3.3983999999999996 0.75 108
-8.5859 3.4004000000000003 -0.7505 253
-8.5781 3.3983999999999996 -0.5342 207
-19.6875 7.800800000000001 2.7188 167
-8.5859 3.4023000000000003 -0.3208 177
-18.9844 7.5234000000000005 3.1074 220
-8.5547 3.3887 -0.1067 213
-17.5781 6.9648 3.3281 156
-8.5781 3.4355 0.1072 117
-8.2969 3.3223000000000003 -1.3563999999999998 46
-8.5859 3.4375 0.321 91
-8.4766 3.3945 -1.1699 233
-17.375 6.953099999999999 1.0859 170
-8.5156 3.4101999999999997 -0.9595 248
-8.5703 3.4316000000000004 -0.7505 131
-8.5547 3.4257999999999997 -0.5332 13
-19.6719 7.875 2.7207 196
-8.5938 3.4414 -0.3215 240
-18.9844 7.6015999999999995 3.1113 81
-8.5625 3.4297000000000004 -0.107 109
-16.75 6.703099999999999 3.1719 26
-17.875 7.2265999999999995 0.2245 80
-8.2656 3.3438 -1.3535 226
-17.8438 7.2148 0.6704000000000001 23
-8.4922 3.4355 -1.1729 98
-17.375 7.0312 1.0879 31
-8.5078 3.4414 -0.96 165
-8.5781 3.4688 -0.752 177
-8.5625 3.4648000000000003 -0.5352 112
-8.8984 3.5976999999999997 1.2285 193
-8.5938 3.4745999999999997 -0.3218 176
-17.8906 7.238300000000001 -0.2249 42
-16.6875 6.7461 3.1660000000000004 33
-17.875 7.296900000000001 0.2249 227
-8.2578 3.373 -1.3535 19
-17.8125 7.2773 0.6704000000000001 85
-8.5 3.4688 -1.1748 169
-17.5938 7.1836 1.1035 95
-8.5078 3.4745999999999997 -0.9614 76
-8.5703 3.5 -0.7524 25
-17.8906 7.3047 -1.1220999999999999 95
-8.8203 3.6016000000000004 1.2197 6
-17.9062 7.3125 -0.6738 123
-17.9219 7.3164 -0.2253 157
-16.75 6.8359000000000005 3.1816000000000004 166
-8.2422 3.3983999999999996 -1.3535 249
-17.8594 7.359400000000001 0.6729 56
-8.4844 3.498 -1.1758 44
-17.8125 7.3398 1.1181999999999999 152
-8.5156 3.5117000000000003 -0.9639 117
-8.9141 3.6757999999999997 0.7842 136
-13.9297 5.7422 -1.2266 65
-8.7422 3.6016000000000004 0.9887999999999999 69
-17.9062 7.3789 -1.124 121
-8.7812 3.6191000000000004 1.2158 7
-20.0625 8.2734 3.3026999999999997 64
-16.625 6.8515999999999995 3.1620999999999997 245
-8.2344 3.4297000000000004 -1.3544999999999998 132
-17.9375 7.4727 0.6768000000000001 176
-8.4844 3.5332 -1.1768 29
-17.6094 7.332000000000001 1.1074 124
-8.5156 3.5469 -0.9653 15
-17.8125 7.417999999999999 1.5722999999999998 191
-13.8906 5.7852 -1.2256 249
-8.7109 3.6289 0.9873000000000001 139
-19.0156 7.917999999999999 -1.1963 161
-8.7656 3.6504000000000003 1.2158 157
-20.0 8.3281 -0.7544 166
-17.3438 7.2227 2.8594 80
-16.5781 6.9023 3.1582 98
-8.2266 3.4589999999999996 -1.3535 247
-18.0 7.5664 0.6797 127
-8.4922 3.5723000000000003 -1.1797 211
-17.4688 7.3438 1.0996 74
-11.7969 4.9609 -1.3397999999999999 215
-17.9375 7.5390999999999995 1.585 111
-13.835899999999999 5.8203 -1.2227 159
-8.7031 3.6620999999999997 0.9878 34
-18.9062 7.949199999999999 -1.1904000000000001 120
-8.7812 3.6933999999999996 1.2197 45
-19.7031 8.2891 -0.7445999999999999 215
-17.3438 7.292999999999999 2.8613 48
-19.6406 8.2578 -0.2482 164
-16.5312 6.953099999999999 3.1562 195
-8.1875 3.4805 -1.3506 96
-9.6562 4.1055 -1.3447 252
-17.7969 7.5625 1.1220999999999999 13
-11.7578 4.9961 -1.3388999999999998 245
-18.0625 7.675800000000001 1.5996000000000001 58
-13.8281 5.875 -1.2236 58
-8.7266 3.7089999999999996 0.9922 115
-18.8125 7.9922 -1.1865 157
-8.7656 3.7266000000000004 1.2197 71
-19.9531 8.4766 3.3007999999999997 79
-19.5156 8.2891 -0.24710000000000001 129
-17.9844 7.636699999999999 3.4375 148
-8.1719 3.5058999999999996 -1.3496000000000001 183
-9.6406 4.1367 -1.3437999999999999 149
-68.6875 29.4688 4.3477 59
-11.7344 5.0312 -1.3369 2
-68.4375 29.3594 6.078099999999999 26
-13.773399999999999 5.9102 -1.2207 170
-8.7188 3.7401999999999997 0.9926999999999999 82
-18.625 7.988300000000001 -1.1758 149
-8.6875 3.7266000000000004 1.21 141
-19.3594 8.3047 -0.7334 153
-19.9375 8.5547 3.3007999999999997 144
-17.9219 7.6914 3.4316000000000004 27
-8.1641 3.5370999999999997 -1.3506 112
-9.6172 4.168 -1.3428 187
-11.7031 5.0703 -1.3359 33
-13.718800000000002 5.9414 -1.2178 1
-8.7266 3.7812 0.9951000000000001 250
-18.5 8.0156 -1.1709 226
-8.7891 3.8066000000000004 1.2266 229
-19.1406 8.2891 -0.7265999999999999 193
-19.875 8.6094 3.2949 2
-19.4844 8.4375 3.7363 19
-8.1641 3.5702999999999996 -1.3525 205
-9.5859 4.1914 -1.3397999999999999 5
-66.125 28.9219 4.1953 18
-11.6797 5.1094 -1.3359 32
-13.7031 5.9922 -1.2178 29
-18.4062 8.0469 -1.166 93
-16.7969 7.3438 2.3516 116
-18.9844 8.3047 -0.7217 131
-19.8281 8.6719 3.293 100
-18.875 8.2578 -0.2401 136
-19.5 8.5234 3.7441000000000004 10
-8.1328 3.5898000000000003 -1.3496000000000001 115
-9.5703 4.2227 -1.3408000000000002 61
-65.4375 28.8906 4.1602 41
-11.656199999999998 5.140599999999999 -1.334 155
-13.6797 6.0352 -1.2178 193
-18.3281 8.0859 -1.1631 49
-16.7969 7.4102 2.3555 102
-18.7969 8.2969 -0.7158 191
-19.75 8.7109 3.2851999999999997 101
-18.7344 8.2656 -0.23850000000000002 41
-19.6562 8.6719 3.7812 204
-8.1172 3.6132999999999997 -1.3486000000000002 57
-56.4688 25.1406 2.1562 21
-9.5625 4.2578 -1.3408000000000002 232
-64.8125 28.8594 4.125 12
-11.625 5.175800000000001 -1.3330000000000002 66
-13.664100000000001 6.082000000000001 -1.2178 53
-18.2188 8.1094 -1.1572 231
-16.75 7.4609000000000005 2.3535 232
-18.5625 8.2656 -0.708 29
-19.7031 8.7734 3.2812 151
-18.7344 8.3438 -0.239 246
-17.0781 7.605499999999999 3.2910000000000004 210
-8.1094 3.6445 -1.3486000000000002 11
-56.5 25.4062 2.1602 246
-9.5391 4.2891 -1.3397999999999999 18
-64.1875 28.8438 4.0898 195
-11.593800000000002 5.2148 -1.3311000000000002 22
-65.125 29.2656 5.828099999999999 144
-13.6094 6.1211 -1.2148 230
-18.3281 8.2422 -1.167 117
-16.7969 7.550800000000001 2.3633 6
-18.7188 8.4219 -0.2391 125
-17.0469 7.667999999999999 3.2891000000000004 87
-18.8594 8.5547 0.2412 243
-8.1016 3.6757999999999997 -1.3496000000000001 56
-56.5 25.6406 2.166 229
-9.5 4.3125 -1.3369 164
-63.625 28.875 4.0625 10
-11.585899999999999 5.2578 -1.3319999999999999 158
-13.5547 6.1523 -1.2119 232
-16.8281 7.636699999999999 1.9375 136
-18.3125 8.3125 -1.167 164
-16.6719 7.5664 2.3496 206
-18.2656 8.2891 -0.6987000000000001 58
-18.7188 8.4922 -0.2395 130
-19.5312 8.8594 3.7733999999999996 35
-18.7656 8.5938 0.24050000000000002 78
-8.1016 3.7129000000000003 -1.3525 23
-9.4531 4.332 -1.3319999999999999 176
-63.6875 29.1719 4.0742 188
-11.5469 5.2890999999999995 -1.3300999999999998 111
-13.531199999999998 6.199199999999999 -1.2119 193
-16.75 7.675800000000001 1.9325999999999999 230
-18.2188 8.3438 -1.1631 3
-16.6094 7.613300000000001 2.3457 126
-17.625 8.0703 2.9492000000000003 174
-18.7031 8.5703 -0.2396 89
-19.5312 8.9453 3.7793 57
-18.75 8.6719 0.2407 238
-8.0938 3.7401999999999997 -1.3525 243
-9.4453 4.3672 -1.3330000000000002 109
-11.5078 5.3203 -1.3281 248
-13.5 6.2422 -1.2109 90
-16.7656 7.75 1.9365 72
-16.625 7.6875 2.3516 85
-17.5625 8.1172 2.9433999999999996 96
-18.7031 8.6406 -0.24 4
-19.5 9.0156 3.7812 199
-18.75 8.75 0.24109999999999998 174
-8.0938 3.7733999999999996 -1.3555000000000001 122
-9.4375 4.3984 -1.334 158
-62.9375 29.3594 4.0391 111
-10.531199999999998 4.9102 -1.2158 164
-13.460899999999999 6.2773 -1.209 226
-17.2969 8.0703 2.002 160
-16.5781 7.730499999999999 2.3477 42
-17.7188 8.2578 -0.6807 207
-17.4531 8.1328 2.9297000000000004 82
-18.7188 8.7266 -0.24059999999999998 176
-18.7656 8.8281 0.2416 243
-8.0859 3.8026999999999997 -1.3555000000000001 81
-62.5 29.4062 2.4102 228
-9.4219 4.4336 -1.334 81
-62.4062 29.3438 4.0078 186
-13.4453 6.324199999999999 -1.21 92
-17.2344 8.1016 1.9971 107
-17.5625 8.2656 -0.6762999999999999 152
-17.4844 8.2266 2.9414 178
-18.7344 8.8125 -0.2412 239
-17.9062 8.4219 3.4824 253
-18.7969 8.9219 0.24239999999999998 25
-8.0703 3.8301 -1.3555000000000001 82
-69.5625 33.0312 2.6875 171
-9.3984 4.4648 -1.3330000000000002 65
-10.5547 5.0117 -1.2236 73
-61.4062 29.1719 5.550800000000001 71
-13.476600000000001 6.3984000000000005 -1.2148 86
-17.25 8.1875 2.002 246
-18.9375 8.9922 -1.2168 153
-17.4531 8.2812 -0.6729 203
-17.5312 8.3203 2.9531 85
-17.5312 8.3203 3.4141000000000004 96
-18.7812 9.0 0.2427 214
-8.0703 3.8691000000000004 -1.3584 147
-9.3594 4.4844 -1.3300999999999998 4
-10.5703 5.0625 -1.2275 161
-10.6953 5.1211 -0.9648 12
-17.25 8.2656 2.0059 137
-18.8125 9.0156 -1.2109 21
-17.3125 8.2969 -0.6685 51
-18.4062 8.8203 3.1055 51
-18.7344 8.9766 -0.2419 59
-17.4688 8.3672 3.4082 46
-18.7812 9.0781 0.243 56
-8.0938 3.9141000000000004 -1.3643 98
-60.7188 29.3594 2.3535 74
-9.3672 4.5273 -1.3319999999999999 142
-10.593800000000002 5.1211 -0.9575 16
-17.3281 8.375 2.0195 139
-18.7656 9.0703 -1.21 81
-18.5 8.9375 3.125 118
-17.4688 8.4453 3.4120999999999997 201
-8.0781 3.9395 -1.3643 107
-9.3594 4.5625 -1.334 117
-10.3672 5.0547 -1.207 99
-10.5547 5.1484000000000005 -0.9556 155
-18.4531 9.0 3.123 12
-17.3906 8.4844 3.4043 188
-8.0625 3.9688 -1.3643 158
-9.3203 4.5859 -1.3311000000000002 137
-10.5156 5.175800000000001 -1.2275 80
-10.414100000000001 5.125 -0.6729 99
-17.4062 8.5625 3.4141000000000004 211
-8.0703 4.0039 -1.3672 133
-59.0625 29.3125 2.3008 135
-9.2969 4.6172 -1.3300999999999998 203
-10.585899999999999 5.2539 -1.2373 5
-10.648399999999999 5.2890999999999995 -0.9678 53
-58.625 29.0938 6.875 213
-10.375 5.1523 -0.6714 6
-10.539100000000001 5.230499999999999 -0.1367 215
-18.8125 9.3359 3.6952999999999996 220
-8.0781 4.043 -1.3711000000000002 24
-9.2734 4.6445 -1.3281 76
-10.468800000000002 5.2422 -1.2266 215
-10.601600000000001 5.3086 -0.9643999999999999 176
-58.0 29.0312 6.8125 246
-10.343800000000002 5.1797 -0.6704000000000001 28
-10.7344 5.375 -0.4175 53
-10.5 5.2578 -0.1364 143
-18.8594 9.4453 3.7108999999999996 161
-8.0781 4.082 -1.374 181
-9.2578 4.6758 -1.3291 130
-10.3672 5.238300000000001 -1.2158 47
-13.9844 7.0625 1.2754 70
-10.5 5.300800000000001 -0.9570000000000001 86
-57.5312 29.0625 6.769500000000001 9
-10.625 5.3672 -0.4138 168
-10.5 5.3047 -0.1367 119
-18.7812 9.4922 3.7051 40
-8.0703 4.1133 -1.375 37
-9.2344 4.7031 -1.3271000000000002 128
-57.4375 29.2656 3.748 50
-10.335899999999999 5.265599999999999 -1.2148 185
-57.25 29.1562 6.75 91
-10.4297 5.3125 -0.6781999999999999 235
-10.5547 5.375 -0.4119 10
-10.4922 5.3438 -0.1367 208
-18.7188 9.5312 3.6973000000000003 219
-18.7344 9.625 0.2455 203
-8.0703 4.1445 -1.3769999999999998 38
-57.2812 29.4219 2.2461 90
-9.2109 4.7305 -1.3271000000000002 112
-57.25 29.4062 3.7422000000000004 184
-10.335899999999999 5.3086 -1.2168 241
-57.3438 29.4375 6.769500000000001 69
-10.398399999999999 5.3398 -0.6777 210
-10.4844 5.3828 -0.4097 135
-10.5 5.394500000000001 -0.13720000000000002 224
-18.7188 9.6094 3.7031 119
-8.0625 4.1797 -1.3788999999999998 51
-57.2188 29.6562 2.248 43
-9.1797 4.7578 -1.3252000000000002 10
-45.2188 23.4375 2.9608999999999996 171
-10.3672 5.3711 -1.2227 124
-55.375 28.6875 6.550800000000001 77
-55.3438 28.6719 8.0156 29
-10.406199999999998 5.390599999999999 -0.4075 19
-17.0469 8.8359 -0.2236 3
-8.0703 4.2148 -1.3818000000000001 51
-57.1875 29.8906 2.252 65
-9.1719 4.793 -1.3262 128
-57.25 29.9219 3.7558999999999996 216
-10.335899999999999 5.4023 -1.2217 109
-13.9531 7.2890999999999995 1.2822 9
-13.9219 7.2773 1.6465 6
-10.3203 5.394500000000001 -0.6748000000000001 18
-55.0312 28.75 7.980499999999999 95
-10.343800000000002 5.4023 -0.40549999999999997 11
-55.4375 28.9688 9.5312 64
-17.0469 8.9062 -0.22399999999999998 76
-8.0859 4.2578 -1.3866999999999998 239
-9.1875 4.8438 -1.3311000000000002 89
-44.375 23.375 2.9141000000000004 73
-13.9453 7.3477 1.2841999999999998 95
-10.3672 5.4609000000000005 -0.6792 35
-54.8438 28.8906 7.9688 113
-10.3281 5.4414 -0.406 164
-55.2188 29.0938 9.5078 146
-17.0625 8.9844 -0.22460000000000002 26
-8.0938 4.3008 -1.3916 97
-9.1953 4.8828 -1.334 73
-13.9453 7.4062 0.9159999999999999 141
-10.414100000000001 5.5312 -1.2354 194
-13.9453 7.4062 1.2861000000000002 27
-13.156199999999998 6.984400000000001 -1.2129 148
-10.3594 5.5 -0.6797 217
-54.75 29.0781 7.9727 86
-10.3828 5.511699999999999 -0.40869999999999995 106
-55.0938 29.2656 9.5078 171
-12.968800000000002 6.886699999999999 -0.1709 249
-55.1875 29.2969 11.0078 80
-8.0703 4.3242 -1.3896000000000002 223
-9.1953 4.9258 -1.3359 134
-10.406199999999998 5.574199999999999 -1.2363 162
-13.9375 7.4648 1.2881 253
-13.9453 7.4688 1.6582 97
-10.3281 5.5352 -0.6792 63
-54.6562 29.2812 7.9688 207
-54.875 29.3906 9.4844 75
-12.914100000000001 6.917999999999999 -0.1704 92
-55.0 29.4688 11.0 150
-8.0859 4.3672 -1.3944999999999999 149
-53.9688 29.1562 2.1406 196
-9.1953 4.9688 -1.3397999999999999 56
-10.4297 5.636699999999999 -1.2422 88
-13.9375 7.5273 1.29 89
-12.9453 6.9961 -1.1982 99
-13.9375 7.5312 1.6602000000000001 56
-54.5312 29.4688 7.9688 128
-54.75 29.5781 9.4844 150
-12.8281 6.9297 -0.1696 205
-55.0 29.7188 11.0156 66
-8.0938 4.4141 -1.3994 19
-9.1953 5.0117 -1.3418 240
-10.781199999999998 5.875 -1.2861000000000002 232
-13.9453 7.6015999999999995 1.2938999999999998 226
-12.875 7.015599999999999 -1.1943000000000001 190
-13.9375 7.5938 1.6631 94
-54.4375 29.6719 7.9727 124
-54.8125 29.8594 9.5078 135
-12.8047 6.9765999999999995 -0.1696 112
-8.1094 4.4531 -1.4043 147
-13.976600000000001 7.6836 0.5552 13
-9.2031 5.0586 -1.3457 24
-13.9375 7.6602 0.9229 113
-10.7969 5.9297 -1.29 214
-13.9453 7.6640999999999995 1.2959 238
-12.843800000000002 7.0586 -1.1934 149
-13.9453 7.6602 1.6669999999999998 135
-54.4062 29.9062 7.980499999999999 1
-54.9688 30.2031 9.5547 31
-12.7422 7.0039 -0.1691 229
-8.1016 4.4883 -1.4053 103
-13.960899999999999 7.738300000000001 0.5557 101
-9.2109 5.1055 -1.3496000000000001 189
-13.9453 7.7265999999999995 0.9248000000000001 48
-10.4297 5.7773 -1.249 89
-13.9453 7.7265999999999995 1.2978999999999998 153
-12.8047 7.0938 -1.1924 12
-13.9531 7.730499999999999 1.6719 120
-12.75 7.0664 -0.8456999999999999 122
-13.8828 7.6953 2.0371 100
-12.75 7.0625 -0.5073 48
-12.835899999999999 7.113300000000001 -0.17079999999999998 6
-8.1094 4.5273 -1.4091999999999998 38
-52.4375 29.2969 2.0957 201
-9.2266 5.1562 -1.3544999999999998 199
-13.9453 7.792999999999999 0.9268000000000001 86
-10.3906 5.8086 -1.2470999999999999 217
-13.9375 7.7852 1.2997999999999998 179
-12.773399999999999 7.136699999999999 -1.1914 180
-13.9531 7.796900000000001 1.6758000000000002 74
-12.7422 7.1172 -0.8462000000000001 213
-54.625 30.5156 8.0391 64
-12.718800000000002 7.105499999999999 -0.5073 163
-12.7578 7.125 -0.1699 125
-8.1094 4.5664 -1.4121000000000001 52
-9.2344 5.199199999999999 -1.3574000000000002 34
-13.9531 7.855499999999999 0.9292 21
-10.4531 5.8828 -1.2559 217
-13.9453 7.8515999999999995 1.3037 93
-12.773399999999999 7.1914 -1.1934 198
-13.9453 7.8515999999999995 1.6777000000000002 9
-12.75 7.1797 -0.8486 101
-12.7344 7.171900000000001 -0.5088 202
-12.7422 7.171900000000001 -0.17 34
-8.1406 4.6172 -1.4199000000000002 210
-51.2812 29.0938 2.0566 43
-9.2266 5.234400000000001 -1.3594 255
-13.9531 7.917999999999999 0.9312 37
-10.851600000000001 6.1562 -1.3066 46
-13.9531 7.9140999999999995 1.3066 38
-12.7578 7.238300000000001 -1.1943000000000001 173
-13.9297 7.9062 1.6787 25
-12.718800000000002 7.2188 -0.8481000000000001 177
-12.7656 7.2422 -0.5107 78
-12.8125 7.265599999999999 -0.17129999999999998 171
-8.1484 4.6641 -1.4247999999999998 75
-9.2344 5.2852 -1.3633000000000002 204
-10.8828 6.2265999999999995 -1.3135 164
-13.9375 7.9765999999999995 1.3086000000000002 156
-12.773399999999999 7.3086 -1.1982 247
-13.9531 7.984400000000001 1.6846 67
-12.7031 7.269500000000001 -0.8491 119
-12.7344 7.2890999999999995 -0.5107 235
-12.6953 7.265599999999999 -0.1702 215
-8.1484 4.6992 -1.4277000000000002 34
-50.375 29.0469 2.0293 56
-9.25 5.3359000000000005 -1.3681999999999999 109
-10.875 6.2734000000000005 -1.3144999999999998 71
-12.773399999999999 7.3711 -1.2012 134
-12.7422 7.3515999999999995 -0.8534999999999999 172
-12.210899999999999 7.042999999999999 1.8075999999999999 226
-12.7344 7.3477 -0.5117 134
-12.6719 7.3086 -0.1702 225
-8.1641 4.7422 -1.4325999999999999 11
-50.1875 29.1719 2.0254 55
-9.25 5.3789 -1.3711000000000002 129
-10.843800000000002 6.300800000000001 -1.3135 155
-12.718800000000002 7.394500000000001 -1.1982 106
-12.789100000000001 7.4336 -0.8579000000000001 251
-12.1953 7.0898 1.8086000000000002 241
-12.75 7.4140999999999995 -0.5132 123
-12.710899999999999 7.390599999999999 -0.171 107
-8.1797 4.793 -1.4394999999999998 198
-12.226600000000001 7.1602 0.4929 157
-9.2422 5.4102 -1.3721 97
-12.210899999999999 7.1562 0.8208 237
-10.835899999999999 6.3438 -1.3154 39
-12.5781 7.3672 -1.1875 96
-12.2422 7.171900000000001 -0.8228 245
-12.1875 7.140599999999999 1.8115 41
-11.843800000000002 6.9375 2.0879 18
-12.2422 7.171900000000001 -0.165 177
-11.789100000000001 6.9062 2.4023 171
-12.2031 7.2109000000000005 0.1649 122
-8.1875 4.8359 -1.4434 81
-12.1875 7.203099999999999 0.4927 61
-9.2266 5.453099999999999 -1.3730000000000002 237
-12.2031 7.2109000000000005 0.8218000000000001 36
-10.8125 6.386699999999999 -1.3154 147
-12.1953 7.207000000000001 -1.1533 16
-40.5 23.9375 4.9414 238
-12.1797 7.1953 -0.8203 41
-12.226600000000001 7.2227 -0.4941 76
-11.8203 6.984400000000001 2.0879 20
-12.1875 7.199199999999999 -0.1646 6
-11.781199999999998 6.9648 2.4062 31
-12.210899999999999 7.2734000000000005 0.1653 84
-8.1875 4.875 -1.4463 22
-56.1875 33.4688 2.2812 93
-9.2188 5.488300000000001 -1.374 92
-48.6562 28.9844 3.293 82
-10.789100000000001 6.425800000000001 -1.3154 183
-12.1953 7.261699999999999 -1.1553 225
-40.3438 24.0312 4.9336 76
-12.1328 7.2265999999999995 -0.8188 8
-12.1875 7.261699999999999 -0.49369999999999997 67
-12.1797 7.2578 -0.1649 180
-8.1484 4.8906 -1.4424000000000001 42
-48.25 28.9688 1.9628999999999999 133
-9.2188 5.5352 -1.3779 232
-47.875 28.7344 3.2461 49
-10.7578 6.457000000000001 -1.3144999999999998 164
-12.1406 7.2852 -1.1523 159
-40.0312 24.0312 4.9023 222
-12.125 7.2773 -0.8198000000000001 94
-21.9375 13.1719 -0.8916 199
-42.0625 25.25 -0.5728 218
-8.125 4.918 -1.4413999999999998 172
-42.5312 25.75 1.7344 78
-9.2109 5.574199999999999 -1.3788999999999998 38
-42.625 25.7969 2.8964999999999996 10
-10.7422 6.5039 -1.3154 144
-11.8281 7.1562 1.126 201
-12.156199999999998 7.355499999999999 -1.1562000000000001 166
-39.6562 24.0 4.8672 132
-12.1328 7.3438 -0.8223 109
-21.8594 13.226600000000001 -0.8906000000000001 107
-11.8203 7.1523 2.4297 199
-8.1094 4.9414 -1.4413999999999998 252
-47.6562 29.0625 1.9482 18
-9.1953 5.605499999999999 -1.3799000000000001 36
-47.0312 28.6719 3.2012 104
-10.726600000000001 6.542999999999999 -1.3163999999999998 150
-11.8047 7.199199999999999 1.126 71
-12.468800000000002 7.6015999999999995 -1.1885 111
-39.375 24.0156 4.8438 128
-16.8438 10.273399999999999 -1.1455 176
-21.7969 13.289100000000001 -0.8896 44
-11.789100000000001 7.1875 2.0996 149
-11.8281 7.2109000000000005 2.4355 137
-8.1094 4.9805 -1.4443000000000001 110
-47.6875 29.2969 1.9521000000000002 205
-9.1953 5.644500000000001 -1.3818000000000001 241
-46.5312 28.5781 3.1738 130
-10.710899999999999 6.578099999999999 -1.3163999999999998 212
-11.9531 7.3398 1.1416 0
-12.4453 7.644500000000001 -1.1895 49
-39.4375 24.2188 4.8594 196
-16.7656 10.2969 -1.1426 210
-21.7344 13.351600000000001 -0.8887 81
-11.8125 7.2578 2.1074 98
-11.75 7.2188 2.4238 23
-8.0938 5.0117 -1.4453 163
-47.6875 29.5156 1.9561000000000002 223
-9.1953 5.6914 -1.3857 1
-46.0938 28.5312 3.1504000000000003 34
-10.6797 6.609400000000001 -1.3154 39
-12.406199999999998 7.6836 -1.1885 83
-41.5938 25.7344 5.136699999999999 106
-16.6719 10.3203 -1.1387 34
-21.6719 13.4219 -0.8887 221
-41.6875 25.8125 -0.5722999999999999 162
-11.6719 7.2265999999999995 2.4141 142
-8.0703 5.0312 -1.4434 76
-47.6875 29.75 1.9609 251
-9.1875 5.730499999999999 -1.3866999999999998 102
-46.0312 28.7031 3.1543 65
-10.656199999999998 6.644500000000001 -1.3154 31
-11.898399999999999 7.421900000000001 1.1416 64
-12.3906 7.7265999999999995 -1.1895 53
-41.4375 25.8438 5.1289 252
-16.6094 10.3594 -1.1367 126
-21.5625 13.4453 -0.8853 240
-11.625 7.25 2.4082 250
-4.6094 2.9004000000000003 -0.9526 138
-4.7031 2.9589999999999996 -0.8408 180
-41.2188 25.9219 1.6982 74
-9.1719 5.769500000000001 -1.3887 222
-42.5312 26.7656 2.9219 223
-39.5625 24.8906 3.8145 238
-12.351600000000001 7.769500000000001 -1.1885 118
-41.3438 26.0156 5.1289 218
-16.5469 10.406199999999998 -1.1348 207
-41.8125 26.3125 6.3515999999999995 133
-21.4375 13.476600000000001 -0.8823000000000001 97
-4.6094 2.9219 -0.9551000000000001 208
-4.6523 2.9473000000000003 -0.833 138
-45.5938 28.8906 1.8828 206
-9.1953 5.832000000000001 -1.3955000000000002 129
-39.2812 24.8906 2.7031 193
-39.5 25.0312 3.8145 152
-4.8438 3.0683999999999996 -0.4646 124
-40.5938 25.7188 5.0469 52
-16.4688 10.4453 -1.1318000000000001 62
-41.9062 26.5625 6.375 92
-21.3438 13.531199999999998 -0.8809 28
-4.5781 2.9238 -0.9506999999999999 120
-4.625 2.9531 -0.8306 218
-4.6992 3.0 -0.7114 156
-39.0625 24.9531 2.6952999999999996 222
-39.1875 25.0312 3.7949 124
-4.7461 3.0312 -0.45630000000000004 221
-40.6562 25.9688 5.0664 121
-16.4219 10.4844 -1.1309 71
-41.7812 26.6875 6.3711 122
-21.2656 13.5781 -0.8789 199
-4.5859 2.9492000000000003 -0.9541 224
-4.625 2.9766000000000004 -0.8320000000000001 207
-4.6211 2.9726999999999997 -0.7017 249
-38.9688 25.0625 2.6914 42
-4.707 3.0273000000000003 -0.5835 125
-39.0625 25.125 3.7910000000000004 158
-40.3438 25.9531 5.0391 12
-16.3281 10.5 -1.126 171
-21.1719 13.6172 -0.8774 97
-4.5781 2.9688 -0.9551000000000001 222
-4.5938 2.9766000000000004 -0.8281000000000001 156
-44.5938 28.9062 1.8535 103
-4.5742 2.9668 -0.6958 177
-39.0 25.2812 2.7012 89
-38.9062 25.2344 3.7832 89
-4.707 3.0526999999999997 -0.4546 245
-40.0938 26.0 5.0156 103
-16.3281 10.585899999999999 -1.1299 252
-40.2188 26.0938 6.1640999999999995 33
-21.0781 13.664100000000001 -0.8755 169
-4.5938 3.002 -0.96 169
-4.5625 2.9824 -0.8247 4
-44.2188 28.8906 1.8428 5
-4.5586 2.9766000000000004 -0.6948000000000001 185
-44.1875 28.875 3.0702999999999996 32
-39.0312 25.5156 3.8066000000000004 27
-40.0938 26.1875 5.0273 4
-40.625 26.5469 6.238300000000001 65
-21.0469 13.75 -0.8759999999999999 0
-4.5703 3.0098000000000003 -0.9575 121
-4.4961 2.9608999999999996 -0.8145 253
-43.8438 28.875 1.8319999999999999 18
-4.5078 2.9688 -0.6890000000000001 0
-43.9062 28.8906 3.0547000000000004 157
-4.5703 3.0077999999999996 -0.5703 146
-39.9688 26.3125 5.0234 101
-4.6641 3.0702999999999996 -0.3223 38
-40.5 26.6562 6.230499999999999 136
-20.9062 13.7656 -0.8726 180
-4.5117 2.9941000000000004 -0.9473 237
-4.4648 2.9629000000000003 -0.8109999999999999 238
-43.5312 28.875 1.8222999999999998 15
-4.4766 2.9688 -0.6855 110
-43.3438 28.7656 3.0233999999999996 40
-4.5117 2.9922000000000004 -0.5645 132
-39.8438 26.4375 3.9023000000000003 16
-4.5352 3.0077999999999996 -0.4409 158
-39.3125 26.0781 4.9531 98
-4.6289 3.0723000000000003 -0.3206 205
-40.375 26.7812 6.2265999999999995 109
-4.4648 2.9844 -0.9395 104
-4.4336 2.9629000000000003 -0.8066 132
-43.1875 28.8594 1.8115 35
-4.4531 2.9766000000000004 -0.6836 122
-43.125 28.8281 3.0156 156
-4.5039 3.0117000000000003 -0.5649000000000001 13
-40.1875 26.8594 3.9452999999999996 231
-4.4922 3.002 -0.4375 42
-39.25 26.25 4.957 248
-4.6875 3.1327999999999996 -0.32520000000000004 110
-40.125 26.8281 6.203099999999999 116
-4.6914 3.1367000000000003 -0.1953 63
-4.4258 2.9785000000000004 -0.9331 24
-4.3984 2.9608999999999996 -0.8018000000000001 184
-42.8125 28.8281 1.8008000000000002 236
-4.4062 2.9668 -0.6777 103
-42.7812 28.8125 2.998 169
-4.4414 2.9901999999999997 -0.5581 63
-41.2812 27.7969 4.0625 189
-4.4688 3.0117000000000003 -0.4365 18
-39.3125 26.4844 4.9766 56
-40.25 27.0938 6.234400000000001 71
-4.6406 3.127 -0.1936 133
-4.3984 2.9844 -0.9301999999999999 126
-4.375 2.9707 -0.7998000000000001 66
-4.3828 2.9745999999999997 -0.6758 6
-4.4102 2.9941000000000004 -0.5557 165
-42.8125 29.0625 4.2227 78
-4.4414 3.0137 -0.4346 61
-39.3125 26.6875 4.9922 230
-40.4062 27.4219 6.2773 255
-4.6758 3.1738 -0.1956 169
-44.3125 30.0781 8.1641 196
-47.7188 32.375 10.1562 89
-4.3711 2.9882999999999997 -0.9262999999999999 31
-4.3438 2.9688 -0.7959 120
-4.3438 2.9688 -0.6714 154
-39.9062 27.2812 2.8105 40
-4.3828 2.998 -0.5537 209
-40.4062 27.6094 3.9941000000000004 183
-4.3789 2.9941000000000004 -0.42969999999999997 32
-39.3125 26.875 5.0 119
-40.25 27.5156 6.265599999999999 42
-44.3438 30.3281 8.1875 242
-4.6406 3.1719 -0.06480000000000001 131
-47.3438 32.375 10.1016 80
-4.3242 2.9785000000000004 -0.9185 91
-4.3047 2.9629000000000003 -0.7905 92
-36.875 25.3906 1.5615 248
-4.3047 2.9648000000000003 -0.667 137
-42.8125 29.4844 3.0214999999999996 234
-4.3633 3.0058999999999996 -0.5522 113
-40.0312 27.5625 3.9668 187
-4.3594 3.002 -0.42869999999999997 53
-39.4062 27.1406 5.0234 1
-39.6875 27.3281 6.1914 246
-4.6172 3.1797000000000004 -0.0647 114
-46.9688 32.3438 10.0547 111
-4.2852 2.9726999999999997 -0.9120999999999999 243
-4.2773 2.9668 -0.7870999999999999 44
-4.2695 2.9608999999999996 -0.6626000000000001 126
-42.8125 29.6875 3.0273000000000003 141
-4.3203 2.9961 -0.5483 168
-39.875 27.6562 3.9608999999999996 230
-4.332 3.0039 -0.4268 226
-39.3438 27.2812 5.0273 87
-39.625 27.4844 6.199199999999999 181
-4.6328 3.2108999999999996 -0.065 202
-46.625 32.3125 9.9922 241
-4.2617 2.9785000000000004 -0.9097 83
-4.2461 2.9668 -0.7831999999999999 110
-4.2461 2.9688 -0.6611 222
-42.7812 29.9062 3.0351999999999997 203
-4.2773 2.9882999999999997 -0.5439 205
-39.25 27.4219 3.9082 46
-4.3086 3.0117000000000003 -0.42579999999999996 17
-39.6562 27.7188 5.082 75
-39.5 27.5938 6.1914 62
-4.6055 3.2188 -0.06480000000000001 2
-46.5625 32.5312 10.0078 227
-4.2266 2.9745999999999997 -0.9037999999999999 151
-4.207 2.9629000000000003 -0.7783 69
-42.7812 30.125 1.8252000000000002 55
-40.875 28.7656 2.9043 40
-4.2773 3.0117000000000003 -0.5454 133
-39.125 27.5469 3.9062 199
-4.2734 3.0098000000000003 -0.4233 175
-39.5 27.7969 5.0703 243
-41.1562 28.9844 6.4727 163
-4.5352 3.1933999999999996 -0.064 245
-46.5625 32.7812 10.0312 159
-4.1992 2.9785000000000004 -0.9004000000000001 57
-4.6406 3.2910000000000004 0.06559999999999999 234
-4.1992 2.9785000000000004 -0.7783 27
-42.75 30.3281 1.8291 157
-4.2148 2.9901999999999997 -0.6597 213
-42.8125 30.375 3.0526999999999997 55
-4.2617 3.0233999999999996 -0.5449 162
-39.4062 27.9531 3.9433999999999996 128
-4.2266 2.998 -0.41969999999999996 202
-39.1875 27.7969 5.043 80
-42.2812 30.0 6.6640999999999995 46
-4.5234 3.2089999999999996 -0.064 40
-46.5312 33.0 10.0547 177
-4.168 2.9805 -0.8965000000000001 183
-4.6719 3.3379000000000003 0.0662 90
-4.1719 2.9805 -0.7754000000000001 175
-42.7188 30.5312 1.8319999999999999 165
-4.1992 3.0 -0.6581999999999999 85
-42.7812 30.5781 3.0566000000000004 77
-4.2148 3.0117000000000003 -0.5396 171
-38.875 27.7812 3.9004000000000003 210
-4.2109 3.0077999999999996 -0.4189 144
-42.2812 30.2188 6.6797 40
-46.5312 33.25 10.0781 100
-4.1367 2.9785000000000004 -0.8916 72
-4.1406 2.9805 -0.7715000000000001 141
-42.75 30.7812 1.8378999999999999 234
-4.1914 3.0176 -0.6592 92
-42.75 30.7812 3.0625 251
-4.1758 3.0077999999999996 -0.5366 82
