# .PCD v0.7 - Point Cloud Data file format
VERSION 0.7
FIELDS x y z intensity
SIZE 4 4 4 4
TYPE F F F F
COUNT 1 1 1 1
WIDTH 1270
HEIGHT 1
VIEWPOINT 0 0 0 1 0 0 0
POINTS 1270
DATA ascii
-12.968800000000002 -17.7188 -1.2744 196
-7.1328 -9.7422 1.5478999999999998 163
-13.0156 -17.7812 -0.7676000000000001 142
-7.855499999999999 -10.726600000000001 2.0215 134
-13.289100000000001 -18.1562 -0.2622 9
-7.4297 -10.1484 2.2109 244
-0.5962 -0.8081 -0.1697 120
-13.3594 -18.1094 0.2622 242
-8.6094 -11.664100000000001 0.5044 31
-6.6602 -9.0234 -1.4375 143
-6.9336 -9.3984 0.6768000000000001 187
-6.5352 -8.8594 -1.1523 126
-7.300800000000001 -9.8984 1.001 170
-7.2109000000000005 -9.7734 1.2715 169
-12.968800000000002 -17.5781 -1.2686 169
-7.1875 -9.7422 1.5518 240
-13.023399999999999 -17.6562 -0.7642 21
-7.1875 -9.7422 1.8388999999999998 76
-13.2969 -18.0156 -0.261 244
-7.5586 -10.25 2.2383 20
-13.351600000000001 -17.9688 0.261 5
-8.6172 -11.593800000000002 0.5029 88
-6.515599999999999 -8.7656 -1.3994 185
-6.9414 -9.3359 0.6743000000000001 61
-6.5 -8.7422 -1.1406 242
-8.6484 -11.6406 1.1806999999999999 7
-6.6211 -8.9141 -0.9033 143
-7.2109000000000005 -9.7031 1.2656 205
-12.968800000000002 -17.4531 -1.2617 19
-7.2227 -9.7188 1.5527000000000002 93
-13.0156 -17.5156 -0.7603 193
-7.3711 -9.9141 1.8779 52
-13.289100000000001 -17.875 -0.2595 223
-7.730499999999999 -10.398399999999999 2.2773 10
-13.3203 -17.7812 0.259 2
-7.0547 -9.4219 0.4092 2
-6.5078 -8.6875 -1.3906 197
-6.984400000000001 -9.3203 0.6753 250
-6.4961 -8.6719 -1.1338 20
-7.0390999999999995 -9.3984 0.9556 35
-6.6289 -8.8516 -0.8998999999999999 53
-9.25 -12.351600000000001 1.6181999999999999 50
-12.9844 -17.3438 -1.2578 54
-7.3984000000000005 -9.875 1.5819999999999999 157
-13.0156 -17.375 -0.7563 82
-7.324199999999999 -9.7812 1.8563999999999998 162
-13.281199999999998 -17.7344 -0.2583 43
-7.8477 -10.4844 2.3008 85
-13.335899999999999 -17.6719 0.2581 180
-7.074199999999999 -9.375 0.40840000000000004 235
-6.5 -8.6172 -1.3828 185
-6.988300000000001 -9.2656 0.6724 157
-6.5039 -8.6172 -1.1299 209
-7.25 -9.6094 0.98 196
-6.582000000000001 -8.7266 -0.8892 35
-8.4844 -11.25 1.4766 72
-12.968800000000002 -17.1875 -1.25 80
-6.667999999999999 -8.8359 1.4188999999999998 77
-13.023399999999999 -17.2656 -0.7529 181
-7.3515999999999995 -9.75 1.8555000000000001 167
-13.289100000000001 -17.625 -0.2571 110
-7.8828 -10.4531 2.3008 205
-13.1875 -17.3594 0.25420000000000004 246
-9.3203 -12.2656 0.5361 189
-6.5039 -8.5625 -1.3779 3
-6.9922 -9.2109 0.6698999999999999 61
-6.5039 -8.5625 -1.126 125
-7.203099999999999 -9.4844 0.9692000000000001 253
-6.5664 -8.6406 -0.8828 18
-7.394500000000001 -9.7344 1.2803 19
-12.9922 -17.1094 -1.2470999999999999 81
-6.6953 -8.8125 1.4188999999999998 7
-13.0078 -17.125 -0.7490000000000001 91
-7.4140999999999995 -9.7656 1.8633000000000002 98
-12.9922 -17.0938 -0.2502 28
-7.921900000000001 -10.4297 2.3027 70
-13.023399999999999 -17.0312 0.24989999999999998 106
-9.4297 -12.3281 0.54 134
-6.511699999999999 -8.5156 -1.3730000000000002 131
-7.046900000000001 -9.2109 0.6724 106
-6.4922 -8.4922 -1.1191 26
-7.230499999999999 -9.4531 0.9688 241
-6.5664 -8.5859 -0.8794 148
-7.449199999999999 -9.7422 1.2841999999999998 182
-6.671900000000001 -8.7188 -0.6362 104
-6.7265999999999995 -8.7969 1.4188999999999998 238
-13.0156 -17.0156 -0.7465999999999999 167
-7.515599999999999 -9.8281 1.8799000000000001 28
-12.9922 -16.9844 -0.2493 139
-6.792999999999999 -8.8828 1.9638999999999998 152
-13.039100000000001 -16.9219 0.2489 16
-7.5312 -9.7734 0.429 80
-6.5352 -8.4844 -1.3721 3
-7.175800000000001 -9.3125 0.6816 255
-6.4922 -8.4219 -1.1133 78
-7.125 -9.2422 0.9497 40
-6.5625 -8.5156 -0.8745 156
-8.5547 -11.101600000000001 1.4687999999999999 234
-6.6602 -8.6406 -0.6318 97
-6.7852 -8.8047 1.4247999999999998 147
-13.0078 -16.875 -0.7422 9
-7.4609000000000005 -9.6797 1.8574000000000002 131
-13.0 -16.875 -0.2482 11
-6.824199999999999 -8.8516 1.9638999999999998 92
-12.9844 -16.7344 0.24670000000000003 92
-12.960899999999999 -16.6875 0.7363 72
-6.4922 -8.3594 -1.3563999999999998 23
-7.203099999999999 -9.2812 0.6812 41
-6.5039 -8.3828 -1.1104 231
-7.113300000000001 -9.1641 0.9438 30
-6.5625 -8.4531 -0.8706 244
-7.5703 -9.7578 1.2930000000000001 245
-6.6640999999999995 -8.5859 -0.6294 22
-6.832000000000001 -8.8047 1.4277000000000002 74
-12.9531 -16.6875 -0.7358 228
-7.449199999999999 -9.5938 1.8457 230
-12.9453 -16.6719 -0.24600000000000002 84
-6.7578 -8.7031 1.9355000000000002 130
-12.976600000000001 -16.5938 0.24539999999999998 119
-12.968800000000002 -16.5781 0.7334 132
-6.5390999999999995 -8.3672 -1.3603999999999998 101
-7.2422 -9.2578 0.6812 105
-6.511699999999999 -8.3281 -1.1064 63
-7.1640999999999995 -9.1641 0.9468000000000001 227
-6.5547 -8.3828 -0.8656999999999999 158
-8.6875 -11.1172 1.4785 239
-6.7265999999999995 -8.6094 -0.6328 203
-6.8711 -8.7891 1.4297 77
-12.960899999999999 -16.5781 -0.7329000000000001 107
-7.5352 -9.6406 1.8594 50
-12.9375 -16.5469 -0.24480000000000002 233
-6.800800000000001 -8.7031 1.9394999999999998 119
-12.9844 -16.4844 0.2445 22
-12.960899999999999 -16.4531 0.7295 236
-7.2578 -9.2188 0.6797 46
-6.515599999999999 -8.2734 -1.1025 90
-7.199199999999999 -9.1406 0.9468000000000001 158
-6.550800000000001 -8.3203 -0.8613 42
-7.363300000000001 -9.3516 1.2470999999999999 15
-6.8672 -8.7188 1.4228999999999998 60
-12.9531 -16.4531 -0.7295 137
-7.671900000000001 -9.7422 1.8838 201
-12.9297 -16.4219 -0.24350000000000002 26
-6.828099999999999 -8.6719 1.9394999999999998 13
-0.5801 -0.7314 -0.1572 255
-12.976600000000001 -16.3594 0.2433 144
-12.976600000000001 -16.3438 0.7271 60
-7.3164 -9.2188 0.6820999999999999 238
-6.5039 -8.1953 -1.0947 214
-8.8359 -11.1328 1.1572 161
-6.5547 -8.2656 -0.8579000000000001 53
-7.0977 -8.9453 1.1953 149
-6.8672 -8.6562 1.416 42
-12.9531 -16.3281 -0.7261 28
-6.988300000000001 -8.8047 1.7080000000000002 4
-12.9297 -16.2969 -0.24239999999999998 113
-6.8828 -8.6719 1.9443000000000001 178
-0.5903 -0.7387999999999999 -0.1593 100
-12.968800000000002 -16.2344 0.2421 139
-12.9531 -16.2031 0.7227 206
-7.3672 -9.2188 0.6840999999999999 152
-6.5 -8.1328 -1.0898 206
-8.875 -11.101600000000001 1.1572 238
-6.5586 -8.2031 -0.8545 255
-8.7656 -10.968800000000002 1.4716999999999998 18
-6.890599999999999 -8.6172 1.4141 99
-12.9531 -16.2031 -0.7227 255
-9.6797 -12.1172 2.3574 108
-12.9453 -16.1875 -0.2416 143
-6.9023 -8.6406 1.9424000000000001 207
-0.5703 -0.7090000000000001 -0.1531 167
-12.9219 -16.0625 0.2401 233
-12.9531 -16.1094 0.7197 233
-12.8906 -16.0312 1.1943000000000001 245
-6.4961 -8.0781 -1.085 120
-7.3203 -9.1016 0.9506999999999999 119
-6.5547 -8.1484 -0.8511 85
-7.0703 -8.7891 1.1816 186
-6.9414 -8.625 1.4188999999999998 1
-12.914100000000001 -16.0469 -0.7178 63
-6.9336 -8.6172 1.6806999999999999 182
-12.8906 -16.0312 -0.2396 66
-6.8398 -8.5078 1.9169999999999998 98
-0.6172 -0.7622 -0.1655 90
-12.9219 -15.960899999999999 0.23929999999999998 177
-12.898399999999999 -15.9297 0.7139 227
-12.9219 -15.960899999999999 1.1924 243
-6.5039 -8.0312 -1.0811 20
-7.3164 -9.0312 0.9458 232
-6.5390999999999995 -8.0781 -0.8452 88
-7.1211 -8.7891 1.1845999999999999 83
-6.988300000000001 -8.6328 1.4228999999999998 107
-12.8906 -15.914100000000001 -0.7134 67
-6.8984000000000005 -8.5156 1.665 204
-12.875 -15.898399999999999 -0.2384 158
-6.894500000000001 -8.5156 1.9247999999999998 192
-0.6079 -0.7445999999999999 -0.16210000000000002 244
-12.9219 -15.835899999999999 0.2382 213
-12.898399999999999 -15.7969 0.7104 217
-12.9219 -15.835899999999999 1.1865 18
-6.5039 -7.9688 -1.0762 78
-7.359400000000001 -9.0156 0.9473 84
-6.542999999999999 -8.0156 -0.8412999999999999 6
-8.8203 -10.8047 1.4609 219
-23.4688 -28.75 4.7695 204
-12.906199999999998 -15.8125 -0.7109000000000001 202
-6.917999999999999 -8.4766 1.6621000000000001 72
-12.875 -15.773399999999999 -0.2372 238
-6.9102 -8.4688 1.9199000000000002 95
-0.5928 -0.7212000000000001 -0.1572 253
-12.914100000000001 -15.710899999999999 0.2369 122
-12.906199999999998 -15.7031 0.708 118
-2.998 -3.6464999999999996 -0.6015999999999999 228
-12.906199999999998 -15.7031 1.1806999999999999 114
-6.4961 -7.9023 -1.0703 232
-7.4297 -9.0391 0.9521 210
-6.546900000000001 -7.9609000000000005 -0.8384 191
-8.8828 -10.8047 1.4658000000000002 110
-7.0859000000000005 -8.6172 1.4297 20
-12.8906 -15.6797 -0.7070000000000001 155
-6.9023 -8.3984 1.6513999999999998 154
-12.875 -15.656199999999998 -0.23620000000000002 254
-6.9140999999999995 -8.4141 1.9131 52
-0.6103999999999999 -0.7373000000000001 -0.16140000000000002 236
-12.898399999999999 -15.585899999999999 0.2357 167
-12.898399999999999 -15.585899999999999 0.7045999999999999 137
-2.9805 -3.5995999999999997 -0.5957 116
-12.9297 -15.625 1.1777 118
-6.4961 -7.8515999999999995 -1.0664 47
-7.4375 -8.9844 0.9492 246
-6.5547 -7.921900000000001 -0.8364 165
-23.7344 -28.6875 3.9101999999999997 243
-7.0039 -8.4609 1.4072 108
-12.8828 -15.5703 -0.7036 183
-6.925800000000001 -8.3672 1.6503999999999999 248
-12.875 -15.5547 -0.2352 76
-6.9922 -8.4453 1.9258000000000002 112
-0.6279 -0.7534000000000001 -0.1655 137
-12.9375 -15.531199999999998 0.23550000000000001 210
-12.960899999999999 -15.5547 0.7051000000000001 197
-3.002 -3.6035000000000004 -0.5977 85
-9.0625 -10.875 0.8208 173
-6.4922 -7.7890999999999995 -1.0615 64
-7.4648 -8.9609 0.9487000000000001 179
-6.546900000000001 -7.855499999999999 -0.8315 174
-9.6328 -11.5625 1.5771000000000002 109
-7.0312 -8.4375 1.4072 141
-12.914100000000001 -15.5 -0.7031000000000001 26
-6.9727 -8.3672 1.6543 6
-12.9297 -15.523399999999999 -0.2354 145
-9.4922 -11.3906 2.6074 139
-0.6001 -0.7148 -0.1572 56
-13.0547 -15.5547 0.2366 205
-13.0469 -15.5469 0.7070000000000001 23
-3.0176 -3.5957 -0.5981000000000001 116
-9.9688 -11.875 0.8989 76
-6.5 -7.7422 -1.0576 13
-9.8672 -11.75 1.25 121
-6.542999999999999 -7.796900000000001 -0.8276 13
-9.7422 -11.6094 1.5878999999999999 221
-8.7812 -10.460899999999999 1.751 3
-6.8711 -8.1875 1.6230000000000002 74
-9.4531 -11.2656 2.5858999999999996 49
-0.6182 -0.731 -0.16140000000000002 212
-13.1719 -15.585899999999999 0.2377 98
-13.1406 -15.539100000000001 0.7090000000000001 27
-3.0683999999999996 -3.6289 -0.606 5
-9.8203 -11.6172 0.8823000000000001 70
-6.4961 -7.6836 -1.0527 9
-8.0547 -9.5234 1.0146 175
-6.5547 -7.7539 -0.8256999999999999 141
-9.2188 -10.906199999999998 1.4961000000000002 140
-6.8984000000000005 -8.1641 -0.3713 18
-6.8711 -8.125 1.6162 186
-13.101600000000001 -15.5 -0.2365 214
-18.5781 -21.9688 5.0664 95
-0.5796 -0.6807 -0.1503 45
-13.218800000000002 -15.5156 0.23739999999999997 199
-13.2422 -15.5469 0.7114 125
-3.1562 -3.7051 -0.6206 213
-10.0469 -11.7969 0.8989 71
-6.4922 -7.625 -1.0479 137
-8.0859 -9.5 1.0156 111
-6.5625 -7.703099999999999 -0.8228 40
-7.7773 -9.1328 1.2559 226
-7.324199999999999 -8.6016 1.4482 106
-6.886699999999999 -8.0859 -0.3691 193
-6.925800000000001 -8.1328 1.6221 28
-13.1953 -15.4922 -0.2371 52
-18.5781 -21.8125 5.0469 229
-0.6001 -0.6997 -0.1552 13
-13.3125 -15.523399999999999 0.23829999999999998 17
-13.335899999999999 -15.5547 0.7139 171
-3.2285000000000004 -3.7637 -0.6323 198
-9.3438 -10.898399999999999 0.8325 32
-6.4961 -7.5703 -1.0439 114
-8.1172 -9.4609 1.0146 119
-6.5938 -7.6875 -0.8237000000000001 118
-7.8359000000000005 -9.1328 1.2598 57
-7.2734000000000005 -8.4766 1.4316 7
-6.8477 -7.984400000000001 -0.3655 106
-6.9648 -8.1172 1.625 69
-13.289100000000001 -15.5 -0.2379 118
-7.4648 -8.7031 2.0137 7
-0.6103999999999999 -0.7065 -0.1572 163
-13.414100000000001 -15.539100000000001 0.7153 248
-3.2637 -3.7812 -0.6372 112
-9.4844 -10.9844 0.8418000000000001 86
-6.5 -7.5273 -1.041 187
-8.1641 -9.4531 1.0166 96
-6.6015999999999995 -7.644500000000001 -0.8212999999999999 149
-7.8125 -9.0469 1.252 112
-7.3125 -8.4688 1.4336000000000002 216
-6.8164 -7.890599999999999 -0.36229999999999996 143
-7.175800000000001 -8.3047 1.6669999999999998 5
-13.375 -15.4844 -0.2384 190
-7.4453 -8.6172 2.002 146
-0.6640999999999999 -0.7642 -0.1711 7
-13.4922 -15.523399999999999 0.7168000000000001 119
-3.2773000000000003 -3.7695 -0.6372 181
-9.6406 -11.085899999999999 0.8521 51
-6.5039 -7.484400000000001 -1.0371 222
-8.1953 -9.4297 1.0166 51
-6.5703 -7.5586 -0.8145 85
-9.5234 -10.9531 1.5215 78
-8.5 -9.7812 1.6611000000000002 103
-6.8203 -7.8477 -0.3613 149
-7.2734000000000005 -8.3672 1.6836000000000002 36
-12.976600000000001 -14.9219 -0.2303 124
-7.355499999999999 -8.4609 1.9687999999999999 126
-0.6620999999999999 -0.7554000000000001 -0.1697 62
-13.601600000000001 -15.531199999999998 0.24050000000000002 96
-8.8438 -10.0938 0.467 152
-3.2832 -3.748 -0.6353 71
-13.664100000000001 -15.593800000000002 1.2041 181
-6.5039 -7.421900000000001 -1.0322 227
-8.2031 -9.3672 1.0137 166
-8.25 -9.4219 1.3115 241
-7.425800000000001 -8.4766 1.4443000000000001 13
-6.8203 -7.7852 -0.35960000000000003 119
-7.199199999999999 -8.2188 1.6591999999999998 233
-12.9453 -14.781199999999998 -0.2289 170
-7.2148 -8.2344 1.9228999999999998 217
-0.6698999999999999 -0.7593000000000001 -0.1711 101
-13.6953 -15.523399999999999 0.2412 4
-8.8281 -10.0078 0.4644 109
-3.3262 -3.7695 -0.6411 82
-9.3672 -10.6172 0.8208 216
-6.5 -7.3672 -1.0283 136
-8.2188 -9.3125 1.0107 251
-8.1484 -9.2344 1.29 149
-7.375 -8.3594 1.4287 202
-6.8086 -7.7188 -0.3577 220
-7.1797 -8.1406 1.6484 44
-12.9531 -14.6797 -0.228 123
-7.265599999999999 -8.2344 1.9287 91
-13.781199999999998 -15.5078 0.24170000000000003 222
-8.7188 -9.8125 0.45649999999999996 11
-3.3457 -3.7676 -0.6426000000000001 194
-13.8672 -15.6094 1.2119 186
-6.5039 -7.3203 -1.0244 146
-8.2656 -9.3047 1.0127 139
-8.2812 -9.3203 1.3066 156
-7.4140999999999995 -8.3438 1.4306999999999999 170
-6.824199999999999 -7.6797 -0.3569 4
-7.167999999999999 -8.0703 1.6387 197
-13.789100000000001 -15.523399999999999 -0.2419 65
-7.203099999999999 -8.1094 1.9053 5
-13.8906 -15.531199999999998 0.7256 187
-3.3789 -3.7754000000000003 -0.6459999999999999 100
-13.9375 -15.5781 1.2139 212
-6.5078 -7.2734000000000005 -1.0215 155
-8.3281 -9.3047 1.0166 223
-7.6289 -8.5234 1.1973 176
-7.359400000000001 -8.2266 1.4141 4
-6.8047 -7.605499999999999 -0.35450000000000004 157
-7.1211 -7.9609000000000005 1.6221 151
-7.1914 -8.0391 1.8944999999999999 147
-13.9844 -15.523399999999999 0.2434 70
-13.976600000000001 -15.5156 0.7275 103
-3.377 -3.75 -0.6436 138
-14.039100000000001 -15.585899999999999 1.2178 235
-6.5078 -7.2265999999999995 -1.0176 95
-8.3906 -9.3125 1.0205 54
-7.636699999999999 -8.4766 1.1943000000000001 151
-7.269500000000001 -8.0703 1.3916 93
-6.832000000000001 -7.5859000000000005 -0.3547 67
-7.1953 -7.988300000000001 1.6328 119
-13.968800000000002 -15.5078 -0.2432 134
-7.230499999999999 -8.0312 1.8975 63
-14.0781 -15.531199999999998 0.2443 67
-8.8203 -9.7266 0.45649999999999996 138
-3.4082 -3.7598000000000003 -0.6475 99
-14.1172 -15.5703 1.2197 38
-6.5039 -7.175800000000001 -1.0137 104
-14.148399999999999 -15.601600000000001 1.7168 133
-7.636699999999999 -8.4219 1.1904000000000001 22
-7.292999999999999 -8.0469 1.3916 160
-6.8515999999999995 -7.5547 -0.35450000000000004 11
-7.265599999999999 -8.0156 1.6425999999999998 217
-14.0469 -15.4922 -0.2437 235
-7.2734000000000005 -8.0234 1.9022999999999999 232
-14.164100000000001 -15.5 0.2446 160
-8.8594 -9.6953 0.4568 109
-3.4512 -3.7793 -0.6528 127
-14.210899999999999 -15.5547 1.2236 137
-6.5 -7.1172 -1.0088 100
-14.218800000000002 -15.5703 1.7187999999999999 144
-7.8438 -8.5859 1.2178 3
-8.1719 -8.9453 1.5527000000000002 240
-6.859400000000001 -7.511699999999999 -0.35350000000000004 198
-7.2812 -7.9688 1.6396000000000002 87
-14.156199999999998 -15.4922 -0.2445 173
-7.328099999999999 -8.0234 1.9082 229
-14.2656 -15.5156 0.24559999999999998 120
-8.9453 -9.7188 0.4595 179
-3.4707 -3.7714999999999996 -0.6537999999999999 76
-10.664100000000001 -11.593800000000002 0.9140999999999999 175
-6.5039 -7.0703 -1.0049 97
-14.2969 -15.539100000000001 1.7216999999999998 113
-6.390599999999999 -6.949199999999999 -0.7676000000000001 230
-8.1328 -8.8359 1.2578 38
-7.9297 -8.6172 1.501 46
-6.8828 -7.484400000000001 -0.3533 103
-10.5703 -11.4922 2.375 197
-14.2656 -15.5078 -0.2455 185
-7.4609000000000005 -8.1094 1.9355000000000002 9
-14.3906 -15.531199999999998 0.24670000000000003 159
-3.4922000000000004 -3.7676 -0.6553 155
-14.4297 -15.5703 1.2324 180
-6.5078 -7.0234000000000005 -1.002 12
-14.414100000000001 -15.5547 1.7285 127
-6.3984000000000005 -6.9023 -0.7651 202
-7.6953 -8.3047 1.1855 117
-7.5234000000000005 -8.1172 1.4180000000000001 53
-6.9062 -7.453099999999999 -0.353 195
-7.3477 -7.9297 1.6425999999999998 113
-14.3672 -15.5078 -0.2463 191
-7.7461 -8.3594 2.002 6
-14.5156 -15.5547 0.24789999999999998 40
-3.5332 -3.7851999999999997 -0.6606000000000001 132
-14.523399999999999 -15.5625 1.2354 193
-6.519500000000001 -6.984400000000001 -0.9995 177
-8.7266 -9.3516 1.041 119
-6.4023 -6.863300000000001 -0.7631999999999999 71
-7.7109000000000005 -8.2656 1.1836 96
-7.5625 -8.1016 1.4199000000000002 134
-6.921900000000001 -7.417999999999999 -0.3525 52
-10.718800000000002 -11.4922 2.3906 43
-14.4453 -15.4844 -0.2468 138
-7.800800000000001 -8.3594 2.0078 69
-14.585899999999999 -15.531199999999998 0.2483 210
-3.5312 -3.7598000000000003 -0.6577 25
-14.601600000000001 -15.5469 1.2383 214
-6.515599999999999 -6.9336 -0.9951000000000001 253
-8.7812 -9.3438 1.0439 46
-6.4297 -6.8438 -0.7631999999999999 218
-7.6836 -8.1797 1.1748 93
-7.574199999999999 -8.0625 1.4180000000000001 31
-6.949199999999999 -7.3984000000000005 -0.3528 100
-10.6953 -11.3828 2.375 185
-14.531199999999998 -15.468800000000002 -0.2473 211
-7.7461 -8.25 1.9883000000000002 67
-14.6719 -15.5078 0.2488 88
-3.5625 -3.7676 -0.6616 142
-14.710899999999999 -15.5547 1.2431999999999999 4
-6.5078 -6.8789 -0.9906999999999999 92
-8.8281 -9.3359 1.0459 137
-6.4648 -6.8359000000000005 -0.7651 30
-7.6523 -8.0938 1.166 3
-7.5664 -8.0 1.4111000000000002 101
-6.9765999999999995 -7.375 -0.3528 220
-7.734400000000001 -8.1797 1.71 20
-14.6328 -15.468800000000002 -0.2482 230
-7.8984000000000005 -8.3516 2.0195 140
-14.75 -15.4844 0.2493 211
-3.5938 -3.7714999999999996 -0.6646 22
-14.8047 -15.539100000000001 1.2461 4
-6.515599999999999 -6.8398 -0.9878 251
-7.9336 -8.3281 0.9359999999999999 32
-6.511699999999999 -6.8359000000000005 -0.7676000000000001 194
-7.6797 -8.0625 1.165 38
-6.625 -6.953099999999999 -0.5562 172
-7.6172 -7.9961 1.415 33
-7.0 -7.3477 -0.3525 18
-7.7578 -8.1406 1.709 220
-12.835899999999999 -13.476600000000001 -0.2168 116
-7.9023 -8.2969 2.0137 155
-14.851600000000001 -15.4844 0.25 202
-3.6035000000000004 -3.7558999999999996 -0.6640999999999999 36
-10.851600000000001 -11.3125 0.9097 47
-6.519500000000001 -6.796900000000001 -0.9854 211
-7.7227 -8.0469 0.9072 147
-7.6914 -8.0156 1.1631 179
-6.6562 -6.9414 -0.5571 12
-7.640599999999999 -7.9648 1.4141 252
-7.0234000000000005 -7.324199999999999 -0.3525 234
-7.761699999999999 -8.0938 1.7031 110
-12.8594 -13.398399999999999 -0.2163 254
-7.855499999999999 -8.1875 1.9941 42
-14.9922 -15.523399999999999 0.2515 196
-9.5625 -9.9062 0.479 21
-3.6327999999999996 -3.7617000000000003 -0.667 122
-9.4219 -9.7578 0.7861 137
-6.5273 -6.761699999999999 -0.9834 221
-7.7539 -8.0312 0.9081999999999999 17
-7.6914 -7.9648 1.1592 226
-6.6523 -6.886699999999999 -0.5542 97
-7.7109000000000005 -7.984400000000001 1.4228999999999998 48
-7.050800000000001 -7.300800000000001 -0.3528 76
-7.761699999999999 -8.0391 1.6972999999999998 206
-12.8281 -13.289100000000001 -0.2151 227
-7.7109000000000005 -7.984400000000001 1.9502000000000002 144
-9.5156 -9.7891 0.1588 32
-9.5938 -9.8672 0.4788 246
-3.6426 -3.7461 -0.6665000000000001 254
-7.832000000000001 -8.0547 0.6509 244
-6.5312 -6.7188 -0.9804999999999999 184
-7.7890999999999995 -8.0156 0.9092 166
-7.6836 -7.9062 1.1543 37
-6.640599999999999 -6.832000000000001 -0.5518 89
-7.8047 -8.0312 1.4346 8
-7.082000000000001 -7.2852 -0.353 213
-7.792999999999999 -8.0156 1.6982 229
-9.4688 -9.7344 -0.1578 106
-7.640599999999999 -7.859400000000001 1.9247999999999998 69
-9.5391 -9.7344 0.15839999999999999 134
-9.6172 -9.8203 0.4783 110
-3.6719 -3.75 -0.6694 85
-7.8398 -8.0078 0.6494 173
-6.5273 -6.6640999999999995 -0.9756 113
-7.8398 -8.0078 0.9116 215
-6.6602 -6.800800000000001 -0.7734000000000001 32
-7.6797 -7.8398 1.1494 5
-6.6562 -6.800800000000001 -0.5508 36
-7.8203 -7.988300000000001 1.4325999999999999 2
-7.1211 -7.2734000000000005 -0.3538 5
-7.855499999999999 -8.0234 1.7061000000000002 112
-9.5 -9.7031 -0.1578 242
-7.792999999999999 -7.957000000000001 1.9569999999999999 97
-9.5469 -9.6797 0.15810000000000002 186
-9.5625 -9.7031 0.4739 119
-3.6875 -3.7401999999999997 -0.6704000000000001 219
-7.8789 -7.9922 0.6504000000000001 135
-6.515599999999999 -6.605499999999999 -0.9702 81
-7.8047 -7.9140999999999995 0.9043000000000001 63
-6.6836 -6.7773 -0.7734000000000001 182
-7.734400000000001 -7.8438 1.1533 233
-7.859400000000001 -7.9688 1.4346 98
-7.1640999999999995 -7.265599999999999 -0.35450000000000004 64
-7.917999999999999 -8.0312 1.7128999999999999 227
-9.5312 -9.6641 -0.1578 18
-7.949199999999999 -8.0625 1.9883000000000002 46
-9.6016 -9.6719 0.15839999999999999 247
-9.5859 -9.6562 0.47340000000000004 191
-3.7324 -3.7577999999999996 -0.6758 115
-7.917999999999999 -7.9727 0.6514 0
-6.519500000000001 -6.5664 -0.9678 206
-7.8164 -7.8711 0.9023 24
-6.5859000000000005 -6.6328 -0.7598 167
-7.7734000000000005 -7.824199999999999 1.1543 120
-7.886699999999999 -7.9414 1.4346 140
-7.1914 -7.2422 -0.35450000000000004 214
-7.875 -7.9297 1.6972999999999998 40
-7.769500000000001 -7.8203 1.9365 9
-15.4531 -15.4531 0.2546 167
-9.6484 -9.6484 0.4746 50
-3.7598000000000003 -3.7598000000000003 -0.6781999999999999 183
-7.949199999999999 -7.949199999999999 0.6514 92
-6.5273 -6.5273 -0.9658 222
-7.9102 -7.9102 0.9102 93
-6.5938 -6.5938 -0.7578 26
-7.886699999999999 -7.886699999999999 1.168 62
-7.8711 -7.8711 1.4268 47
-7.25 -7.25 -0.35619999999999996 223
-7.8359000000000005 -7.8359000000000005 1.6825999999999999 227
-15.210899999999999 -15.210899999999999 -0.2507 35
-7.8828 -7.8828 1.959 29
-15.5625 -15.4531 0.2556 124
-10.7344 -10.656199999999998 0.5264 253
-3.7812 -3.7539 -0.6797 198
-8.0312 -7.9765999999999995 0.6557999999999999 94
-6.5390999999999995 -6.4922 -0.9639 191
-7.9961 -7.9375 0.9165000000000001 248
-6.5898 -6.5390999999999995 -0.7544 165
-7.984400000000001 -7.925800000000001 1.1777 221
-7.8711 -7.8125 1.4209 91
-7.3047 -7.25 -0.3577 73
-7.8828 -7.824199999999999 1.6875 61
-15.3203 -15.210899999999999 -0.2515 87
-7.796900000000001 -7.738300000000001 1.9297 44
-15.6875 -15.460899999999999 0.2566 219
-10.710899999999999 -10.5625 0.5234000000000001 101
-3.8066000000000004 -3.752 -0.6820999999999999 252
-7.9922 -7.8789 0.6504000000000001 119
-6.5312 -6.4414 -0.9595 105
-9.7266 -9.5859 1.1123 180
-6.5938 -6.5 -0.7524 123
-7.9765999999999995 -7.863300000000001 1.1729 12
-7.8984000000000005 -7.7890999999999995 1.4219 106
-7.3359000000000005 -7.230499999999999 -0.3579 85
-7.988300000000001 -7.875 1.7041 103
-15.4375 -15.218800000000002 -0.2527 232
-7.7539 -7.644500000000001 1.9131 215
-15.773399999999999 -15.4375 0.25730000000000003 55
-10.75 -10.523399999999999 0.5234000000000001 235
-3.8281 -3.7461 -0.6836 199
-8.0078 -7.8398 0.6494 69
-6.5312 -6.394500000000001 -0.9561 7
-15.8594 -15.523399999999999 1.8086000000000002 55
-6.605499999999999 -6.4648 -0.7515000000000001 21
-8.0625 -7.890599999999999 1.1806999999999999 183
-9.7109 -9.5078 1.7431999999999999 233
-8.0078 -7.8398 1.7021000000000002 58
-15.5547 -15.226600000000001 -0.25370000000000004 148
-8.0078 -7.8398 1.9687999999999999 154
-15.8906 -15.4531 0.2583 64
-16.0312 -15.593800000000002 0.7793000000000001 81
-3.8632999999999997 -3.7558999999999996 -0.6875 72
-8.0625 -7.8398 0.6518999999999999 242
-6.5352 -6.3515999999999995 -0.9531000000000001 84
-8.0859 -7.859400000000001 0.9175 43
-6.6015999999999995 -6.417999999999999 -0.7484999999999999 72
-8.1094 -7.8828 1.1845999999999999 36
-7.9727 -7.75 1.4247999999999998 213
-7.4336 -7.2265999999999995 -0.3604 119
-8.1406 -7.9140999999999995 1.7246000000000001 236
-15.601600000000001 -15.164100000000001 -0.2534 47
-8.0234 -7.796900000000001 1.9647999999999999 49
-16.0156 -15.460899999999999 0.2593 207
-16.1562 -15.601600000000001 0.7827 160
-3.8848000000000003 -3.75 -0.6890000000000001 166
-8.125 -7.8477 0.6548 31
-6.5390999999999995 -6.3125 -0.9506999999999999 81
-8.0859 -7.8086 0.9146 46
-9.8516 -9.5156 1.4355000000000002 189
-7.980499999999999 -7.707000000000001 1.4219 110
-7.488300000000001 -7.230499999999999 -0.3616 103
-8.0547 -7.7734000000000005 1.7002000000000002 7
-15.656199999999998 -15.1172 -0.25370000000000004 15
-8.0234 -7.75 1.959 9
-16.2812 -15.6172 0.7856000000000001 174
-3.8964999999999996 -3.7382999999999997 -0.6890000000000001 99
-8.1484 -7.8164 0.6543000000000001 43
-6.5390999999999995 -6.2734000000000005 -0.9478 73
-17.8125 -17.0781 2.0117 13
-8.0781 -7.75 1.1719 83
-7.957000000000001 -7.6328 1.4131 179
-7.578099999999999 -7.269500000000001 -0.365 186
-8.0547 -7.730499999999999 1.6963 106
-15.8828 -15.2344 -0.2566 81
-8.1016 -7.7734000000000005 1.9727000000000001 244
-16.3438 -15.5625 0.7866 94
-3.9355 -3.748 -0.6938 64
-16.2656 -15.4922 1.3047 58
-6.546900000000001 -6.234400000000001 -0.9458 123
-17.7969 -16.9531 2.0039 36
-8.1094 -7.7227 1.1729 44
-7.9688 -7.5898 1.4102000000000001 228
-7.613300000000001 -7.25 -0.3652 92
-8.0234 -7.640599999999999 1.6825999999999999 10
-12.9219 -12.3047 -0.2078 43
-8.0391 -7.6523 1.9491999999999998 117
-16.3906 -15.5 0.7856000000000001 180
-3.9726999999999997 -3.7558999999999996 -0.6978 44
-16.3906 -15.4922 1.3096 199
-6.550800000000001 -6.1953 -0.9429000000000001 216
-9.8047 -9.2734 1.0986 23
-8.1094 -7.671900000000001 1.1689 101
-7.9609000000000005 -7.5273 1.4043 186
-16.3125 -15.4297 -0.7827 226
-8.0859 -7.6484000000000005 1.6904 114
-16.1562 -15.289100000000001 -0.2593 22
-8.2109 -7.765599999999999 1.9853999999999998 170
-16.4531 -15.4453 0.7861 29
-3.9961 -3.7539 -0.6997 95
-16.5 -15.4922 1.3135 5
-6.5625 -6.1640999999999995 -0.9419 204
-9.8281 -9.2266 1.0977 150
-6.886699999999999 -6.4648 -0.7676000000000001 96
-8.0625 -7.5703 1.1582 160
-7.921900000000001 -7.4375 1.3925999999999998 206
-16.4219 -15.414100000000001 -0.7847 234
-8.1484 -7.6484000000000005 1.6972999999999998 54
-16.4375 -15.4375 -0.26289999999999997 101
-8.2109 -7.7148 1.9794999999999998 42
-16.5156 -15.406199999999998 0.7870999999999999 231
-4.0391 -3.7656 -0.7051000000000001 50
-16.5781 -15.460899999999999 1.3163999999999998 61
-6.582000000000001 -6.136699999999999 -0.9414 145
-9.6797 -9.0234 1.0771 41
-8.0859 -7.5352 1.1572 220
-7.980499999999999 -7.4414 1.3975 119
-16.5156 -15.398399999999999 -0.7866 131
-8.1562 -7.605499999999999 1.6934 121
-16.5156 -15.398399999999999 -0.2632 34
-8.2578 -7.703099999999999 1.9844 130
-16.6562 -15.4297 0.7909999999999999 223
-4.0547 -3.7558999999999996 -0.7056 78
-16.7188 -15.4844 1.3232 136
-9.75 -9.0312 1.082 37
-6.980499999999999 -6.4648 -0.7734000000000001 125
-8.1406 -7.5352 1.1611 42
-7.980499999999999 -7.390599999999999 1.3936000000000002 197
-16.5938 -15.3672 -0.7881 108
-8.1797 -7.574199999999999 1.6934 36
-16.5938 -15.3672 -0.2637 219
-8.2344 -7.625 1.9707 125
-16.7812 -15.4297 0.7939 166
-4.0781 -3.752 -0.7075 192
-16.8281 -15.476600000000001 1.3271000000000002 84
-6.5859000000000005 -6.0547 -0.9355 11
-9.7734 -8.9844 1.0811 25
-8.6797 -7.984400000000001 1.2354 85
-8.0547 -7.4062 1.4022999999999999 27
-16.75 -15.398399999999999 -0.7925 25
-8.1875 -7.5273 1.6894999999999998 221
-16.7656 -15.406199999999998 -0.26539999999999997 249
-8.2734 -7.609400000000001 1.9746000000000001 213
-16.8906 -15.4297 0.7974 229
-4.1289 -3.7695 -0.7134 36
-12.8047 -11.6875 1.0059 113
-6.5977 -6.0234000000000005 -0.9346 35
-9.8203 -8.9688 1.083 141
-8.7109 -7.953099999999999 1.2354 61
-8.1406 -7.4297 1.4121000000000001 236
-16.8438 -15.375 -0.7944 7
-8.2109 -7.4961 1.6894999999999998 32
-8.3516 -7.625 1.9863 143
-12.8281 -11.6328 0.20170000000000002 13
-12.8125 -11.6172 0.6021 222
-4.125 -3.7422000000000004 -0.7109000000000001 210
-12.8125 -11.6172 1.0029000000000001 185
-6.671900000000001 -6.050800000000001 -0.9419 73
-9.5859 -8.6953 1.0537 47
-8.2344 -7.4688 1.1641 141
-8.1719 -7.4102 1.4131 209
-12.8047 -11.6172 -0.6021 158
-8.2344 -7.4648 1.6885 87
-12.8047 -11.6094 -0.20120000000000002 145
-8.4219 -7.636699999999999 1.9971 28
-12.8281 -11.5547 0.201 153
-12.8047 -11.523399999999999 0.5996 167
-4.1562 -3.7422000000000004 -0.7139 140
-12.8203 -11.5469 1.001 173
-6.699199999999999 -6.0312 -0.9429000000000001 253
-9.6562 -8.6875 1.0576 196
-8.25 -7.4297 1.1621 163
-8.1719 -7.363300000000001 1.4091999999999998 24
-12.789100000000001 -11.5156 -0.5991 73
-8.2266 -7.4062 1.6816 156
-12.789100000000001 -11.5156 -0.2003 184
-9.5469 -8.6016 2.2578 4
-12.835899999999999 -11.476600000000001 0.2004 107
-12.8047 -11.4531 0.5981000000000001 31
-4.1797 -3.7363 -0.7158 8
-12.8047 -11.4453 0.9965999999999999 162
-6.6797 -5.9727 -0.937 101
-9.6562 -8.6328 1.0547 210
-12.789100000000001 -11.4375 1.7988 6
-10.9297 -9.7656 1.8799000000000001 119
-12.8047 -11.4531 -0.5981000000000001 231
-8.2422 -7.3711 1.6797 60
-12.781199999999998 -11.4297 -0.1996 99
-12.773399999999999 -11.414100000000001 3.0137 74
-12.8281 -11.3906 0.1997 113
-12.8047 -11.3672 0.5962 233
-4.1992 -3.7305 -0.7173 197
-12.789100000000001 -11.3594 0.9926999999999999 35
-6.7265999999999995 -5.9727 -0.9409000000000001 135
-9.7578 -8.6641 1.0625 108
-8.7188 -7.7422 1.2207 167
-8.6953 -7.7227 1.4902000000000002 153
-12.8203 -11.3828 -0.5967 131
-12.8125 -11.375 2.6055 229
-12.7969 -11.3594 -0.19920000000000002 21
-12.773399999999999 -11.335899999999999 3.0039 112
-12.835899999999999 -11.3125 0.19920000000000002 127
-12.8125 -11.2969 0.5947 116
-4.2461 -3.7441000000000004 -0.7227 117
-12.7969 -11.289100000000001 0.9902 175
-6.703099999999999 -5.9102 -0.9346 231
-9.7109 -8.5547 1.0537 61
-8.75 -7.7148 1.2217 113
-8.7344 -7.699199999999999 1.4922 202
-12.8125 -11.2969 -0.5947 135
-12.773399999999999 -11.2656 2.5898000000000003 49
-12.789100000000001 -11.273399999999999 -0.1985 226
-12.773399999999999 -11.2578 2.9941000000000004 11
-12.8281 -11.2344 0.1985 156
-12.7969 -11.210899999999999 0.5922999999999999 69
-4.2656 -3.7344 -0.7236 208
-12.7969 -11.210899999999999 0.9873000000000001 113
-6.6797 -5.8515999999999995 -0.9287000000000001 12
-9.7734 -8.5547 1.0576 209
-8.7344 -7.6523 1.2158 202
-10.3828 -9.0938 1.7694999999999999 30
-12.789100000000001 -11.2031 -0.5918 164
-10.1953 -8.9297 2.0605 36
-12.781199999999998 -11.1953 -0.1979 238
-10.6953 -9.3672 2.498 245
-12.8203 -11.156199999999998 0.1979 221
-12.7969 -11.1328 0.5903 228
-4.25 -3.6973000000000003 -0.7192000000000001 100
-12.7969 -11.1328 0.9843999999999999 240
-6.6953 -5.824199999999999 -0.9281999999999999 21
-12.781199999999998 -11.1172 1.3799000000000001 134
-8.7812 -7.640599999999999 1.2187999999999999 195
-10.3672 -9.0156 1.7616999999999998 133
-12.789100000000001 -11.125 -0.5903 108
-12.7656 -11.101600000000001 2.5742000000000003 197
-12.789100000000001 -11.125 -0.1973 119
-10.0859 -8.7734 2.3496 21
-12.835899999999999 -11.085899999999999 0.1974 83
-12.7969 -11.0547 0.5889 139
-4.2422 -3.6641000000000004 -0.7158 181
-12.789100000000001 -11.039100000000001 0.9804999999999999 148
-6.7265999999999995 -5.8086 -0.9297 226
-9.8203 -8.4766 1.0556999999999999 222
-8.8516 -7.644500000000001 1.2246 153
-11.031199999999998 -9.5234 1.8691 157
-12.7969 -11.0547 -0.5889 97
-12.7656 -11.023399999999999 2.5645 212
-12.7656 -11.023399999999999 -0.19640000000000002 145
-10.726600000000001 -9.2656 2.4922 204
-12.8125 -10.9844 0.19640000000000002 246
-12.789100000000001 -10.968800000000002 0.5864 95
-4.2539 -3.6483999999999996 -0.7153 83
-12.789100000000001 -10.968800000000002 0.9775 5
-6.738300000000001 -5.7773 -0.9281999999999999 149
-12.7969 -10.968800000000002 1.3730000000000002 199
-7.375 -6.324199999999999 -0.79 252
-8.9531 -7.675800000000001 1.2354 245
-11.289100000000001 -9.6797 1.9072 207
-12.7969 -10.968800000000002 -0.5869 137
-12.773399999999999 -10.9531 2.5605 107
-12.7656 -10.9453 -0.1957 129
-10.9375 -9.3828 2.5332 67
-12.8047 -10.898399999999999 0.19579999999999997 209
-12.789100000000001 -10.8906 0.585 169
-4.2734 -3.6387 -0.7168000000000001 197
-12.781199999999998 -10.8828 0.9736 252
-6.7734000000000005 -5.765599999999999 -0.9307 171
-12.789100000000001 -10.8906 1.3681999999999999 227
-7.3984000000000005 -6.296900000000001 -0.79 120
-9.8984 -8.4219 1.3613 123
-7.9102 -6.734400000000001 -0.6015999999999999 175
-11.4844 -9.7734 1.9346 42
-12.789100000000001 -10.8828 -0.5845 41
-12.7969 -10.8906 2.5547 233
-12.773399999999999 -10.875 -0.1953 242
-10.9297 -9.3047 2.5234 150
-12.8125 -10.8281 0.19519999999999998 12
-12.7969 -10.8125 0.5835 218
-12.781199999999998 -10.8047 0.9712000000000001 99
-6.8125 -5.761699999999999 -0.9331 40
-12.7656 -10.7969 1.3622999999999998 224
-9.9062 -8.375 1.3584 135
-7.925800000000001 -6.699199999999999 -0.6011 208
-11.523399999999999 -9.7422 1.9365 205
-12.7969 -10.8125 -0.5835 233
-12.7656 -10.789100000000001 2.543 132
-12.773399999999999 -10.7969 -0.19469999999999998 248
-9.8516 -8.3281 2.2676 156
-12.8125 -10.7578 0.19469999999999998 67
-2.957 -2.4824 -0.5825 80
-12.781199999999998 -10.726600000000001 0.5811 185
-4.3047 -3.6151999999999997 -0.7178 43
-12.781199999999998 -10.726600000000001 0.9682999999999999 167
-6.8789 -5.7734000000000005 -0.9395 89
-10.1797 -8.5469 1.082 230
-9.9844 -8.3828 1.3652000000000002 63
-12.773399999999999 -10.718800000000002 -0.9673 135
-12.7656 -10.710899999999999 2.1387 49
-12.7969 -10.7422 -0.5815 41
-12.7578 -10.710899999999999 2.5332 197
-12.7656 -10.718800000000002 -0.1941 226
-9.8906 -8.3047 2.2695 148
-12.8047 -10.6719 0.19399999999999998 215
-2.9668 -2.4727 -0.5825 26
-12.773399999999999 -10.648399999999999 0.5791 178
-4.293 -3.5781 -0.7134 9
-12.781199999999998 -10.648399999999999 0.9653 148
-6.9062 -5.7578 -0.9404 18
-12.789100000000001 -10.656199999999998 1.3563999999999998 197
-9.9141 -8.2656 1.3516 125
-12.773399999999999 -10.648399999999999 -0.9648 119
-12.7578 -10.6328 2.1309 140
-12.7969 -10.664100000000001 -0.5801 156
-12.7656 -10.6406 2.5273 143
-12.7578 -10.6328 -0.1932 245
-9.9141 -8.2656 2.2695 41
-12.7969 -10.585899999999999 0.1934 159
-3.0 -2.4824 -0.5869 14
-12.781199999999998 -10.5781 0.5776 229
-4.3125 -3.5683999999999996 -0.7143999999999999 203
-12.7656 -10.5625 0.9614 134
-6.9297 -5.734400000000001 -0.9409000000000001 144
-12.773399999999999 -10.5703 1.3506 219
-7.578099999999999 -6.269500000000001 -0.7998000000000001 240
-9.9219 -8.2109 1.3486000000000002 185
-12.7656 -10.5625 -0.9614 78
-12.7578 -10.5547 2.125 71
-12.7969 -10.585899999999999 -0.5781000000000001 33
-12.7656 -10.5625 2.5195 83
-12.7656 -10.5625 -0.1929 187
-9.8984 -8.1953 2.2578 3
-12.8047 -10.523399999999999 0.193 222
-2.9824 -2.4512 -0.5825 152
-12.773399999999999 -10.5 0.5757 254
-4.3125 -3.543 -0.7123999999999999 104
-12.7656 -10.4844 0.9584999999999999 29
-6.957000000000001 -5.7148 -0.9414 232
-12.781199999999998 -10.5 1.3477000000000001 87
-7.550800000000001 -6.203099999999999 -0.7944 198
-12.7031 -10.4375 1.7227000000000001 105
-12.7656 -10.4922 -0.9584999999999999 189
-12.7422 -10.468800000000002 2.1172 66
-12.773399999999999 -10.5 -0.5757 126
-11.0703 -9.1016 2.1797 168
-12.773399999999999 -10.5 -0.1925 235
-9.9297 -8.1562 2.2578 72
-12.8203 -10.460899999999999 0.19260000000000002 101
-2.9922000000000004 -2.4414 -0.5825 250
-12.781199999999998 -10.4219 0.5742 213
-4.3281 -3.5312 -0.7129000000000001 99
-12.773399999999999 -10.4219 0.9565 110
-6.988300000000001 -5.703099999999999 -0.9434 92
-12.7656 -10.414100000000001 1.3418 184
-7.582000000000001 -6.1875 -0.7959 3
-12.6797 -10.343800000000002 1.7158000000000002 197
-12.773399999999999 -10.4219 -0.9565 66
-12.75 -10.406199999999998 2.1113 116
-12.781199999999998 -10.4297 -0.5742 1
-12.7422 -10.398399999999999 2.502 10
-12.7656 -10.414100000000001 -0.1918 125
-9.8906 -8.0703 2.2441 124
-12.7969 -10.3672 0.1917 49
-3.0 -2.4297 -0.5825 229
-12.7578 -10.335899999999999 0.5713 116
-4.3164 -3.498 -0.7090000000000001 184
-12.773399999999999 -10.351600000000001 0.9541 68
-7.0352 -5.699199999999999 -0.9473 87
-12.781199999999998 -10.351600000000001 1.3397999999999999 62
-7.640599999999999 -6.1914 -0.7998000000000001 193
-12.664100000000001 -10.2578 1.7080000000000002 109
-12.781199999999998 -10.351600000000001 -0.9541 75
-12.75 -10.3281 2.1055 253
-12.7656 -10.335899999999999 -0.5718 95
-12.7422 -10.3203 2.4941 218
-12.75 -10.3281 -0.191 207
-9.9531 -8.0625 2.25 119
-12.789100000000001 -10.289100000000001 0.191 208
-3.0098000000000003 -2.4199 -0.5825 127
-12.773399999999999 -10.273399999999999 0.5703 179
-4.2969 -3.457 -0.7041 67
-12.7656 -10.2656 0.9501999999999999 77
-7.074199999999999 -5.6875 -0.9492 164
-12.773399999999999 -10.273399999999999 1.335 91
-7.6875 -6.1836 -0.8022 185
-12.656199999999998 -10.1797 1.7021000000000002 177
-12.7578 -10.2656 -0.9501999999999999 176
-12.75 -10.2578 2.0996 179
-12.7656 -10.2656 -0.5703 29
-11.0078 -8.8516 2.1484 106
-12.7422 -10.25 -0.19030000000000002 45
-11.039100000000001 -8.8828 2.4902 225
-12.789100000000001 -10.2109 0.1906 172
-4.3516 -3.4745999999999997 -0.8428 213
-12.7656 -10.1953 0.5688 16
-4.293 -3.4297000000000004 -0.7012 199
-12.75 -10.1875 0.9468000000000001 180
-7.113300000000001 -5.6797 -0.9521 194
-12.7578 -10.1875 1.3300999999999998 32
-7.7539 -6.1914 -0.8066 98
-12.6797 -10.125 1.7002000000000002 199
-12.7578 -10.1875 -0.9473 121
-12.7422 -10.1719 2.0918 8
-12.781199999999998 -10.2031 -0.5693 122
-10.9297 -8.7266 2.127 58
-12.75 -10.1797 -0.18989999999999999 172
-11.0156 -8.7969 2.4766 212
-12.789100000000001 -10.1406 0.19010000000000002 235
-4.2891 -3.4004000000000003 -0.8281000000000001 146
-12.7656 -10.125 0.5669 196
-4.2891 -3.4023000000000003 -0.6987000000000001 81
-12.7656 -10.1172 0.9448000000000001 1
-7.1484000000000005 -5.667999999999999 -0.9541 7
-12.75 -10.1094 1.3252000000000002 198
-7.824199999999999 -6.203099999999999 -0.812 116
-12.6797 -10.0547 1.6963 158
-12.718800000000002 -10.0781 -0.9414 184
-12.7344 -10.0938 2.084 51
-12.773399999999999 -10.125 -0.5674 83
-11.2578 -8.9297 2.1836 216
-12.7344 -10.1016 -0.1892 73
-10.8828 -8.625 2.4414 55
-12.75 -10.0391 0.1888 198
-4.3125 -3.3964999999999996 -0.8306 219
-12.7578 -10.0469 0.5654 23
-4.2773 -3.3672000000000004 -0.6948000000000001 156
-12.781199999999998 -10.0625 0.9438 173
-7.1914 -5.6602 -0.9570000000000001 232
-12.7578 -10.0469 1.3222999999999998 149
-7.8359000000000005 -6.167999999999999 -0.8109999999999999 5
-12.656199999999998 -9.9609 1.6875 61
-12.718800000000002 -10.0156 -0.9395 198
-12.7344 -10.0234 2.0801 90
-12.718800000000002 -10.0156 -0.5635 170
-11.0625 -8.7109 2.1406 55
-12.7422 -10.0312 -0.1888 137
-11.023399999999999 -8.6797 2.4668 51
-12.8125 -10.0156 0.1893 217
-4.3242 -3.3789 -0.8301000000000001 171
-12.8125 -10.0156 0.5659000000000001 194
-4.3008 -3.3613 -0.6962999999999999 31
-12.835899999999999 -10.0312 0.9453 122
-7.230499999999999 -5.6484000000000005 -0.96 3
-12.7422 -9.9609 1.3174000000000001 231
-7.863300000000001 -6.144500000000001 -0.8115000000000001 56
-12.6406 -9.8828 1.6816 75
-12.718800000000002 -9.9453 -0.9365000000000001 17
-12.7422 -9.9609 2.0742 189
-12.789100000000001 -9.9922 -0.5649000000000001 166
-11.5703 -9.0469 2.2324 149
-12.7969 -10.0 -0.18899999999999997 79
-11.093800000000002 -8.6719 2.4746 142
-12.835899999999999 -9.9609 0.1891 195
-4.3203 -3.3516000000000004 -0.8271 8
-12.851600000000001 -9.9766 0.5664 210
-4.2891 -3.3281 -0.6929000000000001 163
-12.8594 -9.9844 0.9443 245
-7.2734000000000005 -5.644500000000001 -0.9629000000000001 136
-12.7656 -9.9062 1.3154 197
-7.8984000000000005 -6.1289 -0.813 129
-12.6875 -9.8438 1.6836000000000002 163
-12.726600000000001 -9.875 -0.9346 23
-12.7422 -9.8906 2.0703 37
-12.8203 -9.9453 -0.5649000000000001 33
-11.593800000000002 -8.9922 2.2305 68
-12.8125 -9.9375 -0.1887 209
-11.093800000000002 -8.6094 2.4688 144
-12.875 -9.9141 0.1891 211
-4.3398 -3.3438 -0.8291 94
-12.898399999999999 -9.9375 0.5664 177
-4.3047 -3.3164 -0.6938 190
-12.9219 -9.9531 0.9468000000000001 66
-7.3125 -5.6328 -0.9653 150
-12.7578 -9.8281 1.3115 220
-12.773399999999999 -9.8359 -1.3135 54
-12.656199999999998 -9.75 1.6747999999999998 153
-12.7344 -9.8047 -0.9326000000000001 3
-12.7344 -9.8125 2.0625 169
-12.906199999999998 -9.9453 -0.5669 65
-12.843800000000002 -9.8984 2.4668 100
-12.8828 -9.9297 -0.1893 56
-11.1328 -8.5703 2.4707 134
-12.875 -9.8516 0.1887 118
-4.3281 -3.3125 -0.8247 242
-13.0156 -9.9531 0.5703 236
-4.3086 -3.2949 -0.6919 119
-13.031199999999998 -9.9609 0.9517 221
-7.3477 -5.6211 -0.9678 217
-12.75 -9.75 1.3075999999999999 207
-12.7578 -9.7578 -1.3086000000000002 168
-12.6797 -9.7031 1.6738 28
-12.726600000000001 -9.7344 -0.9292 252
-12.726600000000001 -9.7344 2.0566 191
-12.9297 -9.8906 -0.5664 122
-12.835899999999999 -9.8203 2.457 38
-13.039100000000001 -9.9688 -0.191 86
-10.968800000000002 -8.3906 2.4277 211
-12.8906 -9.7891 0.1884 10
-4.3633 -3.3125 -0.8291 68
-13.039100000000001 -9.9062 0.5698 250
-4.3086 -3.2733999999999996 -0.6904 217
-13.0625 -9.9219 0.9517 30
-7.4140999999999995 -5.6289 -0.9736 156
-12.7422 -9.6797 1.3037 22
-12.7656 -9.6875 -1.3056999999999999 84
-12.648399999999999 -9.6016 1.6641 83
-12.7422 -9.6719 -0.9281999999999999 224
-12.726600000000001 -9.6641 2.0508 104
-13.023399999999999 -9.8828 -0.5688 81
-12.781199999999998 -9.7109 2.4414 197
-12.9922 -9.8672 -0.18989999999999999 119
-12.9922 -9.8672 2.8691000000000004 47
-12.8281 -9.6719 0.187 37
-4.3477 -3.2773000000000003 -0.8237000000000001 5
-13.0703 -9.8516 0.5698 8
-4.3125 -3.25 -0.6890000000000001 185
-13.085899999999999 -9.8594 0.9506999999999999 163
-7.4765999999999995 -5.636699999999999 -0.9795 99
-12.7344 -9.6016 1.2988 167
-12.7422 -9.6094 -1.2997999999999998 175
-12.648399999999999 -9.5391 1.6602000000000001 139
-12.7344 -9.6016 -0.9253 211
-12.726600000000001 -9.5938 2.0449 21
-13.0 -9.7969 -0.5664 136
-12.773399999999999 -9.625 2.4316 215
-12.976600000000001 -9.7812 -0.1892 178
-10.875 -8.1953 2.3926 84
-12.8828 -9.6406 0.18739999999999998 13
-4.3594 -3.2617000000000003 -0.8237000000000001 241
-13.0625 -9.7812 0.5679 232
-4.2969 -3.2168 -0.6851 88
-13.0547 -9.7656 0.9458 143
-7.5273 -5.6328 -0.9834 8
-12.75 -9.5391 1.2969 127
-12.75 -9.5391 -1.2969 71
-12.656199999999998 -9.4688 1.6562000000000001 60
-12.7422 -9.5391 -0.9233 43
-12.7344 -9.5312 2.041 216
-13.0625 -9.7812 -0.5679 254
-12.773399999999999 -9.5625 2.4277 193
-12.9922 -9.7188 -0.1888 190
-10.906199999999998 -8.1641 2.3945 170
-12.835899999999999 -9.5391 0.18600000000000003 156
-4.3438 -3.2266000000000004 -0.8188 65
-13.0547 -9.7031 0.5664 204
-4.3242 -3.2129000000000003 -0.6875 117
-13.039100000000001 -9.6875 0.9429000000000001 110
-7.578099999999999 -5.6328 -0.9878 135
-12.7422 -9.4688 1.2930000000000001 195
-12.75 -9.4766 -1.2938999999999998 19
-12.648399999999999 -9.3984 1.6513999999999998 140
-12.718800000000002 -9.4531 -0.9194 221
-12.718800000000002 -9.4453 2.0332 169
-13.039100000000001 -9.6875 -0.5654 194
-12.7656 -9.4844 2.418 104
-12.960899999999999 -9.6328 -0.18789999999999998 201
-12.968800000000002 -9.6328 2.8418 119
-12.8594 -9.4844 0.1859 112
-4.3281 -3.1914 -0.8134999999999999 111
-13.085899999999999 -9.6484 0.5659000000000001 75
-4.3086 -3.1797000000000004 -0.6836 84
-13.0781 -9.6406 0.9429000000000001 193
-7.667999999999999 -5.6562 -0.9965999999999999 164
-12.75 -9.4062 1.29 228
-12.7578 -9.4062 -1.291 46
-12.656199999999998 -9.3281 1.6475 133
-12.7344 -9.3906 -0.9179999999999999 88
-12.710899999999999 -9.375 2.0273 32
-13.0469 -9.625 -0.5645 82
-12.6719 -9.3516 2.3945 111
-13.0469 -9.625 -0.1887 79
-12.9844 -9.5781 2.8379000000000003 0
-12.875 -9.4219 0.1857 213
-4.332 -3.1719 -0.812 213
-13.0781 -9.5781 0.5645 106
-4.3164 -3.1620999999999997 -0.6831 139
-13.085899999999999 -9.5781 0.9409000000000001 216
-7.75 -5.671900000000001 -1.0049 110
-12.718800000000002 -9.3125 1.2841999999999998 52
-12.7344 -9.3203 -1.2852000000000001 224
-12.6406 -9.2578 1.6425999999999998 207
-12.7344 -9.3281 -0.9159999999999999 225
-12.718800000000002 -9.3125 2.0215 157
-13.0469 -9.5547 -0.563 164
-11.164100000000001 -8.1797 2.1035 195
-12.8047 -9.375 -0.18469999999999998 134
-12.976600000000001 -9.5 2.8281 176
-12.906199999999998 -9.3828 0.1857 120
-4.3242 -3.1426 -0.8086 182
-13.0469 -9.4844 0.5615 147
-4.293 -3.1211 -0.6772 32
-13.0703 -9.5 0.9375 116
-12.726600000000001 -9.25 1.2812000000000001 207
-12.7422 -9.2578 -1.2832 29
-12.6406 -9.1875 1.6377000000000002 160
-12.75 -9.2656 -0.9140999999999999 94
-12.718800000000002 -9.2422 2.0176 164
-13.023399999999999 -9.4609 -0.5600999999999999 131
-12.6094 -9.1641 2.3691 246
-13.031199999999998 -9.4688 -0.1875 142
-12.9219 -9.3906 2.8086 251
-12.9375 -9.3281 0.1857 190
-4.3281 -3.123 -0.8070999999999999 75
-13.0547 -9.4219 0.5605 12
-4.293 -3.0957 -0.6753 237
-13.0703 -9.4297 0.9351 204
-12.7422 -9.1953 1.2793 166
-12.7422 -9.1953 -1.2793 70
-12.6719 -9.1406 1.6377000000000002 162
-12.726600000000001 -9.1797 -0.9106000000000001 17
-12.726600000000001 -9.1797 2.0117 211
-13.0156 -9.3906 -0.5586 65
-12.601600000000001 -9.0859 2.3613 18
-12.8906 -9.2969 -0.18489999999999998 146
-12.7969 -9.2344 2.7754000000000003 129
-12.9297 -9.2656 0.1852 47
-4.332 -3.1035000000000004 -0.8062 83
-13.0703 -9.3594 0.5596 150
-4.3008 -3.0801 -0.6748000000000001 98
-12.9297 -9.2656 0.9229 42
-12.7422 -9.1328 1.2764 110
-12.7422 -9.1328 -1.2773 100
-12.648399999999999 -9.0625 1.6309 206
-12.7344 -9.125 -0.9087000000000001 84
-12.718800000000002 -9.1094 2.0078 162
-12.9453 -9.2734 -0.5542 229
-12.601600000000001 -9.0312 2.3574 228
-13.0 -9.3125 -0.1862 81
-12.7969 -9.1641 2.7676 211
-12.851600000000001 -9.1484 0.18359999999999999 234
-4.332 -3.082 -0.8042 68
-12.8281 -9.125 0.5478999999999999 118
-4.2852 -3.0469 -0.6709 43
-12.7969 -9.1094 0.9111 22
-12.7344 -9.0547 1.2725 65
-12.75 -9.0703 -1.2744 103
-12.6328 -8.9922 1.625 193
-12.7344 -9.0625 -0.9067000000000001 228
-12.710899999999999 -9.0469 2.002 144
-12.8906 -9.1719 -0.5508 170
-12.6094 -8.9688 2.3535 76
-12.8125 -9.1172 -0.183 246
-12.7969 -9.1016 2.7617000000000003 153
-12.8203 -9.0469 0.1825 68
-4.3281 -3.0547000000000004 -0.8012999999999999 221
-12.8203 -9.0469 0.5464 32
-4.293 -3.0293 -0.6704000000000001 148
-12.8203 -9.0469 0.9106000000000001 169
-12.726600000000001 -8.9766 1.2686 164
-12.7344 -8.9844 -1.2695 91
-12.6328 -8.9141 1.6211000000000002 175
-12.7422 -8.9922 -0.9043000000000001 25
-12.7031 -8.9609 1.9941 12
-12.781199999999998 -9.0156 -0.5444 90
-12.601600000000001 -8.8906 2.3457 28
-12.7969 -9.0312 -0.18230000000000002 82
-12.8125 -9.0469 2.7577999999999996 254
-12.8203 -8.9766 0.1821 106
-4.3398 -3.0410000000000004 -0.8018000000000001 130
-12.8047 -8.9688 0.5439 244
-4.293 -3.0058999999999996 -0.6685 112
-12.8203 -8.9766 0.9081999999999999 154
-12.718800000000002 -8.9141 1.2646 202
-12.7344 -8.9219 -1.2666 100
-12.648399999999999 -8.8594 1.6181999999999999 52
-12.7422 -8.9219 -0.9023 224
-12.7031 -8.8984 1.9902000000000002 178
-12.8203 -8.9844 -0.5449 31
-12.593800000000002 -8.8203 2.3379 208
-12.7969 -8.9609 -0.1818 73
-12.9297 -9.0547 2.7754000000000003 98
-12.843800000000002 -8.9297 0.182 178
-4.3125 -3.0 -0.7944 78
-12.8281 -8.9219 0.5439 57
-4.2695 -2.9707 -0.6636 179
-12.851600000000001 -8.9375 0.9081999999999999 34
-12.7344 -8.8594 1.2637 70
-12.7344 -8.8516 -1.2627 132
-12.648399999999999 -8.7969 1.6152000000000002 101
-12.718800000000002 -8.8516 -0.8989 254
-12.710899999999999 -8.8438 1.9863 192
-12.789100000000001 -8.8906 -0.542 169
-12.593800000000002 -8.7578 2.332 111
-12.8047 -8.9062 -0.1815 215
-12.9844 -9.0312 2.7812 123
-12.8828 -8.8984 0.1821 143
-4.3242 -2.9844 -0.7944 7
-12.960899999999999 -8.9531 0.5483 48
-4.2734 -2.9512 -0.6626000000000001 4
-13.0 -8.9766 0.9165000000000001 155
-12.726600000000001 -8.7891 1.2598 167
-12.7344 -8.7969 -1.2607 29
-12.6328 -8.7266 1.6094 177
-12.710899999999999 -8.7812 -0.8965000000000001 217
-12.7031 -8.7734 1.9805000000000001 58
