# .PCD v0.7 - Point Cloud Data file format
VERSION 0.7
FIELDS x y z intensity
SIZE 4 4 4 4
TYPE F F F F
COUNT 1 1 1 1
WIDTH 1407
HEIGHT 1
VIEWPOINT 0 0 0 1 0 0 0
POINTS 1407
DATA ascii
-0.6797 0.5893999999999999 -0.1307 235
-42.6562 36.9688 1.9697 66
-4.5234 3.9199 -0.7646 131
-30.5156 26.4375 2.3457 94
-4.5625 3.9512 -0.6299 81
-27.5156 23.8438 2.9707 35
-4.5547 3.9473000000000003 -0.4888 187
-26.4688 22.9375 3.6757999999999997 170
-4.6172 4.0 -0.3528 6
-26.7031 23.1406 4.5391 79
-27.8438 24.125 5.613300000000001 229
-4.7656 4.1289 -0.0729 62
-0.5859000000000001 0.5117 -0.1298 159
-42.5625 37.125 1.9707 251
-4.5078 3.9316000000000004 -0.7637 20
-28.3438 24.7344 2.1875 200
-4.5195 3.9452999999999996 -0.626 118
-27.4375 23.9375 2.9707 147
-4.5234 3.9473000000000003 -0.4868 149
-26.3594 23.0 3.6719 245
-4.5898 4.0039 -0.3518 152
-26.7656 23.3594 4.5664 253
-27.6875 24.1719 5.5977 230
-0.5932999999999999 0.5215 -0.1318 239
-4.8984 4.3047 0.0754 167
-0.6758 0.5938 -0.1307 51
-42.5938 37.4062 1.9775 162
-4.4648 3.9238 -0.7593000000000001 42
-28.3125 24.875 2.1895 101
-4.5 3.9531 -0.625 64
-27.8125 24.4375 3.0214999999999996 94
-4.5 3.9551 -0.4858 76
-26.2812 23.0938 3.6719 196
-4.5508 3.9961 -0.3496 149
-26.625 23.3906 4.5547 168
-29.0625 25.5312 5.890599999999999 172
-4.7031 4.1328 -0.0723 23
-0.6006 0.5312 -0.13390000000000002 66
-4.7773 4.2266 0.0737 101
-0.6738 0.5962 -0.1307 156
-42.5625 37.6562 1.9834 42
-4.4492 3.9336 -0.7583 145
-42.5625 37.625 3.3026999999999997 121
-4.4727 3.9551 -0.623 236
-27.2969 24.1406 2.9726999999999997 205
-4.4844 3.9668 -0.4854 79
-26.2031 23.1875 3.6738 184
-4.5195 3.9961 -0.3481 90
-26.1406 23.125 4.4844 225
-27.0312 23.9062 5.4961 82
-4.7852 4.2305 -0.0738 250
-0.5688 0.5073 -0.127 188
-42.5938 37.9688 1.9912 203
-4.4297 3.9473000000000003 -0.7578 146
-29.2344 26.0625 2.2773 107
-4.4375 3.9551 -0.6201 81
-27.1875 24.2344 2.9707 131
-4.4492 3.9648000000000003 -0.4832 253
-26.0156 23.1875 3.6582 74
-4.5078 4.0195 -0.3486 105
-26.0781 23.2344 4.4883 105
-26.8438 23.9219 5.4765999999999995 113
-0.5996 0.5381 -0.1346 100
-0.6694 0.6011 -0.1307 58
-28.0156 25.1406 1.3125 213
-4.3945 3.9452999999999996 -0.7539 240
-28.3438 25.4375 2.2129 84
-4.418 3.9648000000000003 -0.6191 219
-27.1406 24.3594 2.9745999999999997 206
-4.418 3.9648000000000003 -0.48119999999999996 150
-26.3281 23.625 3.7129000000000003 6
-4.4844 4.0234 -0.3479 119
-26.9062 24.1406 4.6445 94
-26.6719 23.9375 5.457000000000001 104
-4.6055 4.1328 -0.07150000000000001 244
-0.5742 0.519 -0.129 215
-0.6675 0.603 -0.1307 124
-27.9219 25.2344 1.3125 23
-4.3672 3.9452999999999996 -0.7515000000000001 122
-28.2344 25.5 2.2109 139
-4.3789 3.957 -0.6157 63
-28.5938 25.8281 3.1426 216
-4.3906 3.9688 -0.4797 79
-26.2188 23.6875 3.7108999999999996 171
-4.4492 4.0195 -0.34619999999999995 153
-26.75 24.1719 4.6328 237
-26.5625 24.0 5.453099999999999 164
-0.5698 0.5181 -0.1284 12
-42.5938 38.7188 2.0078 170
-4.3438 3.9492000000000003 -0.7495 139
-42.5 38.6562 3.3398000000000003 30
-4.3672 3.9726999999999997 -0.6157 38
-28.4531 25.8906 3.1387 83
-4.375 3.9785000000000004 -0.4792 172
-26.125 23.7656 3.707 231
-4.4141 4.0156 -0.34450000000000003 229
-26.5312 24.125 4.6094 27
-26.4375 24.0469 5.4414 251
-0.5908 0.5415 -0.13390000000000002 230
-42.5625 39.0 2.0137 103
-4.3242 3.9629000000000003 -0.7490000000000001 38
-30.4844 27.9375 2.4043 201
-4.3555 3.9901999999999997 -0.6162 214
-28.4844 26.1094 3.1523000000000003 216
-4.3555 3.9922000000000004 -0.479 163
-26.0781 23.8906 3.7129000000000003 162
-4.375 4.0117 -0.3428 87
-25.9688 23.7969 4.5273 101
-26.25 24.0469 5.421900000000001 113
-0.6006 0.5542 -0.1367 161
-0.6611 0.6099 -0.1307 110
-4.3047 3.9707 -0.7476 76
-27.7812 25.625 2.1973 43
-4.3516 4.0156 -0.6177 166
-28.9219 26.6875 3.2108999999999996 203
-4.2969 3.9668 -0.47409999999999997 232
-26.7656 24.6875 3.8223000000000003 47
-4.375 4.0352 -0.3435 3
-25.8594 23.8594 4.5195 91
-26.2188 24.1875 5.4336 29
-0.5728 0.5322 -0.1305 125
-4.793 4.4531 0.2267 112
-4.2734 3.9707 -0.7445999999999999 254
-27.2969 25.3594 2.166 117
-4.3242 4.0156 -0.6157 149
-28.4375 26.4219 3.168 173
-4.2773 3.9726999999999997 -0.4731 29
-26.4531 24.5781 3.7910000000000004 31
-4.3359 4.0312 -0.3418 118
-25.7188 23.9062 4.5117 243
-28.4531 26.4375 5.917999999999999 116
-0.5796 0.5425 -0.1326 253
-4.7773 4.4688 0.2267 17
-4.25 3.9745999999999997 -0.7426999999999999 93
-27.0469 25.3125 2.1523 111
-4.3086 4.0312 -0.6157 247
-28.4844 26.6562 3.1836 242
-4.2578 3.9844 -0.4727 87
-26.4219 24.7188 3.7988 78
-4.293 4.0195 -0.3394 121
-25.6875 24.0312 4.5195 217
-27.4531 25.7031 5.7265999999999995 191
-0.5635 0.5307999999999999 -0.129 33
-4.6445 4.375 0.2211 7
-4.2227 3.9766000000000004 -0.7406999999999999 60
-27.0312 25.4531 2.1582 236
-4.2891 4.0391 -0.6147 206
-26.8906 25.3281 3.0137 134
-4.25 4.0 -0.4731 240
-26.4062 24.875 3.8086 68
-4.2656 4.0156 -0.33840000000000003 134
-25.6094 24.125 4.5195 212
-26.25 24.7188 5.4922 54
-0.5815 0.5513 -0.13390000000000002 9
-4.6133 4.3711 0.22010000000000002 219
-4.2031 3.9844 -0.7397 158
-26.9531 25.5469 2.1582 160
-4.2461 4.0234 -0.6103999999999999 179
-28.5469 27.0625 3.2108999999999996 157
-4.2227 4.0039 -0.4717 115
-26.5156 25.125 3.8339999999999996 148
-4.2617 4.0391 -0.3389 107
-25.7969 24.4531 4.5664 104
-26.1562 24.7969 5.488300000000001 17
-0.5796 0.5537 -0.13390000000000002 23
-4.5508 4.3477 0.218 120
-4.1875 3.998 -0.7393000000000001 247
-42.4688 40.5625 3.4160000000000004 239
-4.2344 4.043 -0.6108 10
-28.4219 27.1406 3.207 97
-4.1953 4.0039 -0.47 134
-26.3438 25.1562 3.8242000000000003 57
-4.2305 4.043 -0.3379 149
-25.5156 24.375 4.5352 17
-25.9062 24.7344 5.457000000000001 192
-0.5977 0.5747 -0.1388 172
-4.5234 4.3477 0.2173 240
-4.1523 3.9922000000000004 -0.7354 23
-42.5312 40.9062 3.4316000000000004 165
-4.207 4.0469 -0.6089 4
-26.6719 25.6406 3.0176 188
-4.1523 3.9922000000000004 -0.4668 52
-28.375 27.2812 4.1328 126
-4.2109 4.0508 -0.33740000000000003 20
-25.625 24.6406 4.5703 123
-25.875 24.8906 5.4688 206
-0.5562 0.5386 -0.129 170
-4.4844 4.3438 0.2162 156
-4.1211 3.9901999999999997 -0.7323999999999999 217
-42.5938 41.25 3.4473000000000003 131
-25.9844 25.1562 2.9512 121
-4.1484 4.0195 -0.4683 170
-28.0938 27.2031 4.1055 96
-4.1914 4.0586 -0.3367 109
-26.0156 25.1875 4.6523 38
-25.75 24.9375 5.4609000000000005 36
-0.5767 0.5625 -0.1346 248
-0.644 0.6279 -0.1307 218
-4.4453 4.3359 0.2151 67
-4.1094 4.0078 -0.7329000000000001 248
-42.6562 41.5938 3.4648000000000003 121
-26.7969 26.125 3.0526999999999997 46
-4.1289 4.0273 -0.4673 68
-26.3594 25.7031 3.8651999999999997 143
-4.168 4.0664 -0.3362 212
-26.1562 25.5 4.6914 89
-0.5552 0.5449 -0.1298 117
-4.4375 4.3555 0.21530000000000002 65
-4.082 4.0117 -0.7304999999999999 76
-4.1445 4.0703 -0.606 42
-26.6719 26.2031 3.0507999999999997 40
-4.1055 4.0312 -0.46630000000000005 212
-26.1406 25.6719 3.8457 60
-4.1445 4.0703 -0.3354 75
-25.9844 25.5156 4.6797 252
-0.5645 0.5581 -0.1326 247
-4.3672 4.3203 0.2126 33
-4.0742 4.0312 -0.7314 98
-60.5 59.8438 4.9492 204
-4.1172 4.0703 -0.604 159
-25.9844 25.7031 2.9824 113
-4.0703 4.0273 -0.4639 111
-25.9844 25.6875 3.8358999999999996 244
-4.125 4.0781 -0.335 85
-25.7656 25.4688 4.6562 241
-0.5566 0.5547 -0.13119999999999998 246
-4.3516 4.3359 0.2126 61
-4.0469 4.0312 -0.7290000000000001 176
-60.0938 59.8438 4.9297 217
-4.1094 4.0938 -0.605 76
-25.7969 25.6875 2.9707 112
-4.043 4.0273 -0.46240000000000003 86
-25.8281 25.7188 3.8262 123
-4.1016 4.0859 -0.3342 225
-25.6719 25.5625 4.6562 246
-0.5547 0.5566 -0.13119999999999998 183
-4.3359 4.3477 0.2126 249
-4.0195 4.0312 -0.7271 115
-59.5938 59.7812 4.9102 236
-4.0898 4.1016 -0.604 78
-25.8281 25.9062 2.9844 52
-4.0273 4.0391 -0.4622 124
-25.7812 25.8594 3.8339999999999996 116
-4.0781 4.0898 -0.3333 139
-25.125 25.1875 4.5703 140
-0.5698 0.5752 -0.1354 144
-4.1094 4.1484 -0.8837999999999999 98
-4.2617 4.3047 0.2097 241
-4.0117 4.0469 -0.7275 65
-59.2188 59.7812 4.8945 154
-4.0664 4.1055 -0.6025 132
-25.9531 26.1875 3.0077999999999996 80
-4.0117 4.0508 -0.4619 223
-27.375 27.625 4.082 206
-4.043 4.0781 -0.33130000000000004 198
-25.0312 25.2812 4.5703 157
-0.5761999999999999 0.5854 -0.1375 137
-4.0547 4.1211 -0.8745 88
-4.2812 4.3477 0.2113 226
-3.9922000000000004 4.0547 -0.7265999999999999 183
-58.7812 59.75 4.875 204
-4.0391 4.1055 -0.6006 208
-25.5 25.9219 2.9668 15
-4.0 4.0664 -0.46240000000000003 30
-26.5469 26.9688 3.9726999999999997 210
-4.0312 4.0977 -0.33149999999999996 133
-26.0312 26.4531 4.7695 120
-0.5600999999999999 0.5732 -0.13390000000000002 237
-3.9922000000000004 4.0859 -0.8643000000000001 202
-4.293 4.3945 0.2126 155
-3.9745999999999997 4.0664 -0.7261 81
-58.375 59.7812 4.8594 61
-4.0234 4.1172 -0.6006 26
-3.9726999999999997 4.0664 -0.4607 140
-26.7656 27.3906 4.0195 20
-4.0273 4.1211 -0.3325 155
-26.375 26.9844 4.8477 146
-0.5415 0.5586 -0.1298 68
-3.9629000000000003 4.0859 -0.8613 113
-4.207 4.3359 0.20920000000000002 103
-3.9433999999999996 4.0664 -0.7231000000000001 22
-57.9688 59.75 4.8398 14
-4.0039 4.1289 -0.6001 204
-3.9452999999999996 4.0664 -0.4592 196
-25.75 26.5469 3.8827999999999996 207
-3.9922000000000004 4.1172 -0.3311 142
-25.7344 26.5312 4.75 123
-0.5562 0.5771000000000001 -0.13390000000000002 163
-3.9648000000000003 4.1172 -0.8652 217
-4.2031 4.3633 0.2097 243
-3.9297000000000004 4.0781 -0.7231000000000001 250
-57.5625 59.75 4.8242 106
-3.9863 4.1367 -0.5996 8
-27.0781 28.1094 3.1855 205
-3.9257999999999997 4.0742 -0.4585 211
-25.6875 26.6719 3.8867000000000003 81
-3.9707 4.1211 -0.33030000000000004 245
-24.9531 25.9062 4.6211 30
-0.5376 0.562 -0.1298 200
-3.9452999999999996 4.125 -0.8637999999999999 158
-4.1875 4.3789 0.2097 241
-3.8926 4.0703 -0.7188 195
-57.125 59.7188 4.8047 156
-3.9589999999999996 4.1406 -0.5977 77
-26.9531 28.1719 3.1816000000000004 169
-3.9082 4.0859 -0.45799999999999996 31
-25.6406 26.8125 3.8945 193
-3.9473000000000003 4.125 -0.3296 159
-24.9688 26.0938 4.6406 207
-0.5439 0.5728 -0.1318 172
-3.9160000000000004 4.125 -0.8608 127
-4.1289 4.3516 0.2076 212
-3.8827999999999996 4.0898 -0.7197 82
-56.6875 59.7188 4.7891 255
-3.9336 4.1445 -0.5957 66
-26.6719 28.0938 3.1601999999999997 35
-3.8964999999999996 4.1055 -0.4585 57
-25.75 27.125 3.9257999999999997 45
-3.9336 4.1445 -0.3298 211
-24.8281 26.1562 4.6328 204
-0.5635 0.5977 -0.1375 22
-3.8926 4.1328 -0.8589 203
-4.1133 4.3672 0.2076 43
-3.8672000000000004 4.1055 -0.7197 149
-56.3125 59.75 4.7734 20
-3.9082 4.1484 -0.5942000000000001 236
-26.5938 28.2188 3.1641000000000004 59
-3.875 4.1094 -0.4578 75
-25.5 27.0625 3.9023000000000003 74
-3.8926 4.1289 -0.3274 3
-24.8281 26.3438 4.6523 250
-0.5508 0.5879 -0.1346 107
-3.8651999999999997 4.125 -0.8554999999999999 108
-4.0898 4.3672 0.2072 97
-3.8438 4.1055 -0.7178 89
-55.9375 59.6875 4.7578 108
-26.4375 28.2344 3.1562 102
-3.8495999999999997 4.1094 -0.45630000000000004 181
-25.4844 27.2031 3.9141000000000004 37
-3.8867000000000003 4.1484 -0.3281 95
-24.7969 26.4688 4.6602 219
-0.5381 0.5781000000000001 -0.1318 40
-3.8438 4.1328 -0.8540000000000001 130
-4.0469 4.3516 0.2057 119
-3.8183999999999996 4.1016 -0.7153 95
-55.5312 59.6875 4.7383 41
-26.4219 28.3906 3.1641000000000004 36
-3.832 4.1172 -0.4558 192
-25.2188 27.1094 3.8867000000000003 223
-3.8632999999999997 4.1523 -0.3271 72
-0.5811 0.6294 -0.1437 60
-3.8223000000000003 4.1367 -0.8525 226
-4.0391 4.375 0.20620000000000002 252
-3.7988 4.1133 -0.7148 164
-55.125 59.6875 4.7227 218
-3.8516000000000004 4.1719 -0.5922999999999999 238
-3.8223000000000003 4.1406 -0.45649999999999996 42
-25.0938 27.1719 3.8827999999999996 28
-3.8418 4.1602 -0.3267 223
-0.5659000000000001 0.6172 -0.14029999999999998 64
-3.7969 4.1406 -0.8501000000000001 220
-4.0156 4.3789 0.2057 127
-3.7754000000000003 4.1172 -0.7129000000000001 155
-54.7188 59.6875 4.707 162
-3.8202999999999996 4.168 -0.5893999999999999 240
-3.8026999999999997 4.1445 -0.4558 161
-25.7969 28.1406 4.0078 246
-3.8301 4.1758 -0.32689999999999997 188
-3.8105 4.1836 -0.9902 89
-3.7676 4.1367 -0.8467 215
-3.9961 4.3867 0.2054 164
-3.7656 4.1328 -0.7139 172
-54.375 59.6875 4.6953 205
-3.8047000000000004 4.1758 -0.5893999999999999 56
-3.7773000000000003 4.1484 -0.4546 116
-24.9531 27.3906 3.8906 97
-3.8086 4.1797 -0.3264 11
-4.5039 4.9414 -0.07730000000000001 115
-3.7733999999999996 4.168 -0.9843999999999999 164
-3.7656 4.1602 -0.8491 223
-3.9551 4.3711 0.204 199
-3.7539 4.1484 -0.7143999999999999 156
-54.0 59.6562 4.6797 44
-3.7910000000000004 4.1914 -0.5893999999999999 100
-53.9062 59.5625 6.5586 166
-3.7577999999999996 4.1523 -0.4536 243
-25.75 28.4688 4.0312 247
-3.8007999999999997 4.1992 -0.32689999999999997 239
-4.4844 4.957 -0.07730000000000001 60
-3.7031 4.1211 -0.9697 210
-3.7441000000000004 4.168 -0.8477 189
-3.9414 4.3867 0.20420000000000002 206
-3.7168 4.1367 -0.71 41
-53.5938 59.625 4.6602 56
-3.7733999999999996 4.1992 -0.5889 243
-53.5 59.5312 6.5352 25
-3.7461 4.168 -0.45409999999999995 105
-25.6562 28.5469 4.0273 189
-3.7676 4.1953 -0.32539999999999997 23
-3.6895 4.1328 -0.9697 145
-3.7285000000000004 4.1758 -0.8472 147
-3.9219 4.3945 0.2039 251
-3.7012 4.1484 -0.7095 238
-53.2188 59.625 4.6484 51
-3.7637 4.2188 -0.5893999999999999 120
-53.125 59.5312 6.515599999999999 73
-3.7245999999999997 4.1719 -0.4531 189
-3.7558999999999996 4.207 -0.32539999999999997 246
-4.5859 5.136699999999999 -0.0797 110
-3.6523000000000003 4.125 -0.9639 237
-3.7089999999999996 4.1875 -0.8462000000000001 136
-3.918 4.4258 0.2046 18
-3.6855 4.1602 -0.7095 189
-52.7812 59.5938 4.6289 3
-3.7207 4.2031 -0.5854 221
-52.75 59.5625 6.4961 49
-3.707 4.1875 -0.4531 255
-3.7305 4.2109 -0.3247 67
-4.5469 5.1328 -0.0793 182
-3.6562 4.1562 -0.9688 204
-3.6776999999999997 4.1836 -0.8428 78
-3.8827999999999996 4.4141 0.20350000000000001 182
-3.6699 4.1719 -0.7095 145
-52.4375 59.625 4.6172 137
-3.6875 4.1914 -0.5820000000000001 206
-52.375 59.5312 6.4727 143
-3.6797000000000004 4.1836 -0.4514 249
-3.7207 4.2305 -0.32520000000000004 58
-3.6348000000000003 4.1602 -0.9668000000000001 76
-3.6660000000000004 4.1992 -0.8432999999999999 3
-3.8495999999999997 4.4062 0.2025 191
-3.6445 4.1719 -0.7070000000000001 125
-52.0625 59.625 4.6016 10
-3.6738 4.2031 -0.5820000000000001 149
-51.9688 59.5 6.449199999999999 86
-3.6641000000000004 4.1953 -0.4512 117
-3.7148000000000003 4.2539 -0.3259 29
-3.6132999999999997 4.1641 -0.9648 239
-3.6562 4.2109 -0.8438 226
-3.8301 4.4141 0.2023 193
-3.6191000000000004 4.1719 -0.7051000000000001 52
-51.7188 59.625 4.5898 124
-3.6562 4.2148 -0.5820000000000001 13
-51.6562 59.5312 6.4336 65
-3.6504000000000003 4.207 -0.4512 126
-3.6816000000000004 4.2422 -0.32420000000000004 43
-3.5976999999999997 4.1758 -0.9648 24
-3.6406 4.2266 -0.8438 249
-3.8047000000000004 4.418 0.2018 127
-3.6113 4.1914 -0.7061 90
-51.3125 59.5625 4.5703 143
-3.6308999999999996 4.2148 -0.5801 155
-51.25 59.5 6.4140999999999995 11
-3.6367000000000003 4.2227 -0.4517 46
-3.6562 4.2461 -0.3232 132
-3.5683999999999996 4.1719 -0.9604 90
-3.6151999999999997 4.2266 -0.8418000000000001 133
-3.8026999999999997 4.4453 0.2025 68
-3.5957 4.2031 -0.7061 203
-50.9688 59.5938 4.5586 71
-3.6113 4.2227 -0.5791 109
-50.875 59.5 6.390599999999999 15
-3.6172000000000004 4.2305 -0.4509 2
-3.6445 4.2617 -0.3235 158
-3.5664 4.1992 -0.9639 252
-3.5879000000000003 4.2227 -0.8384 182
-3.7773000000000003 4.4453 0.20190000000000002 41
-3.5858999999999996 4.2227 -0.7070000000000001 120
-50.5938 59.5938 4.5469 60
-3.5957 4.2344 -0.5791 198
-50.5 59.4688 6.3672 67
-3.5957 4.2344 -0.45 182
-3.6406 4.2852 -0.3245 56
-3.5625 4.2227 -0.9668000000000001 69
-3.5781 4.2422 -0.8398 3
-3.75 4.4492 0.2014 145
-3.5566000000000004 4.2188 -0.7045999999999999 110
-50.2188 59.5625 4.5312 159
-3.5839999999999996 4.25 -0.5796 165
-50.1562 59.4688 6.3515999999999995 230
-3.5702999999999996 4.2344 -0.4487 52
-3.623 4.2969 -0.32420000000000004 245
-3.5254000000000003 4.207 -0.9604 192
-3.5586 4.25 -0.8384 53
-3.7363 4.4609 0.2014 26
-3.5410000000000004 4.2266 -0.7041 52
-49.8438 59.5312 4.5156 170
-3.5683999999999996 4.2617 -0.5796 98
-49.8125 59.4688 6.332000000000001 10
-3.5566000000000004 4.2461 -0.4487 248
-3.6113 4.3125 -0.3245 78
-3.5058999999999996 4.2148 -0.9590000000000001 25
-3.5547000000000004 4.2734 -0.8408 229
-3.7324 4.4844 0.20190000000000002 114
-3.5214999999999996 4.2344 -0.7026 4
-49.5 59.5 4.5 193
-3.5449 4.2617 -0.5776 193
-49.4062 59.4062 6.3086 81
-3.543 4.2578 -0.4487 251
-3.5781 4.3008 -0.32280000000000003 150
-3.4844 4.2188 -0.9575 230
-3.5293 4.2734 -0.8384 107
-3.7031 4.4844 0.20129999999999998 157
-3.5077999999999996 4.2461 -0.7031000000000001 109
-49.1562 59.5 4.4883 160
-3.5176 4.2617 -0.5761999999999999 114
-49.0625 59.4375 6.292999999999999 127
-3.5273000000000003 4.2695 -0.4487 186
-3.5586 4.3086 -0.3225 115
-3.4668 4.2266 -0.9565 112
-3.5117000000000003 4.2852 -0.8384 194
-3.7051 4.5195 0.2023 199
-3.4941000000000004 4.2617 -0.7031000000000001 138
-48.8125 59.5312 4.4766 212
-3.5117000000000003 4.2852 -0.5776 197
-48.7188 59.4062 6.269500000000001 64
-3.5058999999999996 4.2773 -0.44799999999999995 69
-3.5488 4.3281 -0.32299999999999995 95
-3.4531 4.2422 -0.9570000000000001 232
-3.4922000000000004 4.2891 -0.8369 120
-3.6816000000000004 4.5234 0.2018 117
-3.4785000000000004 4.2734 -0.7031000000000001 140
-48.4375 59.5 4.4609 67
-3.498 4.2969 -0.5776 17
-48.3438 59.4062 6.2539 215
-3.4901999999999997 4.2891 -0.44799999999999995 214
-3.5351999999999997 4.3398 -0.32299999999999995 232
-3.6523000000000003 4.4883 -0.0668 2
-3.4316000000000004 4.2461 -0.9551000000000001 231
-3.4785000000000004 4.3047 -0.8373999999999999 71
-3.6719 4.543 0.2023 168
-3.4551 4.2734 -0.7017 132
-48.0938 59.5 4.4492 54
-3.4785000000000004 4.3047 -0.5771000000000001 254
-48.0 59.4062 6.234400000000001 61
-3.4766000000000004 4.3008 -0.44799999999999995 57
-20.25 25.0469 3.3808999999999996 111
-3.5039 4.332 -0.3215 217
-3.4043 4.2422 -0.9517 73
-3.4668 4.3203 -0.8379000000000001 39
-3.6641000000000004 4.5664 0.2026 227
-3.4414 4.2852 -0.7017 107
-47.75 59.5 4.4336 156
-3.457 4.3047 -0.5757 162
-47.6875 59.4375 6.2227 182
-3.4668 4.3203 -0.4487 250
-20.2188 25.2031 3.3906 58
-3.5077999999999996 4.3711 -0.3235 55
-3.3827999999999996 4.2461 -0.9497 230
-3.4355 4.3125 -0.8345 34
-3.6483999999999996 4.5781 0.2026 37
-3.4257999999999997 4.2969 -0.7017 34
-47.4062 59.4688 4.4219 147
-3.4395 4.3164 -0.5757 246
-18.7031 23.4688 2.4473 70
-3.4492000000000003 4.3281 -0.4482 113
-20.2344 25.3906 3.4082 151
-3.4844 4.3711 -0.3225 33
-18.9375 23.7656 4.6289 87
-3.3691000000000004 4.2578 -0.9501999999999999 156
-3.4238 4.3281 -0.835 183
-3.6172000000000004 4.5742 0.2018 90
-3.4141000000000004 4.3164 -0.7021 249
-47.0312 59.4688 4.4102 73
-3.4238 4.3281 -0.5757 146
-46.9688 59.375 6.1836 110
-3.4257999999999997 4.332 -0.4473 3
-19.7344 24.9531 3.3398000000000003 72
-3.4668 4.3828 -0.3225 41
-18.8281 23.7969 4.6211 52
-3.5898000000000003 4.5391 -0.0668 220
-3.3535000000000004 4.2695 -0.9501999999999999 211
-3.4101999999999997 4.3398 -0.8354 218
-3.6172000000000004 4.6055 0.2026 203
-3.3983999999999996 4.3242 -0.7021 29
-46.7188 59.4688 4.3984 146
-3.4101999999999997 4.3438 -0.5757 139
-18.4844 23.5312 2.4395 178
-3.4101999999999997 4.3438 -0.4473 122
-19.7344 25.125 3.3535000000000004 234
-3.4629000000000003 4.4062 -0.3235 177
-18.8594 24.0 4.6484 10
-3.332 4.2695 -0.9478 8
-3.4004000000000003 4.3555 -0.8359000000000001 89
-3.6113 4.6289 0.2032 192
-3.373 4.3203 -0.6997 145
-46.375 59.4375 4.3828 28
-3.4023000000000003 4.3594 -0.5767 11
-18.4531 23.6406 2.4453 116
-3.3926 4.3477 -0.4468 205
-19.4844 24.9531 3.3223000000000003 53
-3.4433999999999996 4.4102 -0.32299999999999995 121
-18.8906 24.2031 3.9433999999999996 88
-18.7812 24.0625 4.6484 16
-3.3125 4.2734 -0.9458 226
-3.3457 4.3164 -0.8262 187
-3.5858999999999996 4.6289 0.2026 230
-3.3594 4.3359 -0.7001999999999999 12
-46.0312 59.375 4.3672 42
-3.377 4.3594 -0.5747 198
-18.75 24.2031 2.498 86
-3.3808999999999996 4.3633 -0.4473 229
-19.5625 25.25 3.3516000000000004 118
-3.4238 4.418 -0.3225 49
-18.7656 24.2031 3.9336 255
-3.5137 4.5312 -0.1985 139
-3.5449 4.5742 -0.0668 134
-3.3047000000000004 4.293 -0.9481999999999999 159
-3.3183999999999996 4.3125 -0.8231999999999999 194
-3.6016000000000004 4.6797 0.2045 67
-3.3535000000000004 4.3594 -0.7017 33
-45.7188 59.4375 4.3594 158
-3.3632999999999997 4.375 -0.5752 183
-18.625 24.2188 2.4922 152
-19.2969 25.0938 3.3223000000000003 23
-3.4004000000000003 4.4219 -0.3218 222
-18.6875 24.2969 3.9375 222
-3.4452999999999996 4.4805 -0.1956 49
-17.8125 23.1562 4.4453 46
-3.4668 4.5078 -0.06559999999999999 16
-3.2891000000000004 4.3047 -0.9481999999999999 106
-3.5117000000000003 4.5977 0.0668 115
-3.293 4.3125 -0.8208 133
-3.5938 4.707 0.205 116
-3.3281 4.3594 -0.7001999999999999 171
-45.375 59.4062 4.3477 9
-18.5312 24.2656 2.4902 234
-3.375 4.418 -0.4507 99
-19.1094 25.0156 3.3047000000000004 158
-3.3945 4.4453 -0.32280000000000003 55
-17.5938 23.0312 3.7226999999999997 95
-3.4160000000000004 4.4727 -0.19469999999999998 170
-17.6562 23.125 4.4297 157
-3.4433999999999996 4.5078 -0.0654 154
-3.2793 4.3281 -0.9501999999999999 173
-3.502 4.6211 0.0669 215
-3.2773000000000003 4.3242 -0.8212999999999999 43
-3.5801 4.7266 0.2052 161
-3.3145 4.3711 -0.7001999999999999 89
-45.0312 59.4062 4.3359 197
-3.3301 4.3906 -0.5747 80
-18.3594 24.2188 2.4785 125
-3.377 4.4531 -0.45289999999999997 88
-18.9062 24.9531 3.2851999999999997 27
-3.373 4.4492 -0.322 146
-17.9375 23.6719 3.8145 123
-3.4023000000000003 4.4883 -0.1949 97
-17.5781 23.2031 4.4336 15
-3.4219 4.5156 -0.0654 38
-3.2637 4.3359 -0.9497 26
-3.4844 4.6289 0.0668 248
-3.2773000000000003 4.3555 -0.8247 56
-3.5664 4.7383 0.2053 247
-3.2910000000000004 4.375 -0.6987000000000001 242
-44.7188 59.4375 4.3242 60
-18.1719 24.1562 2.4668 184
-3.3457 4.4453 -0.4509 112
-18.7656 24.9375 3.2754000000000003 96
-3.3476999999999997 4.4492 -0.32130000000000003 77
-17.7969 23.6562 3.8026999999999997 36
-3.3945 4.5117 -0.1953 232
-17.6094 23.3906 4.457 49
-3.4082 4.5312 -0.0654 187
-3.25 4.3516 -0.9501999999999999 162
-3.4745999999999997 4.6523 0.067 87
-3.2695 4.375 -0.8267 197
-3.5683999999999996 4.7773 0.2064 50
-3.2832 4.3945 -0.7001999999999999 251
-44.375 59.375 4.3086 208
-3.3202999999999996 4.4453 -0.5786 210
-44.2812 59.3125 6.042999999999999 204
-3.3242000000000003 4.4492 -0.45 96
-17.4375 23.3438 3.0586 114
-3.3379000000000003 4.4688 -0.3218 22
-17.7812 23.7969 3.8145 178
-3.3827999999999996 4.5273 -0.1956 162
-17.8906 23.9531 4.5508 235
-3.4023000000000003 4.5547 -0.06559999999999999 182
-3.2461 4.375 -0.9531000000000001 125
-3.4492000000000003 4.6523 0.0668 179
-3.2577999999999996 4.3945 -0.8276 125
-3.5625 4.8047 0.2072 108
-3.2812 4.4258 -0.7031000000000001 220
-44.0312 59.4062 4.3008 26
-3.3047000000000004 4.457 -0.5786 172
-43.9688 59.2812 6.0273 31
-3.3164 4.4727 -0.4512 242
-17.7969 24.0 3.1367000000000003 146
-3.3339999999999996 4.4961 -0.32299999999999995 255
-17.75 23.9219 3.8262 232
-3.3613 4.5352 -0.1953 223
-3.3983999999999996 4.582 -0.0658 148
-3.2441000000000004 4.4062 -0.9575 13
-3.4414 4.6758 0.067 192
-3.2441000000000004 4.4062 -0.8276 164
-3.5507999999999997 4.8242 0.20739999999999997 64
-3.2676 4.4375 -0.7031000000000001 135
-43.7188 59.4062 4.2891 209
-3.2832 4.4609 -0.5776 230
-43.6562 59.2812 6.011699999999999 165
-3.2988 4.4805 -0.4507 12
-17.375 23.6094 3.0762 240
-3.3223000000000003 4.5117 -0.3232 165
-18.3125 24.875 3.9668 196
-3.3516000000000004 4.5547 -0.1957 11
-3.3906 4.6055 -0.066 10
-3.2441000000000004 4.4414 -0.9623999999999999 173
-3.4629000000000003 4.7383 0.0677 209
-3.2539 4.4531 -0.8345 249
-3.5526999999999997 4.8633 0.20850000000000002 160
-3.2676 4.4688 -0.7065 55
-43.4062 59.375 4.2773 150
-3.2773000000000003 4.4844 -0.5791 86
-43.3438 59.2812 5.9961 213
-3.2733999999999996 4.4805 -0.4495 54
-17.3281 23.7188 3.0839999999999996 163
-3.3202999999999996 4.543 -0.3247 241
-18.2344 24.9375 3.9688 184
-3.3574 4.5938 -0.19690000000000002 134
-17.875 24.4531 4.6133 82
-3.3983999999999996 4.6484 -0.0665 79
-3.2422000000000004 4.4648 -0.9658 219
-3.4785000000000004 4.793 0.0684 50
-3.2558999999999996 4.4844 -0.8384 98
-3.5781 4.9297 0.2109 61
-3.2676 4.5 -0.71 133
-43.0938 59.3438 4.2656 242
-17.8281 24.5625 2.4746 201
-17.2188 23.7188 3.0762 7
-3.3183999999999996 4.5703 -0.3259 37
-18.125 24.9688 3.9629000000000003 244
-3.3651999999999997 4.6328 -0.1981 237
-17.8438 24.5781 4.625 160
-3.3887 4.668 -0.0665 207
-3.248 4.5039 -0.9717 115
-3.2598000000000003 4.5195 -0.8432999999999999 200
-3.5918 4.9805 0.2126 219
-3.2558999999999996 4.5156 -0.7109000000000001 65
-42.7812 59.3438 4.2539 189
-3.2949 4.5703 -0.5874 255
-17.75 24.6094 2.4746 82
-3.2988 4.5742 -0.457 241
-17.1719 23.8281 3.082 90
-3.3105 4.5898 -0.3267 39
-18.3125 25.4062 4.0234 167
-3.3651999999999997 4.668 -0.1991 64
-17.75 24.625 4.6211 212
-3.4082 4.7266 -0.0673 161
-3.2598000000000003 4.5586 -0.9804999999999999 148
-3.2754000000000003 4.5781 -0.8521 225
-3.5742000000000003 4.9961 0.2126 158
-3.2714999999999996 4.5703 -0.7178 98
-42.4375 59.3125 4.2422 173
-3.2851999999999997 4.5938 -0.5889 151
-18.6094 26.0156 2.6094 130
-3.3026999999999997 4.6172 -0.46 21
-17.3125 24.2031 3.123 147
-3.3066000000000004 4.625 -0.3281 134
-17.375 24.2812 3.8358999999999996 56
-3.4257999999999997 4.7891 -0.20370000000000002 59
-17.6406 24.6562 4.6172 173
-3.2832 4.625 -0.9926999999999999 134
-3.2891000000000004 4.6328 -0.8599 235
-3.6132999999999997 5.0898 0.2162 101
-3.2695 4.6016 -0.7206999999999999 129
-42.125 59.3125 4.2305 159
-3.2870999999999997 4.6289 -0.5922999999999999 180
-18.5156 26.0781 2.6094 163
-3.2969 4.6445 -0.46140000000000003 97
-17.3594 24.4531 3.1483999999999996 61
-3.3476999999999997 4.7109 -0.3337 11
-17.0938 24.0625 3.7910000000000004 23
-17.2656 24.3125 4.543 198
-3.2870999999999997 4.6641 -0.9984999999999999 96
-3.2851999999999997 4.6641 -0.8633 148
-3.6523000000000003 5.1836 0.21969999999999998 195
-3.2793 4.6523 -0.7271 210
-41.7812 59.3125 4.2188 185
-41.7188 59.2188 5.9140999999999995 1
-3.2969 4.6797 -0.4639 135
-17.1875 24.3906 3.1308999999999996 5
-3.3476999999999997 4.75 -0.3354 30
-17.0625 24.2188 3.8047000000000004 27
-17.125 24.2969 4.5273 59
-3.2949 4.7109 -1.0068000000000001 62
-3.3125 4.7344 -0.8745 199
-3.6757999999999997 5.2578 0.22219999999999998 92
-3.2910000000000004 4.7031 -0.7329000000000001 31
-41.4688 59.2812 4.207 162
-3.332 4.7617 -0.6064 117
-18.6719 26.7031 2.6582 216
-3.3086 4.7305 -0.4678 0
-17.0625 24.3906 3.125 18
-3.332 4.7617 -0.3354 83
-16.7656 23.9844 3.7577999999999996 161
-16.9844 24.2969 4.5156 29
-3.3086 4.7656 -1.0156 69
-3.3418 4.8125 -0.8867 66
-3.3086 4.7656 -0.7406999999999999 172
-41.1562 59.2812 4.1953 70
-3.3281 4.793 -0.6089 217
-18.5625 26.7344 2.6543 247
-3.3145 4.7734 -0.47119999999999995 77
-17.0156 24.5 3.1308999999999996 243
-3.3632999999999997 4.8438 -0.3403 249
-16.3281 23.5156 3.6776999999999997 69
-16.8906 24.3281 4.5117 254
-16.5625 23.8594 5.1172 4
-3.3125 4.8086 -1.0225 41
-3.3281 4.832 -0.8881999999999999 131
-3.3164 4.8125 -0.7461 68
-40.875 59.3438 4.1914 36
-3.3105 4.8047 -0.6089 158
-17.8594 25.9062 2.5664 223
-3.3223000000000003 4.8242 -0.4746 122
-16.9531 24.6094 3.1348000000000003 63
-3.3613 4.8789 -0.342 141
-16.4062 23.8125 3.7129000000000003 132
-16.875 24.4844 4.5273 74
-16.4688 23.9062 5.1133 145
-3.3125 4.8398 -1.0264 136
-3.3262 4.8594 -0.8916 43
-3.3262 4.8594 -0.752 147
-3.3651999999999997 4.918 -0.6215999999999999 17
-17.75 25.9375 2.5645 221
-3.3574 4.9062 -0.4819 247
-16.9531 24.7812 3.1523000000000003 123
-3.375 4.9297 -0.345 180
-16.3281 23.8594 3.7129000000000003 219
-16.4219 23.9844 4.4258 234
-16.3594 23.9062 5.1016 69
-3.3202999999999996 4.8867 -1.0342 81
-3.3301 4.9023 -0.897 33
-3.3164 4.8828 -0.7534000000000001 88
-3.377 4.9688 -0.627 203
-17.7031 26.0625 2.5702999999999996 95
-3.3495999999999997 4.9297 -0.4832 82
-16.8438 24.7812 3.1445 219
-3.3926 4.9922 -0.34840000000000004 69
-16.0938 23.6719 3.6776999999999997 140
-16.5938 24.4062 4.4922 152
-16.3281 24.0156 5.1133 66
-3.3574 4.9805 -1.0518 52
-3.3223000000000003 4.9258 -0.8994 235
-3.3242000000000003 4.9297 -0.7593000000000001 33
-16.7812 24.8906 1.7441 209
-3.3867000000000003 5.0234 -0.6323 86
-17.625 26.1406 2.5723000000000003 120
-3.3594 4.9805 -0.48710000000000003 120
-16.7188 24.7969 3.1387 25
-3.4082 5.0547 -0.3521 55
-15.906199999999998 23.5938 3.6543 240
-15.7656 23.3906 4.293 177
-16.2969 24.1719 5.1328 1
-3.3379000000000003 4.9883 -1.0508 96
-3.3789 5.0508 -0.9198999999999999 128
-3.8613 5.769500000000001 0.24059999999999998 213
-3.3164 4.957 -0.7617 236
-16.6719 24.9219 1.7422 164
-3.377 5.0469 -0.6333 62
-17.5 26.1406 2.5664 33
-3.373 5.0391 -0.4917 83
-15.4219 23.0469 2.9101999999999997 72
-3.4120999999999997 5.0977 -0.3542 143
-15.835899999999999 23.6719 3.6582 127
-15.6875 23.4531 4.2969 199
-16.2656 24.3125 5.1523 165
-3.3358999999999996 5.0273 -1.0566 73
-3.373 5.082 -0.9238 25
-3.3164 4.9961 -0.7656000000000001 235
-16.5781 24.9688 1.7412 55
-3.3672000000000004 5.0703 -0.6353 99
-17.4062 26.2188 2.5664 123
-3.4023000000000003 5.125 -0.4988 166
-15.3125 23.0625 2.9043 4
-3.4257999999999997 5.1602 -0.3577 73
-16.1406 24.2969 3.7461 236
-15.5781 23.4688 4.2891 192
-14.9375 22.5 4.7539 186
-3.3926 5.1484000000000005 -1.0801 146
-3.4512 5.238300000000001 -0.9497 220
-3.3906 5.144500000000001 -0.7870999999999999 63
-16.5156 25.0625 1.7431999999999999 175
-3.375 5.1211 -0.6401 97
-17.3281 26.2969 2.5683999999999996 175
-3.4276999999999997 5.203099999999999 -0.5054 98
-15.281199999999998 23.1875 2.9141000000000004 115
-3.4863 5.2890999999999995 -0.366 233
-16.7344 25.4062 3.9082 56
-15.3906 23.3594 4.2617 252
-14.8906 22.5938 4.7656 114
-3.4199 5.230499999999999 -1.0947 71
-3.3945 5.1914 -0.792 113
-3.3848000000000003 5.175800000000001 -0.6455 170
-15.523399999999999 23.7344 2.3125 247
-3.4648000000000003 5.296900000000001 -0.5136999999999999 219
-15.226600000000001 23.2812 2.9199 147
-3.4668 5.300800000000001 -0.366 122
-16.7344 25.5938 3.9276999999999997 61
-14.7578 22.5625 4.1055 117
-16.2031 24.7656 5.2109000000000005 64
-3.4297000000000004 5.2852 -1.1035 115
-3.4473000000000003 5.3125 -0.9590000000000001 117
-3.4297000000000004 5.2852 -0.8047 172
-16.1719 24.9062 1.7256 171
-3.4062 5.25 -0.6533 167
-16.2344 25.0156 2.4336 45
-3.4629000000000003 5.3359000000000005 -0.5161 212
-15.0703 23.2188 2.9062 202
-3.4492000000000003 5.3125 -0.366 166
-16.9688 26.1562 4.0039 95
-14.7031 22.6562 4.1133 204
-16.1875 24.9375 5.234400000000001 227
-3.4473000000000003 5.355499999999999 -1.1152 136
-3.4688 5.386699999999999 -0.8188 80
-16.0781 24.9688 1.7256 4
-3.4961 5.4297 -0.6738 242
-17.0312 26.4531 2.5664 89
-3.4707 5.390599999999999 -0.52 249
-15.8594 24.625 3.0742000000000003 87
-3.4707 5.390599999999999 -0.3704 199
-15.1328 23.5 3.5898000000000003 118
-3.7108999999999996 5.761699999999999 -0.2375 187
-15.093800000000002 23.4375 4.2422 84
-14.625 22.7031 4.7539 106
-3.4922000000000004 5.4648 -1.1357 68
-3.4629000000000003 5.417999999999999 -0.8218000000000001 160
-37.875 59.2812 4.0898 194
-3.6074 5.644500000000001 -0.6997 212
-15.2969 23.9375 2.3164 182
-3.4863 5.457000000000001 -0.5254 38
-15.0078 23.4844 2.9238 42
-3.5195 5.5078 -0.3774 205
-15.1172 23.6562 3.6055 142
-3.6933999999999996 5.7812 -0.2378 85
-15.023399999999999 23.5156 4.25 230
-14.5781 22.8125 4.7656 8
-3.4863 5.4961 -1.1396 130
-3.5 5.519500000000001 -0.9897 117
-3.502 5.519500000000001 -0.8354 232
-15.601600000000001 24.5938 1.6924000000000001 129
-3.5801 5.644500000000001 -0.6978 90
-17.4531 27.5312 2.6582 4
-3.498 5.515599999999999 -0.5297999999999999 119
-16.3594 25.7812 3.2051 177
-14.914100000000001 23.5156 3.5762 234
-3.6895 5.8164 -0.2386 159
-14.7578 23.2656 4.1953 77
-14.468800000000002 22.8125 4.7578 36
-3.4922000000000004 5.546900000000001 -1.1484 90
-3.5332 5.609400000000001 -1.0039 41
-3.5957 5.707000000000001 -0.8623000000000001 186
-15.523399999999999 24.6562 1.6924000000000001 182
-3.5176 5.5859000000000005 -0.6890000000000001 146
-14.7969 23.5 2.2637 80
-3.5332 5.609400000000001 -0.5381 1
-14.6875 23.3281 2.8926 92
-16.0 25.4219 3.8594 157
-3.6699 5.828099999999999 -0.2386 175
-14.148399999999999 22.4688 4.043 98
-14.460899999999999 22.9688 4.7773 255
-3.5098000000000003 5.6172 -1.1602 96
-3.5781 5.7265999999999995 -1.0234 19
-3.5664 5.707000000000001 -0.8604 255
-37.0 59.2188 4.0586 187
-14.726600000000001 23.5625 2.2656 63
-3.5195 5.6328 -0.5390999999999999 176
-14.6094 23.3906 2.8945 100
-3.5273000000000003 5.644500000000001 -0.3845 53
-14.023399999999999 22.4375 3.3983999999999996 255
-3.6483999999999996 5.8398 -0.2386 104
-14.2031 22.7188 4.0781 233
-14.4219 23.0781 4.7891 19
-3.9882999999999997 6.4297 -1.3271000000000002 158
-3.5273000000000003 5.6875 -0.8554999999999999 192
-36.7188 59.2188 4.0508 218
-3.5781 5.765599999999999 -0.7084999999999999 195
-14.7031 23.7031 2.2754 11
-3.5195 5.675800000000001 -0.542 77
-14.648399999999999 23.625 2.9160000000000004 54
-15.6172 25.1719 3.8047000000000004 62
-3.6816000000000004 5.9375 -0.2422 89
-14.2344 22.9531 4.1133 132
-14.539100000000001 23.4375 4.8555 25
-3.9668 6.449199999999999 -1.3271000000000002 196
-3.625 5.890599999999999 -1.0488 66
-3.582 5.8203 -0.8740000000000001 127
-36.4375 59.25 4.043 47
-3.5918 5.8398 -0.7158 176
-14.664100000000001 23.8281 2.2812 161
-3.5526999999999997 5.7773 -0.5503 196
-14.773399999999999 24.0156 2.9589999999999996 11
-15.460899999999999 25.1406 3.7910000000000004 107
-13.906199999999998 22.5938 4.0391 200
-14.1797 23.0625 4.7656 197
-3.9433999999999996 6.4609000000000005 -1.3271000000000002 192
-3.6601999999999997 5.9961 -1.0645 143
-4.082 6.6914 0.272 54
-3.625 5.9414 -0.8896 100
-36.125 59.1875 4.0312 201
-16.6562 27.2969 2.6094 25
-3.6094 5.9140999999999995 -0.5625 188
-14.601600000000001 23.9219 2.9395 88
-3.6132999999999997 5.917999999999999 -0.40090000000000003 132
-15.5469 25.4688 3.832 7
-14.0078 22.9531 4.0938 7
-14.351600000000001 23.5156 4.8477 148
-3.9199 6.4765999999999995 -1.3271000000000002 122
-3.7108999999999996 6.1328 -1.0859 47
-3.6523000000000003 6.0352 -0.9018999999999999 162
-15.273399999999999 25.2344 1.7138999999999998 170
-16.4844 27.2344 2.5976999999999997 173
-3.6191000000000004 5.980499999999999 -0.5674 54
-14.2578 23.5469 2.8887 27
-15.2422 25.1719 3.7812 177
-13.8672 22.9062 4.0781 63
-14.156199999999998 23.375 4.8125 255
-3.8926 6.480499999999999 -1.3262 249
-3.7558999999999996 6.2539 -1.1055 173
-3.6562 6.0859000000000005 -0.9081999999999999 67
-15.148399999999999 25.2188 1.709 249
-16.6094 27.6406 2.6308999999999996 204
-3.6699 6.109400000000001 -0.5786 90
-14.156199999999998 23.5781 2.8848000000000003 187
-14.210899999999999 23.6562 3.5449 200
-13.789100000000001 22.9531 4.0781 56
-13.960899999999999 23.25 4.7734 40
-3.8651999999999997 6.484400000000001 -1.3232 51
-3.6776999999999997 6.167999999999999 -0.9179999999999999 99
-3.6855 6.1797 -0.752 97
-3.6504000000000003 6.1211 -0.5786 19
-14.375 24.1094 2.9452999999999996 195
-15.1172 25.3594 3.793 225
-3.7969 6.3672 -0.2571 69
-13.6953 22.9844 4.0742 85
-13.9531 23.4062 4.7969 95
-3.8438 6.4961 -1.3241999999999998 134
-3.7031 6.2578 -0.9301999999999999 11
-14.0781 23.7969 1.6055000000000001 172
-3.7305 6.3047 -0.5947 3
-15.5469 26.2812 3.2051 169
-15.4531 26.1094 3.8983999999999996 14
-3.8105 6.4414 -0.2595 139
-13.4531 22.75 4.0234 93
-3.9336 6.6484000000000005 -0.0894 201
-15.0703 25.4688 5.2109000000000005 84
-3.8202999999999996 6.511699999999999 -1.3241999999999998 135
-4.3555 7.425800000000001 -1.3066 175
-3.7324 6.359400000000001 -0.9434 108
-14.0703 23.9844 1.6152000000000002 164
-14.085899999999999 24.0 2.2695 245
-3.7441000000000004 6.3828 -0.6006 186
-15.414100000000001 26.2656 3.1973000000000003 231
-13.773399999999999 23.4844 3.4961 102
-3.8613 6.582000000000001 -0.2646 221
-13.460899999999999 22.9375 4.0508 195
-13.468800000000002 22.9531 4.6875 214
-3.8066000000000004 6.542999999999999 -1.3271000000000002 252
-4.3281 7.4375 -1.3056999999999999 138
-3.7910000000000004 6.515599999999999 -0.9643999999999999 90
-14.0781 24.1875 1.626 74
-3.8457 6.609400000000001 -0.7988 19
-14.0703 24.1719 2.2812 1
-3.7851999999999997 6.5 -0.6108 81
-15.375 26.4062 3.207 83
-13.6953 23.5312 3.4961 66
-3.8808999999999996 6.667999999999999 -0.2676 76
-13.335899999999999 22.9219 4.0352 180
-13.414100000000001 23.0469 4.6953 87
-3.7733999999999996 6.5352 -1.3232 90
-4.3008 7.4453 -1.3047 117
-3.8086 6.5977 -0.9741 191
-14.0703 24.375 1.6347999999999998 228
-3.8613 6.6875 -0.627 32
-15.4844 26.8281 3.25 80
-14.6094 25.2969 3.752 143
-3.9004000000000003 6.7578 -0.2705 73
-13.2422 22.9375 4.0312 179
-13.085899999999999 22.6719 4.6055 154
-3.7382999999999997 6.5273 -1.3193000000000001 58
-4.2812 7.480499999999999 -1.3075999999999999 93
-3.873 6.761699999999999 -0.9965999999999999 92
-3.8379000000000003 6.699199999999999 -0.627 57
-15.414100000000001 26.9062 3.2558999999999996 81
-14.5156 25.3438 3.752 199
-3.9805 6.949199999999999 -0.2778 228
-13.625 23.7812 4.1719 240
-13.0547 22.7969 4.625 209
-3.7148000000000003 6.5390999999999995 -1.3184 75
-4.2383 7.453099999999999 -1.3008000000000002 59
-3.8906 6.8477 -1.0078 148
-3.9160000000000004 6.890599999999999 -0.8281000000000001 10
-14.6328 25.75 2.416 170
-3.8555 6.7812 -0.6338 106
-14.9531 26.3125 3.1757999999999997 242
-3.8495999999999997 6.7734000000000005 -0.4507 35
-14.4453 25.4219 3.7558999999999996 155
-13.523399999999999 23.7969 4.168 122
-13.5 23.75 4.8086 151
-3.7012 6.5625 -1.3213 74
-4.2227 7.488300000000001 -1.3047 72
-3.9863 7.0703 -1.0391 236
-33.3125 59.0938 3.9433999999999996 112
-14.5625 25.8281 2.418 217
-14.8672 26.3594 3.1757999999999997 10
-14.406199999999998 25.5469 3.7676 204
-4.0195 7.125 -0.2839 62
-13.4219 23.7969 4.1602 119
-12.9297 22.9375 4.6328 111
-3.6797000000000004 6.578099999999999 -1.3213 128
-4.1914 7.4922 -1.3027000000000002 202
-4.0117 7.171900000000001 -1.0518 80
-33.0625 59.0938 3.9375 169
-14.351600000000001 25.6562 3.7754000000000003 153
-13.2344 23.6719 4.1289 156
-4.2383 7.582000000000001 -0.10060000000000001 31
-12.8594 23.0 4.6367 124
-3.6543 6.5859000000000005 -1.3203 199
-4.168 7.5078 -1.3027000000000002 161
-4.0703 7.332000000000001 -1.0732 20
-32.7812 59.0625 3.9276999999999997 22
-14.5469 26.2031 2.4453 61
-4.0391 7.2734000000000005 -0.6758 247
-14.1719 25.5469 3.0645 196
-14.164100000000001 25.5312 3.75 187
-13.25 23.875 4.1562 146
-4.2695 7.6914 -0.102 159
-12.8047 23.0781 4.6445 51
-3.623 6.582000000000001 -1.3174000000000001 116
-4.1289 7.5039 -1.2997999999999998 242
-4.4062 8.0078 -1.1699 73
-32.5 59.0625 3.9199 222
-14.4922 26.3281 2.4512 55
-14.1094 25.6406 3.0702999999999996 96
-13.664100000000001 24.8438 3.6426 123
-13.0703 23.7656 4.1289 27
-12.843800000000002 23.3438 4.6914 156
-3.5976999999999997 6.5938 -1.3174000000000001 122
-4.1055 7.519500000000001 -1.2997999999999998 229
-4.3906 8.0469 -1.1738 158
-32.2812 59.125 3.9160000000000004 175
-4.082 7.480499999999999 -0.6923999999999999 225
-14.1172 25.875 3.0938 202
-13.8281 25.3438 3.7089999999999996 49
-13.031199999999998 23.8906 4.1406 208
-4.1797 7.6602 -0.1011 231
-13.0469 23.9219 4.7969 0
-3.5742000000000003 6.609400000000001 -1.3174000000000001 69
-4.0742 7.5352 -1.2997999999999998 74
-4.3555 8.0469 -1.1719 194
-31.9531 59.0625 3.9043 207
-4.1953 7.7578 -0.9224 73
-4.1641 7.6953 -0.7109000000000001 192
-14.1875 26.2344 3.1289 205
-13.7422 25.4062 3.7089999999999996 255
-12.9453 23.9375 4.793 177
-3.5547000000000004 6.625 -1.3184 14
-4.0391 7.5273 -1.2959 225
-4.3281 8.0625 -1.1719 243
-31.7031 59.125 3.9004000000000003 76
-4.3008 8.0156 -0.9517 197
-14.664100000000001 27.3438 2.5312 233
-4.1875 7.8047 -0.7197 197
-13.585899999999999 25.3281 3.0156 211
-13.710899999999999 25.5625 3.7245999999999997 175
-4.3867 8.1797 -0.3223 64
-12.9297 24.1094 4.1641 133
-12.898399999999999 24.0469 4.8047 213
-3.5273000000000003 6.6289 -1.3163999999999998 59
-4.0195 7.5547 -1.2978999999999998 95
-4.2969 8.0781 -1.1719 215
-31.4531 59.125 3.8926 55
-4.2773 8.0391 -0.9526 64
-14.6406 27.5312 2.543 211
-4.2812 8.0469 -0.7412000000000001 36
-13.5703 25.5156 3.0332 62
-13.851600000000001 26.0469 3.7891000000000004 252
-13.6406 25.6406 4.4219 213
-3.5 6.6328 -1.3154 240
-3.9941000000000004 7.574199999999999 -1.2988 186
-4.2656 8.0859 -1.1709 97
-31.1406 59.0625 3.8827999999999996 225
-4.25 8.0547 -0.9526 195
-4.2773 8.1094 -0.7451000000000001 226
-13.7656 26.0938 3.0976999999999997 32
-13.625 25.8281 3.752 97
-13.5 25.5938 4.4062 186
-13.023399999999999 24.6875 4.9141 114
-3.4824 6.6523 -1.3163999999999998 9
-3.9531 7.550800000000001 -1.2930000000000001 25
-4.2578 8.1328 -1.1758 82
-30.9219 59.0625 3.877 213
-4.2383 8.0938 -0.9556 132
-4.2734 8.1641 -0.7490000000000001 72
-13.875 26.5 3.1406 120
-4.4297 8.4609 -0.5532 170
-13.6172 26.0156 3.7714999999999996 220
-13.3047 25.4219 4.3711 119
-3.4629000000000003 6.671900000000001 -1.3184 85
-3.9316000000000004 7.5703 -1.2938999999999998 71
-4.4961 8.6562 -1.249 137
-30.6719 59.0625 3.8711 31
-5.3828 10.3672 -1.2236 87
-4.4766 8.6172 -0.7896 172
-13.718800000000002 26.4219 3.125 11
-8.3672 16.1094 -1.0537 242
-13.5078 26.0156 3.7656 137
-12.9453 24.9375 4.2773 151
-12.6328 24.3281 -0.31980000000000003 192
-13.4531 25.9219 5.140599999999999 87
-3.4375 6.6875 -1.3184 214
-3.8964999999999996 7.582000000000001 -1.2930000000000001 153
-4.4688 8.6875 -1.251 32
-30.3594 59.0625 3.8613 10
-5.328099999999999 10.3672 -1.2207 7
-6.511699999999999 12.664100000000001 -1.1592 44
-12.875 25.0469 2.9551 223
-8.2812 16.1094 -1.0508 68
-13.4219 26.0938 3.7695 198
-12.9844 25.25 4.3242 150
-12.5469 24.4062 -0.3201 222
-13.3047 25.875 5.1211 76
-3.4062 6.6836 -1.3154 138
-3.8632999999999997 7.582000000000001 -1.291 72
-4.4336 8.7031 -1.25 9
-30.0938 59.0625 3.8535000000000004 26
-5.292999999999999 10.3906 -1.2207 233
-6.4648 12.6875 -1.1592 152
-12.8125 25.1406 2.9608999999999996 143
-8.2109 16.1094 -1.0488 224
-13.1172 25.75 3.7108999999999996 103
-12.7969 25.125 4.293 179
-13.2031 25.9062 5.1211 160
-3.3789 6.6797 -1.3125 186
-3.8418 7.5938 -1.291 199
-4.4102 8.7188 -1.251 127
-29.8594 59.0312 3.8476999999999997 53
-5.261699999999999 10.406199999999998 -1.2207 188
-6.421900000000001 12.6953 -1.1582 133
-12.7969 25.2969 2.9745999999999997 82
-8.1641 16.1406 -1.0498 75
-13.2578 26.2031 3.7733999999999996 29
-12.8281 25.3594 4.3281 173
-12.4844 24.6875 -0.3225 244
-13.1719 26.0312 5.136699999999999 132
-3.3574 6.6953 -1.3135 115
-3.8145 7.605499999999999 -1.291 122
-4.3789 8.7266 -1.251 235
-29.6094 59.0312 3.8398000000000003 113
-5.2227 10.406199999999998 -1.2187999999999999 118
-6.3711 12.7031 -1.1572 169
-13.5 26.9062 3.1601999999999997 231
-8.1016 16.1406 -1.0479 47
-12.656199999999998 25.2188 3.625 103
-12.718800000000002 25.3594 4.3203 196
-13.0156 25.9375 5.1094 5
-3.3398000000000003 6.7227 -1.3163999999999998 97
-3.7733999999999996 7.5938 -1.2861000000000002 1
-4.3516 8.7578 -1.2529000000000001 28
-29.3281 59.0312 3.832 104
-5.167999999999999 10.406199999999998 -1.2158 190
-6.3086 12.7031 -1.1543 109
-12.4531 25.0625 2.9375 48
-8.0391 16.1875 -1.0488 31
-12.7656 25.6875 3.6836 209
-12.6719 25.5156 4.3359 66
-12.9531 26.0625 5.125 117
-3.3125 6.7265999999999995 -1.3144999999999998 239
-3.748 7.609400000000001 -1.2871000000000001 172
-4.3125 8.7578 -1.25 48
-29.0625 59.0312 3.8262 137
-5.140599999999999 10.4375 -1.2187999999999999 1
-6.261699999999999 12.718800000000002 -1.1543 83
-12.6875 25.75 3.0137 77
-7.9961 16.2344 -1.0498 35
-12.5078 25.4062 3.6367000000000003 140
-11.6719 23.7031 -0.9204000000000001 60
-12.4219 25.2188 4.2812 167
-3.2910000000000004 6.738300000000001 -1.3154 67
-3.7266000000000004 7.6328 -1.2891 121
-4.2852 8.7812 -1.251 252
-28.7812 58.9688 3.8145 169
-5.0938 10.4375 -1.2158 109
-6.2227 12.7422 -1.1543 21
-12.5781 25.7656 3.0098000000000003 200
-7.9336 16.25 -1.0498 126
-12.531199999999998 25.6719 3.6699 206
-12.1328 24.8594 4.2109 216
-3.2656 6.7461 -1.3144999999999998 150
-3.7012 7.6523 -1.29 27
-4.2617 8.8047 -1.2529000000000001 157
-28.5625 59.0312 3.8125 186
-5.0508 10.4453 -1.2148 24
-6.1797 12.7656 -1.1553 114
-12.476600000000001 25.7812 3.0058999999999996 18
-7.859400000000001 16.2344 -1.0469 205
-12.3828 25.5938 3.6523000000000003 137
-11.2031 23.1562 -0.8965000000000001 26
-12.0625 24.9219 4.2148 209
-12.2656 25.3594 4.9609 241
-3.2363 6.7422 -1.3115 115
-3.6719 7.6484000000000005 -1.2871000000000001 154
-4.2266 8.8047 -1.251 60
-28.3438 59.0312 3.8086 129
-5.0039 10.4219 -1.2109 76
-12.093800000000002 25.2031 2.2793 127
-6.1289 12.773399999999999 -1.1533 222
-13.039100000000001 27.1562 3.1620999999999997 28
-7.800800000000001 16.25 -1.0459 156
-12.281199999999998 25.5938 3.6464999999999996 28
-12.4375 25.9219 4.3789 232
-12.1953 25.4062 4.9609 179
-3.2168 6.761699999999999 -1.3125 162
-3.6445 7.6562 -1.2861000000000002 76
-4.207 8.8359 -1.2539 1
-28.0625 58.9688 3.7969 2
-4.9766 10.4531 -1.2129 208
-12.0 25.2188 2.2773 200
-6.0859000000000005 12.789100000000001 -1.1533 230
-12.9375 27.1875 3.1601999999999997 8
-7.7539 16.2812 -1.0469 133
-12.1328 25.5 3.627 4
-12.125 25.4688 4.9648 67
-3.1952999999999996 6.7812 -1.3144999999999998 139
-3.6055 7.6523 -1.2832 129
-4.1641 8.8359 -1.251 106
-27.7812 58.9375 3.7891000000000004 42
-4.9414 10.4922 -1.2139 52
-11.8594 25.1719 2.2695 211
-6.019500000000001 12.781199999999998 -1.1504 203
-12.1719 25.8281 2.9961 69
-7.707000000000001 16.3594 -1.0498 195
-12.0156 25.5 3.6211 234
-12.218800000000002 25.9375 4.3633 108
-3.1660000000000004 6.7812 -1.3125 184
-3.5879000000000003 7.6836 -1.2861000000000002 153
-4.1289 8.8438 -1.25 157
-27.5156 58.9062 3.7812 219
-4.8906 10.476600000000001 -1.21 81
-5.9609000000000005 12.7656 -1.1475 124
-12.093800000000002 25.9062 3.0 113
-7.640599999999999 16.3594 -1.0479 86
-11.8594 25.3906 3.5995999999999997 81
-11.0547 23.6719 -0.9106000000000001 18
-12.0781 25.875 4.3477 72
-3.1387 6.7852 -1.3105000000000002 250
-3.5605 7.6953 -1.2861000000000002 251
-4.0977 8.8516 -1.249 71
-27.2812 58.9688 3.7773000000000003 124
-4.8516 10.4844 -1.21 36
-5.9336 12.8281 -1.1504 13
-7.5625 16.3438 -1.0449 195
-11.7656 25.4219 3.5976999999999997 94
-10.976600000000001 23.7188 -0.9106000000000001 30
-12.101600000000001 26.1406 4.3867 60
-3.1172000000000004 6.796900000000001 -1.3115 184
-3.5273000000000003 7.6953 -1.2841999999999998 164
-4.0625 8.8594 -1.248 195
-27.0156 58.9375 3.7695 139
-4.8086 10.4844 -1.208 193
-5.8789 12.8203 -1.1484 3
-11.8281 25.7969 2.9785000000000004 149
-7.511699999999999 16.3906 -1.0459 56
-11.7969 25.7344 3.6348000000000003 113
-10.8594 23.6875 -0.9081999999999999 204
-11.976600000000001 26.125 4.375 139
-3.0898000000000003 6.8047 -1.3105000000000002 200
-3.498 7.699199999999999 -1.2832 107
-4.0312 8.875 -1.249 80
-12.906199999999998 28.4219 1.8135 93
-4.7695 10.5 -1.208 44
-5.8203 12.8203 -1.1465 177
-7.449199999999999 16.3906 -1.0449 93
-11.710899999999999 25.7812 3.6367000000000003 45
-10.7422 23.6562 -0.9053 21
-11.8906 26.1719 4.375 125
-3.0683999999999996 6.8203 -1.3115 175
-12.7656 28.375 0.3628 85
-3.4745999999999997 7.7227 -1.2852000000000001 10
-12.7422 28.3125 1.082 145
-3.9901999999999997 8.8672 -1.2451 111
-12.7344 28.2969 1.8027000000000002 38
-4.7305 10.5078 -1.207 234
-5.7773 12.835899999999999 -1.1465 73
-7.3789 16.3906 -1.043 51
-11.718800000000002 26.0312 3.668 13
-10.656199999999998 23.6875 -0.9053 228
-11.7422 26.0938 4.3555 223
-12.7578 28.3438 -0.3625 204
-3.0449 6.828099999999999 -1.3105000000000002 143
-12.710899999999999 28.4844 0.364 40
-3.457 7.75 -1.2881 40
-3.9629000000000003 8.8828 -1.2461 254
-4.6914 10.5156 -1.2061 23
-5.7188 12.8203 -1.1436 227
-7.3203 16.4062 -1.043 212
-11.7578 26.3594 3.707 59
-10.5781 23.7188 -0.9053 124
-11.6172 26.0469 4.3438 82
-10.351600000000001 23.2031 4.4727 189
-3.0137 6.8203 -1.3066 160
-3.4238 7.7461 -1.2852000000000001 214
-3.9336 8.8984 -1.2461 240
-26.0469 58.9062 3.7441000000000004 189
-4.6523 10.523399999999999 -1.2051 215
-5.6797 12.851600000000001 -1.1436 169
-7.261699999999999 16.4219 -1.042 179
