# .PCD v0.7 - Point Cloud Data file format
VERSION 0.7
FIELDS x y z intensity
SIZE 4 4 4 4
TYPE F F F F
COUNT 1 1 1 1
WIDTH 1392
HEIGHT 1
VIEWPOINT 0 0 0 1 0 0 0
POINTS 1392
DATA ascii
-8.1719 7.0625 -1.3838 185
-30.5312 26.4062 2.3457 110
-9.6797 8.3672 -1.3397999999999999 97
-27.5781 23.8438 2.9745999999999997 244
-11.5703 10.0078 -1.2461 10
-26.4688 22.8906 3.6719 185
-14.031199999999998 12.1328 -1.0771 135
-26.7344 23.125 4.543 239
-18.2656 15.7969 -0.8418000000000001 175
-28.0625 24.2656 5.6523 88
-0.5913 0.5146000000000001 -0.1309 73
-42.5938 37.0625 1.9697 181
-8.1484 7.0898 -1.3838 125
-28.4531 24.75 2.1914 204
-9.6562 8.4062 -1.3408000000000002 31
-27.5 23.9219 2.9726999999999997 240
-11.531199999999998 10.0312 -1.2441 43
-26.4531 23.0156 3.6797000000000004 213
-13.9844 12.1719 -1.0762 72
-26.875 23.3906 4.5781 199
-18.2188 15.8594 -0.8418000000000001 204
-27.7188 24.125 5.5977 19
-0.5898 0.5166 -0.1309 30
-0.6768000000000001 0.5928 -0.1307 175
-42.5625 37.2812 1.9746000000000001 54
-8.1172 7.109400000000001 -1.3828 21
-28.3125 24.8125 2.1875 239
-9.6094 8.4219 -1.3378999999999999 15
-28.0156 24.5469 3.0391000000000004 131
-11.476600000000001 10.0547 -1.2422 82
-26.2656 23.0156 3.6660000000000004 199
-13.914100000000001 12.1953 -1.0742 205
-26.6406 23.3438 4.5508 226
-18.1719 15.914100000000001 -0.8418000000000001 161
-29.0938 25.4844 5.890599999999999 189
-0.6025 0.5317000000000001 -0.1343 62
-42.5938 37.5938 1.9813999999999998 195
-8.0859 7.136699999999999 -1.3818000000000001 153
-42.5625 37.5625 3.3007999999999997 64
-9.5938 8.4688 -1.3408000000000002 247
-27.3438 24.1406 2.9766000000000004 135
-11.460899999999999 10.1094 -1.2441 32
-26.2344 23.1562 3.6738 66
-13.8828 12.25 -1.0752 187
-26.4844 23.375 4.5391 32
-18.0938 15.968800000000002 -0.8408 20
-27.0625 23.8906 5.5 143
-0.5977 0.5312 -0.1335 242
-42.5625 37.8438 1.9872999999999998 136
-8.0469 7.1523 -1.3799000000000001 141
-42.5625 37.8438 3.3105 159
-9.5391 8.4766 -1.3369 7
-27.2188 24.2031 2.9707 169
-11.3672 10.1016 -1.2383 95
-26.0469 23.1406 3.6582 27
-13.8281 12.289100000000001 -1.0742 145
-26.0938 23.1875 4.4844 220
-18.0156 16.0156 -0.8403 93
-26.9531 23.9531 5.4922 159
-0.5811 0.52 -0.1301 75
-0.6704000000000001 0.6001 -0.1307 181
-28.1094 25.1562 1.3154 124
-8.0078 7.167999999999999 -1.3769999999999998 115
-29.1875 26.125 2.2773 242
-9.4922 8.4922 -1.334 21
-27.1406 24.2969 2.9726999999999997 150
-11.335899999999999 10.1484 -1.2393 15
-25.9375 23.2188 3.6543 93
-13.7656 12.3203 -1.0723 252
-27.0312 24.2031 4.6602 175
-18.0156 16.125 -0.8428 253
-26.8438 24.0312 5.488300000000001 47
-28.0938 25.1406 -0.4399 228
-0.5854 0.5273 -0.1315 224
-28.0156 25.25 0.44020000000000004 139
-27.9688 25.2031 1.3125 75
-7.988300000000001 7.199199999999999 -1.3779 228
-28.2344 25.4531 2.209 246
-9.4531 8.5156 -1.3330000000000002 148
-28.6094 25.7812 3.1426 145
-11.289100000000001 10.1719 -1.2373 75
-26.2812 23.6875 3.7129000000000003 31
-13.6953 12.343800000000002 -1.0703 39
-26.7188 24.0938 4.6211 183
-17.9375 16.1562 -0.8412999999999999 247
-26.7031 24.0625 5.4765999999999995 83
-27.9531 25.2031 -0.43920000000000003 4
-0.5747 0.5215 -0.1294 241
-27.875 25.2969 0.4395 224
-27.9219 25.3438 1.3154 67
-7.957000000000001 7.2227 -1.3769999999999998 51
-28.2188 25.625 2.2148 45
-9.3984 8.5312 -1.3300999999999998 133
-28.5469 25.9219 3.1464999999999996 164
-11.2344 10.2031 -1.2363 71
-26.1562 23.75 3.7089999999999996 169
-13.6406 12.3828 -1.0693000000000001 146
-26.2188 23.7969 4.5508 174
-17.8594 16.2031 -0.8403 206
-26.4531 24.0 5.4414 49
-27.9062 25.3281 -0.4397 56
-0.5845 0.5342 -0.1322 3
-42.5938 38.9375 2.0137 27
-7.917999999999999 7.238300000000001 -1.374 13
-30.5312 27.9062 2.4043 136
-9.3828 8.5781 -1.3319999999999999 132
-28.4844 26.0469 3.1483999999999996 61
-11.164100000000001 10.2031 -1.2314 8
-26.0938 23.8438 3.7108999999999996 102
-13.6172 12.4453 -1.0703 172
-26.0156 23.7812 4.5273 237
-17.8125 16.2812 -0.8412999999999999 244
-28.6719 26.2031 5.9140999999999995 134
-27.9375 25.5469 -0.44170000000000004 84
-0.5708 0.5259 -0.1294 222
-42.5625 39.1875 2.0195 42
-7.8828 7.2578 -1.3730000000000002 32
-27.8438 25.6406 2.1992 23
-9.3359 8.5938 -1.3291 52
-28.75 26.4688 3.1895 136
-11.1328 10.2578 -1.2324 33
-26.8438 24.7188 3.8301 8
-13.5625 12.4844 -1.0703 146
-25.8906 23.8438 4.5234 183
-17.7656 16.3594 -0.8418000000000001 196
-26.25 24.1719 5.4375 77
-30.4688 28.0469 -0.48340000000000005 47
-0.5776 0.5356000000000001 -0.1315 90
-0.6597 0.6118 -0.1307 97
-42.5312 39.4375 2.0234 225
-7.8477 7.2773 -1.3711000000000002 232
-27.4375 25.4531 2.1758 92
-9.2891 8.6172 -1.3271000000000002 66
-28.4375 26.375 3.1641000000000004 171
-11.085899999999999 10.281199999999998 -1.2314 144
-26.5625 24.625 3.8026999999999997 204
-13.5078 12.523399999999999 -1.0693000000000001 204
-25.7188 23.8594 4.5078 189
-17.7031 16.4062 -0.8408 142
-28.5156 26.4375 5.921900000000001 25
-30.3125 28.1094 -0.4827 2
-0.5728 0.5352 -0.1309 182
-7.824199999999999 7.3086 -1.3721 221
-27.0625 25.2656 2.1523 214
-9.2422 8.625 -1.3241999999999998 143
-28.5938 26.7031 3.1914 46
-11.0547 10.3203 -1.2314 86
-26.4219 24.6875 3.7969 13
-12.7969 11.9453 -1.0156 100
-25.6719 23.9688 4.5117 107
-28.3125 26.4375 5.8984000000000005 104
-30.1406 28.1406 -0.48119999999999996 219
-0.5796 0.5449 -0.1329 45
-7.796900000000001 7.332000000000001 -1.3711000000000002 78
-27.0625 25.4531 2.1582 219
-9.2109 8.6641 -1.3252000000000002 198
-28.3906 26.7031 3.1797000000000004 28
-11.0078 10.351600000000001 -1.2305 186
-26.4062 24.8281 3.8066000000000004 255
-12.6875 11.9297 -1.0107 221
-25.7344 24.2031 4.5391 208
-12.6953 11.9375 -0.6069 99
-27.4375 25.7969 5.734400000000001 147
-0.5776 0.5468999999999999 -0.1329 166
-42.5312 40.25 2.043 172
-7.7578 7.3438 -1.3681999999999999 82
-26.875 25.4531 2.1504 202
-9.1719 8.6797 -1.3232 9
-28.5938 27.0625 3.2129000000000003 240
-10.906199999999998 10.3203 -1.2227 206
-26.3281 24.9219 3.8066000000000004 61
-12.593800000000002 11.9219 -1.0059 29
-25.5469 24.1875 4.5195 100
-12.601600000000001 11.9297 -0.6045 41
-26.1562 24.7656 5.484400000000001 196
-0.5903 0.5625 -0.1364 248
-42.5 40.5 2.0469 48
-7.734400000000001 7.3711 -1.3691 44
-42.5 40.5 3.4120999999999997 195
-9.1406 8.7109 -1.3222999999999998 224
-28.4844 27.1406 3.2108999999999996 158
-10.851600000000001 10.343800000000002 -1.2207 226
-26.4219 25.1875 3.832 78
-12.4531 11.8672 -0.9984999999999999 129
-25.6719 24.4688 4.5586 226
-12.2422 11.6719 -0.5889 148
-25.9375 24.7188 5.457000000000001 153
-12.1953 11.625 -0.1962 228
-0.5459 0.5234000000000001 -0.126 124
-42.5 40.7812 2.0547 60
-7.6953 7.3828 -1.3662 101
-42.4688 40.75 3.4219 249
-9.0781 8.7109 -1.3174000000000001 190
-26.6875 25.6094 3.0176 38
-10.8047 10.3672 -1.2197 42
-28.0469 26.9062 4.082 244
-25.5312 24.5 4.5469 213
-25.875 24.8281 5.4648 241
-12.0078 11.523399999999999 -0.1937 148
-0.5552 0.5366 -0.1288 45
-42.4688 41.0312 2.0605 34
-7.667999999999999 7.4102 -1.3662 136
-42.4688 41.0312 3.4336 52
-9.0469 8.7422 -1.3174000000000001 150
-26.0 25.125 2.9492000000000003 121
-10.7578 10.398399999999999 -1.2187999999999999 41
-27.9844 27.0312 4.0859 74
-25.8125 24.9375 5.4648 169
-11.8281 11.4297 -0.19140000000000001 184
-0.5674 0.5522 -0.1322 115
-42.5625 41.4062 2.0723 2
-7.644500000000001 7.4414 -1.3672 137
-42.6875 41.5312 3.4608999999999996 35
-9.0078 8.7656 -1.3163999999999998 159
-25.9688 25.2656 2.9551 205
-10.7422 10.4531 -1.2207 218
-26.3594 25.6562 3.8613 196
-26.2188 25.5156 4.6992 255
-25.7031 25.0156 5.4609000000000005 166
-11.593800000000002 11.281199999999998 -0.1882 200
-0.5600999999999999 0.5488000000000001 -0.1309 87
-42.5938 41.7188 2.0801 220
-7.605499999999999 7.453099999999999 -1.3643 201
-42.6875 41.8438 3.4766000000000004 52
-8.9766 8.7969 -1.3163999999999998 92
-26.7344 26.1875 3.0526999999999997 107
-10.6797 10.468800000000002 -1.2178 52
-26.1562 25.625 3.8438 59
-26.0469 25.5156 4.6836 121
-11.406199999999998 11.1797 -0.1859 21
-0.583 0.5757 -0.1371 97
-42.5625 42.0 2.0859 251
-7.5664 7.4688 -1.3622999999999998 126
-60.625 59.8438 4.9531 183
-8.9297 8.8125 -1.3144999999999998 6
-26.0781 25.75 2.9901999999999997 215
-10.648399999999999 10.5078 -1.2187999999999999 22
-26.0469 25.7188 3.8438 218
-25.8281 25.5 4.6641 123
-11.2344 11.093800000000002 -0.1837 12
-0.5562 0.5527000000000001 -0.1309 47
-60.2812 59.9375 2.9668 131
-7.5390999999999995 7.4922 -1.3613 76
-60.1875 59.8438 4.9336 5
-8.8828 8.8281 -1.3125 209
-25.9062 25.75 2.9785000000000004 70
-10.601600000000001 10.539100000000001 -1.2178 4
-25.9062 25.75 3.8339999999999996 168
-25.7031 25.5625 4.6562 236
-11.0469 10.9844 -0.1813 194
-0.5903 0.5908 -0.1399 171
-59.875 59.9062 2.957 46
-7.511699999999999 7.515599999999999 -1.3613 26
-59.75 59.8125 4.918 240
-8.8516 8.8516 -1.3115 247
-25.8594 25.875 2.9844 47
-10.5625 10.5703 -1.2168 190
-25.7969 25.8125 3.8301 106
-25.7344 25.75 4.6758 139
-10.843800000000002 10.851600000000001 -0.17850000000000002 211
-0.5659000000000001 0.5703 -0.1343 36
-6.5078 6.5547 -1.4013999999999998 166
-59.4375 59.875 2.9433999999999996 178
-7.4727 7.5273 -1.3594 120
-59.3438 59.7812 4.8984 94
-8.8047 8.8672 -1.3096 94
-25.9531 26.1562 3.0058999999999996 168
-10.523399999999999 10.601600000000001 -1.2158 172
-27.375 27.5781 4.0781 254
-25.0469 25.2188 4.5664 114
-10.7344 10.8125 -0.1772 180
-0.564 0.5722999999999999 -0.1343 101
-6.453099999999999 6.550800000000001 -1.3955000000000002 81
-58.9688 59.875 2.9336 158
-7.4375 7.550800000000001 -1.3574000000000002 2
-58.9062 59.8125 4.8828 74
-8.7812 8.9141 -1.3105000000000002 81
-25.4844 25.875 2.9629000000000003 39
-10.468800000000002 10.6328 -1.2148 236
-26.5938 26.9844 3.9785000000000004 179
-26.0156 26.4219 4.7656 53
-10.531199999999998 10.6953 -0.1747 43
-0.584 0.5972 -0.1399 118
-6.4297 6.574199999999999 -1.3955000000000002 124
-58.5625 59.875 2.9219 98
-7.4062 7.5703 -1.3563999999999998 213
-58.4375 59.75 4.8594 206
-8.75 8.9453 -1.3105000000000002 137
-25.5938 26.1562 2.9844 63
-10.4453 10.6719 -1.2158 92
-26.6406 27.2344 4.0 139
-10.5703 10.8047 -0.8765000000000001 69
-26.4062 26.9844 4.8516 95
-10.3906 10.6172 -0.1729 193
-0.5684 0.585 -0.1364 36
-6.421900000000001 6.609400000000001 -1.3984 201
-58.1875 59.875 2.9141000000000004 183
-7.3672 7.578099999999999 -1.3544999999999998 239
-58.0938 59.7812 4.8477 178
-8.7031 8.9531 -1.3075999999999999 114
-10.398399999999999 10.7031 -1.2148 88
-27.0156 27.7969 4.0703 36
-10.2969 10.601600000000001 -0.8573999999999999 97
-10.2422 10.539100000000001 -0.1709 252
-0.5390999999999999 0.5581 -0.1294 157
-6.386699999999999 6.6172 -1.3955000000000002 215
-57.7188 59.8125 2.9004000000000003 1
-7.3438 7.609400000000001 -1.3544999999999998 17
-57.6562 59.75 4.8281 25
-8.6641 8.9766 -1.3066 85
-10.375 10.75 -1.2168 48
-25.8438 26.7656 3.9062 213
-10.1562 10.523399999999999 -0.8481000000000001 248
-24.9375 25.8281 4.6133 234
-10.1484 10.5078 -0.1699 108
-0.5942000000000001 0.6201 -0.14400000000000002 73
-6.328099999999999 6.605499999999999 -1.3887 68
-57.3438 59.8438 2.8926 114
-7.3047 7.6211 -1.3525 101
-57.2812 59.7812 4.8125 157
-8.625 9.0 -1.3056999999999999 44
-9.9922 10.4297 -1.1758 136
-25.5938 26.7031 3.8827999999999996 73
-10.0391 10.476600000000001 -0.8418000000000001 37
-24.9688 26.0625 4.6367 42
-9.9922 10.4219 -0.168 216
-0.5757 0.605 -0.1399 7
-6.269500000000001 6.5898 -1.3809 157
-7.2734000000000005 7.640599999999999 -1.3516 91
-56.8438 59.7188 4.793 8
-8.5938 9.0312 -1.3066 135
-26.6875 28.0312 3.1582 102
-9.875 10.3828 -1.167 33
-25.6406 26.9531 3.9062 129
-9.9062 10.414100000000001 -0.8334999999999999 119
-24.9062 26.1719 4.6406 227
-9.8047 10.3047 -0.4949 118
-9.8516 10.351600000000001 -0.1661 215
-0.5327000000000001 0.564 -0.1294 213
-6.261699999999999 6.6289 -1.3838 210
-56.5312 59.8438 2.873 97
-7.234400000000001 7.6602 -1.3496000000000001 121
-56.4375 59.75 4.7812 55
-8.5547 9.0547 -1.3047 165
-26.6406 28.2031 3.1641000000000004 51
-25.625 27.125 3.918 232
-24.9219 26.3906 4.6641 158
-9.7109 10.281199999999998 -0.49219999999999997 60
-9.7344 10.3047 -0.1649 176
-0.5468999999999999 0.583 -0.1335 129
-6.230499999999999 6.640599999999999 -1.3818000000000001 146
-56.125 59.8125 2.8632999999999997 193
-7.199199999999999 7.671900000000001 -1.3477000000000001 88
-56.0312 59.7188 4.7617 67
-8.5156 9.0781 -1.3037 251
-26.5 28.25 3.1601999999999997 190
-9.7812 10.4297 -1.1641 56
-25.4844 27.1719 3.9101999999999997 85
-9.6328 10.2656 -0.8164 74
-24.8125 26.4375 4.6602 238
-9.625 10.2656 -0.48969999999999997 65
-9.625 10.2656 -0.1637 158
-0.5454 0.585 -0.1335 112
-6.1836 6.6328 -1.376 111
-55.75 59.7812 2.8535000000000004 37
-7.1797 7.703099999999999 -1.3486000000000002 62
-55.625 59.6875 4.7461 172
-8.4688 9.0859 -1.3008000000000002 120
-26.3906 28.3125 3.1582 118
-25.4688 27.3125 3.9199 137
-9.5312 10.2266 -0.8105 191
-24.6094 26.3906 4.6367 101
-9.5156 10.2031 -0.4854 123
-9.5234 10.2109 -0.1624 98
-0.5542 0.5981000000000001 -0.1364 22
-6.136699999999999 6.6289 -1.3711000000000002 210
-55.375 59.7812 2.8438 197
-7.1523 7.7265999999999995 -1.3486000000000002 251
-55.2812 59.6875 4.7305 29
-8.4453 9.1172 -1.3018 16
-25.1406 27.1406 3.8827999999999996 248
-9.4531 10.2109 -0.8070999999999999 65
-9.3906 10.1406 -0.4807 219
-9.4141 10.1641 -0.1611 185
-0.5649000000000001 0.6147 -0.1399 226
-6.113300000000001 6.6523 -1.3711000000000002 110
-54.9375 59.75 2.832 211
-7.1015999999999995 7.7265999999999995 -1.3447 82
-54.8438 59.6562 4.7109 115
-8.4062 9.1484 -1.3008000000000002 11
-10.0938 10.976600000000001 -1.2148 32
-25.0938 27.2969 3.8926 98
-9.3281 10.1484 -0.7993000000000001 22
-9.2969 10.1094 -0.4778 159
-9.2812 10.1016 -0.1595 176
-5.3789 5.890599999999999 -1.3994 146
-6.074199999999999 6.6562 -1.3672 51
-54.5312 59.75 2.8223000000000003 220
-7.0586 7.730499999999999 -1.3408000000000002 116
-54.4688 59.6875 4.6992 42
-8.3594 9.1641 -1.2988 43
-10.0625 11.023399999999999 -1.2148 217
-24.9688 27.3438 3.8867000000000003 68
-9.2031 10.0859 -0.792 0
-9.2188 10.1016 -0.4756 243
-9.2031 10.0781 -0.15869999999999998 161
-5.3047 5.855499999999999 -1.3857 232
-6.0625 6.6914 -1.3700999999999999 183
-54.1562 59.75 2.8145 220
-7.0234000000000005 7.75 -1.3397999999999999 223
-54.0625 59.6875 4.6836 85
-8.3125 9.1719 -1.2969 15
-10.0 11.039100000000001 -1.2129 203
-25.7812 28.4531 4.0312 8
-9.1094 10.0469 -0.7866 157
-9.1953 10.1484 -0.4763 21
-9.1562 10.1016 -0.15839999999999999 101
-5.261699999999999 5.8477 -1.3799000000000001 80
-9.2578 10.289100000000001 0.161 177
-6.015599999999999 6.6875 -1.3652000000000002 89
-53.7812 59.75 2.8066000000000004 8
-6.9765999999999995 7.7539 -1.3369 174
-53.6875 59.6562 4.668 202
-8.2734 9.1953 -1.2949000000000002 28
-53.5938 59.5625 6.542999999999999 65
-9.9453 11.0547 -1.2109 97
-25.6719 28.5312 4.0273 0
-9.0234 10.0312 -0.7827 121
-9.0859 10.1016 -0.4727 67
-9.1094 10.125 -0.15839999999999999 94
-5.2422 5.8672 -1.3799000000000001 210
-9.2344 10.335899999999999 0.1613 120
-5.988300000000001 6.699199999999999 -1.3633000000000002 43
-53.4062 59.75 2.7969 216
-6.957000000000001 7.7852 -1.3378999999999999 226
-53.3125 59.6562 4.6523 20
-8.2422 9.2266 -1.2959 134
-53.2188 59.5312 6.519500000000001 115
-9.8984 11.0703 -1.209 214
-9.0 10.0703 -0.7831999999999999 151
-9.0859 10.1641 -0.1586 71
-5.2148 5.8711 -1.3769999999999998 175
-5.9609000000000005 6.7148 -1.3622999999999998 223
-53.0312 59.75 2.7891000000000004 106
-6.9102 7.7852 -1.334 71
-52.9688 59.6562 4.6367 136
-8.2031 9.2422 -1.2949000000000002 9
-52.875 59.5312 6.5 3
-9.8438 11.093800000000002 -1.208 137
-8.9688 10.0938 -0.7831999999999999 55
-9.0078 10.1484 -0.4719 59
-9.0547 10.1953 -0.1586 174
-5.1797 5.8789 -1.374 149
-5.925800000000001 6.7265999999999995 -1.3603999999999998 171
-52.6562 59.75 2.7793 64
-6.8711 7.796900000000001 -1.3311000000000002 80
-52.5312 59.625 4.6211 169
-8.1797 9.2812 -1.2949000000000002 187
-52.4688 59.5625 6.480499999999999 180
-9.7969 11.1172 -1.207 74
-8.9297 10.1406 -0.7837000000000001 27
-8.9766 10.1875 -0.4722 164
-9.0156 10.2344 -0.1586 204
-5.1484000000000005 5.886699999999999 -1.3721 120
-5.894500000000001 6.738300000000001 -1.3584 93
-52.2812 59.75 2.7695 236
-6.8203 7.796900000000001 -1.3271000000000002 224
-52.1562 59.625 4.6055 216
-8.1172 9.2734 -1.291 227
-52.0938 59.5312 6.457000000000001 30
-9.7578 11.156199999999998 -1.207 36
-8.9375 10.2109 -0.7870999999999999 50
-8.9453 10.2266 -0.4727 238
-8.9844 10.2656 -0.15869999999999998 24
-5.1289 5.9023 -1.3711000000000002 2
-5.8711 6.7539 -1.3584 137
-51.875 59.6875 2.7598000000000003 203
-6.796900000000001 7.824199999999999 -1.3281 45
-51.7812 59.5938 4.5938 32
-8.0938 9.3125 -1.2919999999999998 219
-51.6875 59.5 6.4336 35
-9.7266 11.1953 -1.208 176
-8.9062 10.25 -0.7876000000000001 210
-8.9062 10.25 -0.47240000000000004 189
-8.9453 10.2969 -0.1586 218
-5.1133 5.921900000000001 -1.3721 227
-5.832000000000001 6.7539 -1.3544999999999998 21
-51.5 59.6562 2.75 111
-6.769500000000001 7.8398 -1.3271000000000002 33
-51.4375 59.5938 4.5781 32
-8.0469 9.3281 -1.29 141
-51.3438 59.4688 6.4140999999999995 86
-9.6719 11.2031 -1.2051 163
-8.8984 10.3047 -0.7896 19
-8.875 10.281199999999998 -0.4727 230
-8.9219 10.335899999999999 -0.1588 229
-5.082 5.9297 -1.3700999999999999 222
-5.8086 6.7773 -1.3544999999999998 32
-51.0938 59.625 2.7401999999999997 40
-6.7188 7.8398 -1.3222999999999998 239
-51.0625 59.5625 4.5625 137
-8.0156 9.3516 -1.29 198
-51.0 59.5312 6.3984000000000005 47
-9.625 11.226600000000001 -1.2041 117
-8.8828 10.3672 -0.7915000000000001 129
-8.8438 10.3203 -0.4729 36
-8.8906 10.375 -0.1588 210
-5.0586 5.9414 -1.3681999999999999 128
-5.7812 6.792999999999999 -1.3535 56
-50.7812 59.6562 2.7344 229
-6.6797 7.8477 -1.3203 226
-50.6875 59.5312 4.5469 250
-7.988300000000001 9.3828 -1.291 101
-50.6562 59.5 6.3789 17
-9.5859 11.2656 -1.2041 100
-8.8125 10.351600000000001 -0.7886 73
-8.8281 10.3672 -0.4736 44
-8.8516 10.398399999999999 -0.1588 83
-5.0312 5.957000000000001 -1.3672 244
-5.7461 6.800800000000001 -1.3516 221
-50.4062 59.6562 2.7266000000000004 245
-6.6640999999999995 7.8828 -1.3222999999999998 57
-50.3125 59.5625 4.5352 214
-7.9375 9.3984 -1.2881 111
-50.2188 59.4375 6.3515999999999995 196
-9.5469 11.2969 -1.2051 80
-8.7891 10.398399999999999 -0.7896 33
-8.7969 10.414100000000001 -0.47409999999999997 145
-8.8203 10.4375 -0.1589 177
-5.0039 5.9648 -1.3652000000000002 74
-5.707000000000001 6.800800000000001 -1.3477000000000001 14
-50.0625 59.6562 2.7168 253
-6.625 7.894500000000001 -1.3203 64
-49.9688 59.5625 4.5195 192
-7.894500000000001 9.4062 -1.2861000000000002 217
-49.875 59.4375 6.3359000000000005 47
-9.5156 11.335899999999999 -1.2051 243
-8.7891 10.476600000000001 -0.7929999999999999 25
-8.7969 10.4844 -0.1592 205
-4.9961 5.9961 -1.3681999999999999 18
-5.6836 6.8203 -1.3477000000000001 93
-49.7188 59.6562 2.7108999999999996 81
-6.5898 7.9062 -1.3184 167
-49.625 59.5625 4.5078 93
-7.859400000000001 9.4297 -1.2861000000000002 105
-49.4688 59.375 6.3125 61
-9.4766 11.375 -1.2061 141
-8.75 10.5078 -0.7929999999999999 50
-8.7422 10.4922 -0.47509999999999997 121
-8.7734 10.531199999999998 -0.1594 102
-4.9648 6.0039 -1.3662 83
-5.6640999999999995 6.8438 -1.3477000000000001 188
-49.3125 59.625 2.6992000000000003 133
-6.550800000000001 7.921900000000001 -1.3163999999999998 98
-49.25 59.5312 4.4922 118
-7.832000000000001 9.4688 -1.2861000000000002 221
-49.1875 59.4375 6.296900000000001 112
-9.4062 11.375 -1.2021 175
-8.7422 10.5703 -0.7954000000000001 126
-8.7344 10.5547 -0.47659999999999997 93
-8.7344 10.5625 -0.1594 102
-4.9375 6.011699999999999 -1.3643 1
-5.636699999999999 6.863300000000001 -1.3477000000000001 68
-48.9688 59.5938 2.6914 250
-6.5078 7.921900000000001 -1.3135 63
-48.875 59.5312 4.4805 63
-7.792999999999999 9.4844 -1.2861000000000002 102
-48.8125 59.4375 6.2773 34
-9.375 11.414100000000001 -1.2031 209
-8.7031 10.601600000000001 -0.7954000000000001 152
-8.7109 10.601600000000001 -0.1595 237
-4.9141 6.0234000000000005 -1.3633000000000002 9
-5.613300000000001 6.8828 -1.3477000000000001 224
-48.5938 59.5938 2.6836 219
-6.488300000000001 7.953099999999999 -1.3144999999999998 238
-48.5312 59.5 4.4648 247
-7.738300000000001 9.4844 -1.2822 104
-48.4375 59.4062 6.2578 208
-9.3516 11.468800000000002 -1.2051 5
-8.6719 10.625 -0.7954000000000001 242
-8.6797 10.6406 -0.1597 204
-4.8867 6.0352 -1.3622999999999998 219
-5.574199999999999 6.8828 -1.3437999999999999 203
-48.25 59.5938 2.6757999999999997 136
-6.4648 7.980499999999999 -1.3154 167
-48.1875 59.5 4.4492 132
-7.699199999999999 9.5078 -1.2812000000000001 220
-48.125 59.4062 6.2422 130
-9.2969 11.476600000000001 -1.2021 250
-20.2656 25.0156 3.3789 34
-8.6328 10.656199999999998 -0.7954000000000001 211
-8.6484 10.6797 -0.4783 219
-8.6641 10.6953 -0.16 215
-4.8594 6.042999999999999 -1.3603999999999998 82
-5.542999999999999 6.890599999999999 -1.3418 191
-47.9062 59.5938 2.668 133
-6.425800000000001 7.9922 -1.3144999999999998 245
-47.8438 59.5 4.4375 180
-7.671900000000001 9.5391 -1.2822 81
-47.75 59.375 6.2188 96
-9.2578 11.5156 -1.2031 239
-20.25 25.1875 3.3926 2
-8.5938 10.6875 -0.7954000000000001 15
-8.6328 10.7344 -0.4792 80
-8.6406 10.75 -0.1604 195
-4.8438 6.0664 -1.3613 127
-5.5273 6.921900000000001 -1.3447 244
-47.5625 59.5625 2.6601999999999997 140
-6.3984000000000005 8.0156 -1.3135 174
-47.5 59.5 4.4258 136
-7.6328 9.5547 -1.2803 101
-18.7031 23.4375 2.4453 111
-9.1875 11.5078 -1.1992 24
-20.2656 25.375 3.4101999999999997 123
-8.5938 10.7578 -0.7983 125
-8.6094 10.781199999999998 -0.48 62
-18.9531 23.7344 4.625 246
-8.6094 10.781199999999998 -0.1604 198
-4.8164 6.0703 -1.3584 60
-5.5 6.9336 -1.3428 163
-47.2188 59.5312 2.6523000000000003 251
-6.3515999999999995 8.0078 -1.3096 169
-47.1562 59.4375 4.4141 129
-7.5898 9.5703 -1.2793 136
-47.0938 59.3438 6.1836 203
-9.1719 11.5625 -1.2021 211
-19.7344 24.875 3.332 53
-8.5547 10.789100000000001 -0.7983 146
-8.5859 10.8203 -0.4807 32
-18.4688 23.2969 4.5273 69
-8.5859 10.8203 -0.1606 25
-4.7812 6.0703 -1.3555000000000001 114
-5.4688 6.9453 -1.3418 246
-46.875 59.5312 2.6445 218
-6.328099999999999 8.0391 -1.3105000000000002 210
-46.8125 59.4375 4.3984 33
-7.550800000000001 9.5938 -1.2783 221
-18.5938 23.6094 2.4512 93
-9.1172 11.585899999999999 -1.2002 51
-19.8438 25.2188 3.3691000000000004 86
-8.5469 10.851600000000001 -0.8012999999999999 52
-8.5469 10.8594 -0.48100000000000004 189
-18.9219 24.0312 4.6562 116
-8.5625 10.875 -0.161 163
-4.7656 6.0977 -1.3563999999999998 171
-5.4414 6.9609000000000005 -1.3408000000000002 164
-46.5312 59.5312 2.6367000000000003 4
-6.296900000000001 8.0547 -1.3096 134
-46.4375 59.4375 4.3867 26
-7.5 9.5938 -1.2754 55
-18.4531 23.6094 2.4434 218
-9.0703 11.6094 -1.1992 4
-19.5156 24.9688 3.3262 174
-8.4922 10.8594 -0.7993000000000001 253
-18.8594 24.1406 3.9355 92
-18.8281 24.0938 4.6562 119
-8.5391 10.9297 -0.1613 139
-4.7422 6.109400000000001 -1.3563999999999998 135
-5.4023 6.9609000000000005 -1.3369 249
-46.2188 59.5312 2.6308999999999996 11
-6.265599999999999 8.0703 -1.3086000000000002 167
-46.125 59.4375 4.375 206
-7.4609000000000005 9.6094 -1.2744 12
-18.7656 24.1719 2.4961 198
-9.0156 11.6172 -1.1973 249
-19.4375 25.0469 3.3281 120
-8.4453 10.875 -0.7983 142
-18.7812 24.2031 3.9355 153
-18.6875 24.0781 4.6406 29
-8.5156 10.976600000000001 -0.16149999999999998 77
-4.7188 6.1211 -1.3555000000000001 136
-5.390599999999999 6.9922 -1.3397999999999999 136
-6.2227 8.0703 -1.3056999999999999 2
-45.8125 59.4375 4.3633 184
-7.4297 9.6406 -1.2744 149
-18.6562 24.1875 2.4922 0
-8.9688 11.6328 -1.1963 198
-19.2969 25.0312 3.3164 50
-8.4297 10.9375 -0.8008 51
-18.7344 24.3125 3.9433999999999996 36
-8.4766 10.9922 -0.4829 239
-17.8438 23.1562 4.4531 3
-8.5 11.023399999999999 -0.16190000000000002 236
-4.6797 6.1211 -1.3516 29
-5.359400000000001 7.0078 -1.3388999999999998 32
-6.1836 8.0859 -1.3037 45
-45.4375 59.4375 4.3516 59
-7.3789 9.6484 -1.2725 213
-18.5625 24.2656 2.4922 203
-8.9297 11.6719 -1.1973 91
-19.0312 24.8906 3.2891000000000004 175
-8.4062 10.9922 -0.8022 138
-17.5938 23.0156 3.7207 153
-8.4453 11.0469 -0.4839 12
-17.6719 23.0938 4.4297 168
-8.4766 11.0781 -0.16219999999999998 12
-4.6602 6.136699999999999 -1.3516 228
-5.3359000000000005 7.0273 -1.3388999999999998 24
-6.1523 8.1016 -1.3037 85
-45.125 59.4062 4.3359 234
-7.3438 9.6719 -1.2715 171
-18.4531 24.3125 2.4902 101
-8.8906 11.710899999999999 -1.1973 160
-18.8906 24.875 3.2793 27
-8.375 11.031199999999998 -0.8027 143
-17.5312 23.0938 3.7226999999999997 21
-8.4297 11.101600000000001 -0.4851 193
-17.5781 23.1406 4.4258 151
-8.4609 11.1406 -0.16260000000000002 227
-4.6328 6.144500000000001 -1.3496000000000001 142
-5.296900000000001 7.0273 -1.335 155
-6.113300000000001 8.1094 -1.3008000000000002 231
-44.7812 59.4062 4.3242 239
-7.296900000000001 9.6797 -1.2695 234
-44.6875 59.2812 6.0625 253
-8.8438 11.7344 -1.1963 222
-19.0 25.2188 3.3145 245
-8.3438 11.0703 -0.8042 29
-17.75 23.5469 3.7891000000000004 249
-8.4219 11.164100000000001 -0.4866 199
-17.625 23.375 4.457 131
-8.4375 11.1953 -0.1631 66
-4.625 6.1797 -1.3535 137
-5.261699999999999 7.0312 -1.3330000000000002 141
-6.0898 8.1328 -1.3018 175
-44.4688 59.4062 4.3164 170
-7.2578 9.6953 -1.2686 19
-44.375 59.2812 6.046900000000001 223
-8.7969 11.75 -1.1953 227
-17.4531 23.3125 3.0566000000000004 121
-8.3359 11.1406 -0.8070999999999999 184
-17.7812 23.7656 3.8125 2
-8.3828 11.1953 -0.4866 72
-17.9062 23.9375 4.5508 195
-8.4297 11.2656 -0.1637 91
-4.6016 6.1953 -1.3535 142
-5.230499999999999 7.0390999999999995 -1.3311000000000002 71
-6.050800000000001 8.1406 -1.2997999999999998 133
-44.125 59.4062 4.3047 123
-7.2188 9.7188 -1.2676 235
-44.0625 59.2812 6.0312 118
-8.7344 11.7578 -1.1934 206
-17.6875 23.8125 3.1132999999999997 198
-8.3359 11.218800000000002 -0.8105 29
-17.75 23.8906 3.8223000000000003 190
-8.375 11.273399999999999 -0.4885 127
-8.4062 11.3203 -0.16390000000000002 201
-4.5742 6.199199999999999 -1.3506 3
-5.203099999999999 7.0586 -1.3311000000000002 225
-21.3125 28.8906 1.252 132
-6.011699999999999 8.1562 -1.2978999999999998 70
-43.8125 59.375 4.2891 92
-7.171900000000001 9.7266 -1.2656 216
-43.7188 59.2812 6.011699999999999 208
-8.6797 11.773399999999999 -1.1914 41
-17.4844 23.7031 3.0918 90
-8.2969 11.25 -0.8105 7
-18.2812 24.7812 3.9551 21
-8.3594 11.3281 -0.48969999999999997 64
-8.3984 11.3906 -0.1646 156
-4.5352 6.1953 -1.3466999999999998 19
-5.1836 7.078099999999999 -1.3311000000000002 146
-21.125 28.8438 1.2461 176
-5.980499999999999 8.1641 -1.2969 13
-43.4688 59.375 4.2773 1
-7.1523 9.7656 -1.2676 185
-43.4062 59.25 5.9961 237
-8.6484 11.8047 -1.1914 151
-17.2969 23.6094 3.0723000000000003 201
-8.2812 11.3047 -0.8125 33
-18.25 24.9062 3.9668 242
-8.3516 11.406199999999998 -0.4919 16
-17.8906 24.4219 4.6094 75
-8.3906 11.4531 -0.165 255
-4.5195 6.2148 -1.3477000000000001 209
-5.1484000000000005 7.078099999999999 -1.3281 246
-20.9531 28.8125 1.2422 178
-5.949199999999999 8.1797 -1.2959 187
-43.1875 59.375 4.2695 191
-7.0977 9.7578 -1.2637 108
-17.8594 24.5625 2.4766 87
-8.6016 11.8281 -1.1914 156
-17.2656 23.7344 3.0801 239
-8.2812 11.3828 -0.8164 32
-18.1562 24.9688 3.9668 97
-8.4219 11.5703 -0.498 148
-17.8594 24.5625 4.625 67
-8.3594 11.4922 -0.1653 110
-4.4922 6.2227 -1.3457 181
-5.1211 7.0938 -1.3271000000000002 78
-20.7812 28.7812 1.2373 75
-5.9140999999999995 8.1953 -1.2949000000000002 252
-42.8438 59.375 4.2578 74
-7.046900000000001 9.7656 -1.2607 171
-17.75 24.5781 2.4727 129
-8.5547 11.851600000000001 -1.1904000000000001 238
-17.2188 23.8594 3.0879000000000003 224
-10.6797 14.789100000000001 -1.0586 172
-18.3438 25.4219 4.0273 187
-14.2422 19.7344 -0.8481000000000001 204
-17.7812 24.6406 4.6289 255
-8.3203 11.523399999999999 -0.1653 164
-4.4688 6.238300000000001 -1.3457 190
-5.0938 7.113300000000001 -1.3271000000000002 188
-20.6562 28.8281 1.2363 71
-5.8789 8.2031 -1.2930000000000001 108
-42.5312 59.3438 4.2461 119
-7.019500000000001 9.7969 -1.2627 95
-18.6719 26.0625 2.6151999999999997 177
-8.5 11.8672 -1.1885 255
-17.0938 23.8594 3.0801 83
-10.593800000000002 14.781199999999998 -1.0556999999999999 252
-17.3906 24.2812 3.8358999999999996 2
-14.156199999999998 19.7656 -0.8472 27
-17.6719 24.6719 4.6211 225
-8.2969 11.5781 -0.1656 221
-4.4375 6.2422 -1.3428 216
-5.0625 7.1211 -1.3262 56
-20.6094 28.9844 1.2402 242
-5.8359000000000005 8.2109 -1.29 119
-42.1875 59.3438 4.2344 172
-6.984400000000001 9.8203 -1.2617 90
-18.5312 26.0469 2.6074 1
-8.4609 11.898399999999999 -1.1885 118
-17.4844 24.5781 3.1660000000000004 241
-10.5547 14.843800000000002 -1.0576 127
-17.1094 24.0625 3.793 83
-14.1719 19.9219 -0.8521 111
-17.375 24.4219 4.5664 12
-15.531199999999998 21.8438 -0.3125 83
-4.4062 6.238300000000001 -1.3397999999999999 220
-5.043 7.140599999999999 -1.3262 75
-20.5 29.0312 1.2393 9
-5.8125 8.2344 -1.291 181
-41.875 59.3125 4.2227 134
-6.9453 9.8359 -1.2607 148
-41.8125 59.2188 5.917999999999999 16
-8.4219 11.9297 -1.1885 116
-17.1875 24.3438 3.127 122
-10.5 14.8672 -1.0566 124
-17.0938 24.2031 3.8066000000000004 203
-14.0469 19.8906 -0.8486 174
-17.1406 24.2812 4.5234 97
-15.4375 21.8594 -0.312 162
-4.3906 6.261699999999999 -1.3408000000000002 144
-5.0078 7.140599999999999 -1.3232 11
-20.4219 29.125 1.2402 16
-5.7773 8.2422 -1.2891 91
-41.5625 59.2812 4.2109 55
-6.886699999999999 9.8281 -1.2568000000000001 71
-41.5312 59.25 5.9102 56
-8.3672 11.9375 -1.1875 34
-17.1562 24.4688 3.1367000000000003 106
-10.460899999999999 14.9219 -1.0576 195
-16.875 24.0781 3.7773000000000003 141
-14.0781 20.0781 -0.8545 64
-17.0469 24.3125 4.5195 147
-4.3711 6.2812 -1.3418 19
-4.9805 7.1562 -1.3222999999999998 179
-20.375 29.2656 1.2431999999999999 192
-5.7578 8.2734 -1.291 27
-41.2812 59.3125 4.2031 195
-6.855499999999999 9.8438 -1.2568000000000001 84
-18.5938 26.7031 2.6543 198
-8.3359 11.976600000000001 -1.1885 149
-17.0312 24.4688 3.1289 37
-10.398399999999999 14.9375 -1.0566 117
-16.3281 23.4531 3.6699 183
-13.898399999999999 19.9688 -0.8477 46
-16.9219 24.3125 4.5117 137
-15.164100000000001 21.7969 -0.3096 1
-4.3398 6.2812 -1.3388999999999998 64
-4.9531 7.171900000000001 -1.3222999999999998 221
-20.3281 29.4219 1.2470999999999999 230
-5.7227 8.2812 -1.29 55
-40.9688 59.3125 4.1914 76
-6.8203 9.875 -1.2568000000000001 41
-17.9062 25.9062 2.5683999999999996 126
-8.2812 11.9844 -1.1865 20
-16.9688 24.5625 3.1348000000000003 31
-10.3594 14.9922 -1.0576 93
-16.4219 23.7656 3.7089999999999996 179
-13.9297 20.1719 -0.8540000000000001 23
-16.8438 24.375 4.5117 39
-15.0625 21.7969 -0.3091 172
-16.5156 23.9062 5.1172 81
-4.3164 6.292999999999999 -1.3378999999999999 56
-4.9297 7.1875 -1.3222999999999998 82
-20.2812 29.5781 1.251 248
-5.6836 8.2812 -1.2871000000000001 82
-40.6875 59.3438 4.1836 112
-6.7734000000000005 9.875 -1.2539 181
-17.7969 25.9375 2.5664 125
-8.2422 12.0156 -1.1865 76
-16.9688 24.7344 3.1483999999999996 60
-10.2969 15.0078 -1.0566 229
-16.3281 23.7969 3.707 185
-13.875 20.2188 -0.8545 13
-16.4844 24.0312 4.4375 37
-14.960899999999999 21.8125 -0.30829999999999996 165
-16.4375 23.9531 5.1133 78
-4.2852 6.296900000000001 -1.3359 21
-4.9023 7.203099999999999 -1.3222999999999998 162
-20.2344 29.7344 1.2539 191
-5.6484000000000005 8.3047 -1.2861000000000002 21
-40.375 59.3125 4.1719 13
-6.7227 9.8828 -1.252 19
-17.7344 26.0625 2.5723000000000003 185
-8.2109 12.0625 -1.1885 177
-16.8906 24.8281 3.1523000000000003 160
-10.2266 15.031199999999998 -1.0556999999999999 10
-16.25 23.8906 3.7108999999999996 119
-13.789100000000001 20.2656 -0.8540000000000001 48
-16.5938 24.3906 4.4922 202
-14.8594 21.8281 -0.3079 222
-16.2969 23.9531 5.1016 139
-4.2656 6.3164 -1.3369 134
-4.8594 7.1953 -1.3174000000000001 85
-20.1875 29.8906 1.2578 224
-5.613300000000001 8.3125 -1.2841999999999998 37
-16.8125 24.9062 1.7461000000000002 185
-6.707000000000001 9.9297 -1.2549 182
-17.6406 26.1094 2.5702999999999996 178
-8.1641 12.085899999999999 -1.1875 212
-16.4375 24.3438 3.0839999999999996 74
-10.1875 15.085899999999999 -1.0566 200
-15.9219 23.5781 3.6543 68
-13.7031 20.2969 -0.853 246
-15.7969 23.3906 4.2969 111
-14.75 21.8438 -0.3074 147
-16.2969 24.125 5.125 55
-4.2422 6.332000000000001 -1.3359 155
-4.832 7.207000000000001 -1.3163999999999998 88
-20.1562 30.0625 1.2617 20
-5.5859000000000005 8.3359 -1.2852000000000001 238
-16.7031 24.9219 1.7431999999999999 246
-6.6523 9.9297 -1.251 164
-17.4375 26.0312 2.5547 18
-8.1172 12.1094 -1.1875 200
-16.2812 24.2969 3.0702999999999996 253
-10.1406 15.125 -1.0566 208
-15.851600000000001 23.6406 3.6562 222
-13.656199999999998 20.375 -0.855 85
-15.7031 23.4219 4.293 129
-14.656199999999998 21.875 -0.3071 0
-16.2969 24.3125 5.1562 147
-4.2227 6.3477 -1.3369 167
-4.8086 7.230499999999999 -1.3184 139
-20.125 30.25 1.2666 5
-5.5547 8.3516 -1.2841999999999998 97
-16.6094 24.9688 1.7422 74
-6.6211 9.9531 -1.252 252
-17.3906 26.1562 2.5625 22
-8.0469 12.093800000000002 -1.1826 236
-15.3906 23.1406 2.9160000000000004 176
-10.0781 15.148399999999999 -1.0556999999999999 158
-16.1406 24.2656 3.7441000000000004 107
-13.5703 20.4062 -0.8540000000000001 183
-15.601600000000001 23.4531 4.2891 33
-14.585899999999999 21.9375 -0.3071 128
-16.3125 24.5312 5.1875 164
-4.1953 6.355499999999999 -1.335 147
-4.793 7.2578 -1.3193000000000001 218
-5.511699999999999 8.3516 -1.2812000000000001 7
-16.5156 25.0156 1.7412 156
-6.5898 9.9844 -1.2529000000000001 198
-17.3438 26.2812 2.5683999999999996 151
-8.0312 12.164100000000001 -1.1865 180
-15.2578 23.125 2.9062 117
-10.0312 15.1953 -1.0566 12
-16.7812 25.4375 3.9141000000000004 36
-13.4922 20.4375 -0.8534999999999999 196
-15.398399999999999 23.3281 4.2578 91
-14.523399999999999 22.0 -0.3074 171
-14.898399999999999 22.5781 4.7617 205
-4.168 6.359400000000001 -1.3330000000000002 20
-4.75 7.2539 -1.3154 90
-5.4765999999999995 8.3594 -1.2803 191
-6.550800000000001 10.0 -1.252 145
-16.3594 24.9688 2.4336 92
-7.9648 12.156199999999998 -1.1836 64
-15.1797 23.1719 2.9062 204
-9.9922 15.25 -1.0576 220
-16.7188 25.5156 3.918 85
-13.4453 20.5156 -0.855 110
-15.351600000000001 23.4375 4.2656 4
-14.4844 22.1094 -0.3081 179
-16.2188 24.75 5.2109000000000005 74
-4.1445 6.3711 -1.3330000000000002 250
-19.8125 30.4844 0.4243 143
-4.7344 7.2812 -1.3184 254
-5.449199999999999 8.3828 -1.2803 117
-16.1875 24.9062 1.7256 254
-6.5039 10.0078 -1.25 162
-16.2344 24.9688 2.4297 199
-7.917999999999999 12.1797 -1.1826 145
-15.125 23.2656 2.9120999999999997 53
-9.9453 15.2969 -1.0586 66
-17.1094 26.3125 4.0312 141
-13.375 20.5625 -0.855 154
-14.6797 22.5781 4.1016 69
-14.4844 22.2812 -0.3098 86
-14.843800000000002 22.8281 4.7969 193
-4.1211 6.390599999999999 -1.334 53
-19.75 30.5938 0.425 29
-4.6992 7.2852 -1.3154 254
-5.417999999999999 8.3984 -1.2793 51
-16.1094 24.9688 1.7256 144
-6.4688 10.0312 -1.25 47
-17.0156 26.375 2.5605 140
-7.863300000000001 12.1875 -1.1806999999999999 52
-15.0703 23.3594 2.9160000000000004 14
-9.8906 15.3281 -1.0586 76
-17.1094 26.5156 4.0547 189
-13.289100000000001 20.6094 -0.8545 17
-15.101600000000001 23.4062 4.2422 240
-14.4531 22.3906 -0.31079999999999997 223
-14.648399999999999 22.7031 4.7539 172
-4.0938 6.394500000000001 -1.3311000000000002 15
-19.7188 30.7812 0.4265 250
-4.668 7.2890999999999995 -1.3135 244
-16.125 25.1875 1.042 164
-5.3672 8.375 -1.2744 35
-37.9375 59.25 4.0898 70
-6.4336 10.0469 -1.249 12
-15.3281 23.9375 2.3184 59
-7.796900000000001 12.1719 -1.1768 152
-15.7969 24.6562 3.0742000000000003 115
-9.8672 15.406199999999998 -1.0615 223
-15.1328 23.625 3.6035000000000004 124
-13.1875 20.5938 -0.8521 109
-15.0469 23.4844 4.2461 118
-14.4453 22.5469 -0.3123 229
-14.5547 22.7344 4.75 116
-4.0742 6.4062 -1.3311000000000002 29
-19.6875 30.9531 0.4282 213
-4.6445 7.3047 -1.3135 233
-15.8203 24.875 1.0273 182
-5.3438 8.4062 -1.2764 170
-15.656199999999998 24.625 1.6953 161
-6.4023 10.0703 -1.25 144
-17.4688 27.4688 2.6543 242
-7.7773 12.2344 -1.1806999999999999 62
-16.3438 25.7031 3.1973000000000003 128
-9.8047 15.414100000000001 -1.0605 198
-14.960899999999999 23.5312 3.5801 12
-13.2031 20.7656 -0.8573999999999999 224
-14.6797 23.0938 4.1641 177
-14.4297 22.6875 -0.31370000000000003 230
-14.4922 22.7969 4.7539 168
-4.0352 6.4023 -1.3271000000000002 232
-15.7344 24.9531 0.344 138
-4.6172 7.324199999999999 -1.3135 25
-15.656199999999998 24.8281 1.0234 58
-5.3164 8.4297 -1.2764 54
-15.523399999999999 24.6094 1.6904 69
-6.3515999999999995 10.0703 -1.2470999999999999 147
-14.898399999999999 23.625 2.2773 225
-7.7265999999999995 12.25 -1.1797 223
-14.7031 23.3125 2.8906 109
-9.75 15.4531 -1.0605 139
-14.9297 23.6719 3.5957 8
-13.1172 20.7969 -0.8564 34
-14.1719 22.4688 4.043 186
-14.4297 22.875 -0.3154 115
-14.4844 22.9688 4.7812 89
-4.0195 6.421900000000001 -1.3291 106
-15.593800000000002 24.9219 0.3428 46
-4.582 7.3203 -1.3105000000000002 47
-15.5781 24.8906 1.0234 87
-5.2734000000000005 8.4297 -1.2734 92
-37.0625 59.2188 4.0625 15
-6.3086 10.0859 -1.2451 121
-14.7344 23.5469 2.2656 21
-7.6875 12.281199999999998 -1.1797 221
-14.6406 23.3906 2.8964999999999996 104
-9.6875 15.476600000000001 -1.0595999999999999 216
-14.781199999999998 23.6094 3.5781 98
-13.023399999999999 20.8125 -0.8554999999999999 108
-14.1953 22.6719 4.0742 222
-14.468800000000002 23.1094 -0.3179 234
-14.406199999999998 23.0156 4.7812 237
-3.998 6.4375 -1.3291 226
-15.593800000000002 25.0938 0.34450000000000003 15
-4.5664 7.3477 -1.3125 157
-15.539100000000001 25.0156 1.0264 158
-5.2461 8.4453 -1.2734 151
-36.8125 59.25 4.0547 231
-6.2734000000000005 10.1016 -1.2451 92
-14.6953 23.6562 2.2715 51
-7.6289 12.281199999999998 -1.1777 2
-14.648399999999999 23.5781 2.9120999999999997 118
-9.6484 15.531199999999998 -1.0615 131
-15.6172 25.1406 3.8007999999999997 104
-12.968800000000002 20.875 -0.8564 222
-14.226600000000001 22.8906 4.1016 97
-15.6172 25.1406 -0.3452 245
-14.375 23.1406 4.7969 68
-3.9785000000000004 6.453099999999999 -1.3291 203
-19.5 31.625 0.4336 244
-4.5391 7.359400000000001 -1.3125 116
-5.2109000000000005 8.4531 -1.2715 122
-36.5 59.2188 4.043 165
-6.234400000000001 10.1094 -1.2441 117
-14.664100000000001 23.7812 2.2773 52
-7.5703 12.273399999999999 -1.1738 212
-14.773399999999999 23.9688 2.9551 96
-9.6016 15.5703 -1.0615 168
-15.539100000000001 25.1875 3.8026999999999997 100
-12.906199999999998 20.9219 -0.8564 96
-14.039100000000001 22.7656 4.0742 84
-14.218800000000002 23.0469 4.7695 23
-3.9473000000000003 6.457000000000001 -1.3271000000000002 92
-19.4531 31.8125 0.4351 74
-4.5 7.359400000000001 -1.3086000000000002 182
-5.171900000000001 8.4609 -1.2705 142
-36.1875 59.1875 4.0312 60
-6.1875 10.1172 -1.2422 179
-16.6875 27.2969 2.6094 250
-7.5312 12.3203 -1.1758 173
-14.6953 24.0312 2.957 69
-9.5156 15.5625 -1.0586 124
-15.4375 25.25 3.8007999999999997 225
-13.968800000000002 22.8594 4.0781 168
-14.1875 23.2031 4.7891 106
-3.918 6.4609000000000005 -1.3252000000000002 134
-4.4883 7.3984000000000005 -1.3135 118
-5.136699999999999 8.4688 -1.2686 95
-15.2969 25.2188 1.7138999999999998 114
-6.1562 10.1484 -1.2431999999999999 6
-16.5469 27.2656 2.6016000000000004 228
-7.4922 12.351600000000001 -1.1758 42
-14.2656 23.5156 2.8867000000000003 120
-9.4609 15.601600000000001 -1.0586 68
-15.406199999999998 25.4062 3.8164 184
-13.9375 22.9844 4.0898 243
-14.2031 23.4219 4.8203 234
-3.8945 6.4688 -1.3241999999999998 254
-19.3906 32.2188 0.439 101
-4.4453 7.3828 -1.3075999999999999 135
-5.1055 8.4844 -1.2676 207
-15.164100000000001 25.2031 1.709 239
-6.1015999999999995 10.1406 -1.2393 129
-16.5625 27.5312 2.6211 175
-7.4297 12.351600000000001 -1.1738 80
-14.1953 23.5938 2.8887 223
-9.3984 15.6172 -1.0576 47
-14.218800000000002 23.625 3.5410000000000004 125
-13.8203 22.9688 4.082 19
-14.1172 23.4531 4.8203 130
-3.8827999999999996 6.5039 -1.3281 170
-19.3906 32.4688 0.4414 129
-4.418 7.3984000000000005 -1.3075999999999999 205
-5.0703 8.4922 -1.2666 120
-14.085899999999999 23.5781 1.5957 210
-6.0664 10.1562 -1.2393 147
-7.3984000000000005 12.3906 -1.1748 209
-14.1328 23.6719 2.8926 172
-9.375 15.7031 -1.0615 254
-14.148399999999999 23.7031 3.5449 9
-13.7422 23.0156 4.082 15
-13.9453 23.3594 4.7891 222
-3.8516000000000004 6.5 -1.3252000000000002 170
-19.3281 32.625 0.4424 132
-4.3867 7.4023 -1.3056999999999999 159
-5.0312 8.4922 -1.2646 141
-6.0273 10.1719 -1.2383 235
-7.3398 12.3906 -1.1729 52
-14.3672 24.25 2.9589999999999996 226
-9.3203 15.726600000000001 -1.0615 168
-15.3594 25.9219 3.8691000000000004 229
-12.6719 21.375 -0.8662000000000001 132
-13.406199999999998 22.625 4.0039 156
-14.0078 23.6406 4.8359 252
-3.8301 6.511699999999999 -1.3241999999999998 144
-4.3711 7.4375 -1.3086000000000002 99
-4.9883 8.4844 -1.2607 38
-14.0781 23.9375 1.6133000000000002 88
-6.0 10.2031 -1.2393 228
-14.093800000000002 23.9688 2.2676 218
-7.292999999999999 12.398399999999999 -1.1719 168
-15.5781 26.4844 3.2245999999999997 146
-9.2578 15.7422 -1.0595999999999999 112
-15.1406 25.75 3.8358999999999996 50
-13.5078 22.9688 4.0547 73
-13.531199999999998 23.0156 4.6992 121
-3.793 6.5039 -1.3203 79
-4.3438 7.453099999999999 -1.3086000000000002 99
-4.9648 8.5078 -1.2617 51
-14.0703 24.125 1.6221 99
-5.953099999999999 10.2109 -1.2373 207
-14.093800000000002 24.1562 2.2812 234
-7.25 12.4297 -1.1719 29
-15.3828 26.375 3.2051 134
-9.1641 15.718800000000002 -1.0556999999999999 28
-13.718800000000002 23.5156 3.4961 145
-12.5703 21.5625 -0.8695999999999999 33
-13.3828 22.9375 4.043 56
-14.093800000000002 24.1719 -0.3262 24
-13.4297 23.0312 4.6953 153
-3.7733999999999996 6.519500000000001 -1.3213 230
-4.3047 7.4375 -1.3037 138
-4.9336 8.5234 -1.2617 45
-14.0781 24.3281 1.6328 50
-5.9023 10.2031 -1.2344 74
-7.203099999999999 12.4531 -1.1709 212
-15.476600000000001 26.75 3.2441000000000004 37
-9.125 15.773399999999999 -1.0576 237
-13.6719 23.6406 3.5077999999999996 43
-12.4453 21.5156 -0.8662000000000001 153
-13.2656 22.9375 4.0312 22
-13.3203 23.0156 4.6836 1
-3.752 6.5390999999999995 -1.3213 73
-4.2695 7.4414 -1.3018 128
-4.8945 8.5312 -1.2598 73
-5.863300000000001 10.2188 -1.2334 200
-7.1523 12.460899999999999 -1.1699 60
-15.4844 26.9844 3.2656 222
-9.0703 15.7969 -1.0576 150
-14.5625 25.375 3.7577999999999996 36
-12.523399999999999 21.8125 -0.8765000000000001 32
-13.585899999999999 23.6719 4.1562 28
-13.039100000000001 22.7188 4.6133 155
-3.7285000000000004 6.550800000000001 -1.3213 111
-4.2461 7.4609000000000005 -1.3027000000000002 199
-4.8555 8.5312 -1.2578 154
-5.824199999999999 10.2344 -1.2334 162
-14.6406 25.7188 2.4141 235
-7.109400000000001 12.4844 -1.1699 96
-14.960899999999999 26.2812 3.1738 85
-9.0 15.8125 -1.0556999999999999 181
-14.4297 25.3438 3.7461 59
-12.4297 21.8438 -0.8755 243
-13.5703 23.8438 4.1758 169
-13.0078 22.8594 4.6289 145
-3.6992000000000003 6.550800000000001 -1.3193000000000001 251
-4.2305 7.4922 -1.3056999999999999 169
-4.8242 8.5469 -1.2568000000000001 22
-33.4062 59.1875 3.9512 217
-5.7812 10.2422 -1.2314 188
-14.5547 25.7812 2.4141 139
-7.0625 12.5078 -1.1699 163
-14.8672 26.3281 3.1738 2
-8.9375 15.8281 -1.0556999999999999 185
-14.4844 25.6562 3.7851999999999997 218
-13.4531 23.8281 4.1641 61
-12.9297 22.9062 4.6289 125
-3.6719 6.5586 -1.3184 190
-4.1992 7.5 -1.3037 142
-4.793 8.5625 -1.2568000000000001 100
-33.125 59.125 3.9395 114
-5.738300000000001 10.25 -1.2305 213
-7.0078 12.5156 -1.168 64
-8.875 15.851600000000001 -1.0547 38
-14.351600000000001 25.625 3.7733999999999996 133
-13.3125 23.7656 4.1484 202
-12.835899999999999 22.9219 4.625 17
-3.6562 6.578099999999999 -1.3193000000000001 63
-4.168 7.5 -1.3018 117
-4.7656 8.5703 -1.2559 219
-32.8438 59.0938 3.9316000000000004 9
-5.703099999999999 10.2578 -1.2295 200
-14.5625 26.2031 2.4453 60
-6.9727 12.539100000000001 -1.168 153
-14.710899999999999 26.4688 3.1776999999999997 172
-8.8125 15.8594 -1.0527 192
-14.1953 25.5312 3.752 128
-12.218800000000002 21.9844 -0.8765000000000001 156
-13.2422 23.8125 4.1484 26
-13.2344 23.8125 4.7969 107
-3.6367000000000003 6.5898 -1.3203 37
-4.1367 7.5 -1.2988 192
-32.6562 59.2188 2.3613 12
-4.7344 8.5859 -1.2559 232
-32.625 59.1562 3.9276999999999997 171
-5.667999999999999 10.281199999999998 -1.2295 190
-14.5 26.2969 2.4492 248
-6.9140999999999995 12.539100000000001 -1.166 174
-14.1172 25.5938 3.0683999999999996 89
-8.7656 15.8906 -1.0537 105
-14.0781 25.5312 3.7441000000000004 181
-13.164100000000001 23.8594 4.1484 109
-12.843800000000002 23.2812 4.6836 62
-3.6113 6.605499999999999 -1.3203 76
-4.1055 7.5078 -1.2978999999999998 121
-4.6953 8.5859 -1.2539 37
-32.3125 59.0938 3.9160000000000004 9
-5.6328 10.2969 -1.2295 250
-6.859400000000001 12.5469 -1.1641 193
-14.093800000000002 25.7656 3.082 149
-8.7031 15.9219 -1.0527 248
-13.8594 25.3438 3.7108999999999996 190
-12.1172 22.1562 -0.8798999999999999 209
-13.0469 23.8594 4.1406 7
-13.085899999999999 23.9219 4.8008 27
-3.5801 6.6015999999999995 -1.3163999999999998 204
-4.082 7.5312 -1.2997999999999998 143
-4.6602 8.5938 -1.252 58
-32.0625 59.125 3.9101999999999997 194
-5.5859000000000005 10.3047 -1.2275 96
-6.8164 12.5703 -1.1641 11
-14.2422 26.2656 3.1348000000000003 254
-8.6562 15.960899999999999 -1.0537 92
-13.75 25.3594 3.7051 60
-12.9844 23.9375 4.1445 170
-12.9844 23.9375 4.793 153
-3.5586 6.6172 -1.3174000000000001 146
-4.0586 7.546900000000001 -1.2997999999999998 174
-4.6367 8.6172 -1.2539 134
-31.7812 59.0938 3.9004000000000003 102
-5.542999999999999 10.3047 -1.2256 16
-14.6719 27.2812 2.5273 16
-6.7852 12.6172 -1.167 150
-13.6328 25.3438 3.0195 221
-8.5938 15.9844 -1.0527 195
-13.726600000000001 25.5312 3.7226999999999997 205
-11.9922 22.3125 -0.8828 120
-12.914100000000001 24.0156 4.1523 249
-12.9219 24.0312 4.8008 140
-3.5370999999999997 6.6328 -1.3184 177
-4.0195 7.5390999999999995 -1.2959 60
-4.5977 8.625 -1.251 226
-31.5156 59.0938 3.8926 203
-5.5039 10.3203 -1.2246 155
-14.648399999999999 27.4688 2.5391 14
-6.734400000000001 12.625 -1.165 120
-13.5703 25.4375 3.0254000000000003 155
-8.5234 15.9922 -1.0518 45
-13.8594 25.9844 3.7832 115
-13.6953 25.6719 4.4297 192
-3.5137 6.640599999999999 -1.3174000000000001 42
-3.9922000000000004 7.546900000000001 -1.2959 234
-4.5781 8.6562 -1.2539 183
-31.2188 59.0 3.8827999999999996 203
-5.4648 10.3281 -1.2236 168
-6.6875 12.6406 -1.1641 154
-13.7031 25.9062 3.0762 222
-8.4766 16.0312 -1.0527 177
-13.6797 25.8594 3.7577999999999996 75
-13.5781 25.6562 4.4219 25
-12.8906 24.3594 -0.3215 249
-3.4922000000000004 6.6562 -1.3184 182
-3.9629000000000003 7.550800000000001 -1.2938999999999998 96
-4.5469 8.6641 -1.2529000000000001 124
-31.0 59.0625 3.8789 221
-5.4375 10.3594 -1.2256 185
-6.6328 12.6406 -1.1621 96
-13.835899999999999 26.375 3.125 161
-8.4297 16.0625 -1.0527 16
-13.625 25.9688 3.7656 54
-13.343800000000002 25.4219 4.3711 105
-12.7656 24.3281 -0.32030000000000003 195
-3.4648000000000003 6.6640999999999995 -1.3174000000000001 39
-3.9375 7.578099999999999 -1.2959 184
-4.5078 8.6719 -1.252 128
-30.7031 59.0938 3.8711 89
-5.386699999999999 10.3672 -1.2236 168
-6.5898 12.6797 -1.1631 118
-13.718800000000002 26.3906 3.1211 153
-8.3672 16.1094 -1.0537 133
-13.5 25.9688 3.7598000000000003 127
-12.9375 24.8906 4.2695 105
-12.648399999999999 24.3281 -0.31980000000000003 160
-3.4316000000000004 6.6640999999999995 -1.3144999999999998 65
-3.9043 7.582000000000001 -1.2938999999999998 14
-4.4727 8.6875 -1.251 145
-30.4375 59.0938 3.8651999999999997 160
-5.3438 10.375 -1.2217 11
-6.5390999999999995 12.6953 -1.1631 72
-13.6328 26.4688 3.125 12
-8.3125 16.1406 -1.0537 245
-13.4297 26.0781 3.7676 91
-13.0156 25.2656 4.3281 249
-12.5625 24.3906 -0.31980000000000003 184
-13.351600000000001 25.9219 5.1328 166
-3.4160000000000004 6.6797 -1.3154 106
-3.8808999999999996 7.5898 -1.2930000000000001 166
-4.4492 8.7031 -1.251 1
-30.1719 59.0312 3.8535000000000004 221
-5.3047 10.375 -1.2197 122
-6.4922 12.7031 -1.1611 147
-12.898399999999999 25.2344 2.9726999999999997 11
-8.25 16.125 -1.0518 155
-13.5 26.4062 3.8086 156
-12.875 25.1875 4.3086 2
-12.5469 24.5469 -0.3215 200
-13.210899999999999 25.8281 5.1094 25
-3.3926 6.6875 -1.3154 121
-3.8418 7.578099999999999 -1.2891 16
-4.4297 8.7344 -1.2549 227
-29.9219 59.0 3.8476999999999997 229
-5.261699999999999 10.375 -1.2187999999999999 147
