# .PCD v0.7 - Point Cloud Data file format
VERSION 0.7
FIELDS x y z intensity
SIZE 4 4 4 4
TYPE F F F F
COUNT 1 1 1 1
WIDTH 1354
HEIGHT 1
VIEWPOINT 0 0 0 1 0 0 0
POINTS 1354
DATA ascii
9.7109 8.9219 -1.3809 115
11.75 10.7969 -1.2997999999999998 192
14.914100000000001 13.7031 -1.1758 75
19.4688 17.8906 -0.30829999999999996 229
0.585 0.5337 -0.1322 173
30.375 27.7188 0.48 95
29.5781 26.9844 1.3965 247
8.3047 7.574199999999999 -1.4404 248
29.4219 26.8594 2.3145 108
9.7578 8.9062 -1.3838 159
27.7188 25.2969 3.0605 190
11.7969 10.7656 -1.3008000000000002 230
14.9297 13.625 -1.1738 215
58.6562 53.5312 10.2109 80
19.5156 17.8125 -0.3081 218
0.5635 0.5103 -0.1267 123
30.2656 27.4219 1.4238 114
8.3438 7.5586 -1.4424000000000001 59
27.7344 25.1406 2.1758 214
9.7891 8.8672 -1.3838 38
28.0156 25.375 3.0839999999999996 20
11.8594 10.7422 -1.3037 204
15.0078 13.593800000000002 -1.1758 1
0.5684 0.5112 -0.1273 10
21.1875 19.0625 0.3323 4
0.6689 0.6015999999999999 -0.1307 61
30.3125 27.2656 1.4219 255
8.3906 7.546900000000001 -1.4463 63
28.4062 25.5469 2.2207 76
9.8281 8.8359 -1.3847999999999998 109
28.0625 25.2344 3.0781 157
11.914100000000001 10.718800000000002 -1.3056999999999999 35
15.085899999999999 13.5703 -1.1777 205
19.625 17.6562 -0.3079 247
0.6113000000000001 0.5459 -0.1371 58
0.6709 0.5991 -0.1307 108
30.1094 26.8906 1.4082 106
27.6094 24.6562 2.1523 166
9.8828 8.8281 -1.3877000000000002 11
28.1562 25.1562 3.0801 253
11.9531 10.6719 -1.3047 39
15.156199999999998 13.531199999999998 -1.1797 28
19.7188 17.6094 -0.3081 163
0.5747 0.5097999999999999 -0.1281 79
0.6729 0.5967 -0.1307 244
30.25 26.8281 1.4102000000000001 197
27.75 24.6094 2.1543 193
9.9141 8.7969 -1.3887 27
28.2031 25.0156 3.0762 237
12.023399999999999 10.664100000000001 -1.3086000000000002 32
28.75 25.5 4.0352 34
15.2422 13.523399999999999 -1.1826 186
19.8281 17.5938 -0.3091 97
0.5825 0.5127 -0.1294 211
0.6753 0.5947 -0.1307 196
30.4688 26.8438 1.416 60
27.8438 24.5156 2.1562 154
9.9688 8.7812 -1.3916 187
27.9531 24.625 3.0391000000000004 9
12.0625 10.625 -1.3096 240
15.3125 13.4844 -1.1845999999999999 150
20.0469 17.6562 -0.9312 228
19.9531 17.5781 -0.31010000000000004 40
0.5781000000000001 0.5059 -0.1281 24
30.7656 26.9219 1.4258000000000002 128
27.7812 24.3125 2.1445 246
10.0 8.75 -1.3925999999999998 119
28.25 24.7188 3.0625 83
12.1094 10.593800000000002 -1.3105000000000002 120
15.375 13.4531 -1.1855 52
20.1094 17.5938 -0.9316 84
20.0781 17.5625 -0.311 59
0.5977 0.5195000000000001 -0.1322 219
29.4062 25.5469 1.3584 189
27.9531 24.2969 2.1523 95
10.0391 8.7266 -1.3936000000000002 49
28.4688 24.7344 3.0762 193
12.1406 10.5547 -1.3105000000000002 77
15.4297 13.406199999999998 -1.1865 56
20.2656 17.6094 -0.9359999999999999 136
20.2031 17.5625 -0.3123 52
0.5996 0.5171 -0.1322 142
29.4688 25.4375 1.3574000000000002 221
28.0156 24.1719 2.1504 119
10.0859 8.7031 -1.3955000000000002 21
28.75 24.8125 3.0976999999999997 228
12.1797 10.5078 -1.3105000000000002 238
15.531199999999998 13.398399999999999 -1.1904000000000001 73
20.3594 17.5625 -0.937 114
20.3594 17.5625 -0.3135 34
0.5922999999999999 0.5078 -0.1301 150
31.3125 26.8438 1.4385 252
27.75 23.7812 2.125 49
10.1406 8.6953 -1.3994 157
27.3125 23.4062 2.9336 187
12.218800000000002 10.476600000000001 -1.3115 91
15.593800000000002 13.3672 -1.1924 4
20.4844 17.5469 -0.3145 241
0.5942000000000001 0.5054 -0.1301 199
0.6851 0.583 -0.1307 11
28.7344 24.4375 1.3154 84
27.7969 23.6406 2.1211 217
10.1875 8.6641 -1.4013999999999998 200
28.9375 24.6094 3.0976999999999997 185
12.273399999999999 10.4375 -1.3125 96
15.656199999999998 13.3125 -1.1934 229
20.625 17.5312 -0.3157 199
0.5898 0.498 -0.1288 53
21.0938 17.8125 0.3218 102
28.125 23.75 2.1387 212
10.2344 8.6406 -1.4033000000000002 150
29.0156 24.5 3.0976999999999997 127
12.3203 10.406199999999998 -1.3135 227
15.718800000000002 13.273399999999999 -1.1943000000000001 8
20.75 17.5312 -0.3169 103
0.5854 0.49119999999999997 -0.1273 241
21.2344 17.8125 0.3232 219
29.0938 24.4062 1.3241999999999998 143
28.5 23.9062 2.1621 46
10.289100000000001 8.6328 -1.4072 219
29.0469 24.375 3.0938 18
12.375 10.375 -1.3154 216
15.7969 13.25 -1.1973 240
20.9062 17.5312 -0.3181 73
0.6113000000000001 0.5093 -0.1329 12
0.6909000000000001 0.5757 -0.1307 147
30.5 25.4062 1.3847999999999998 26
27.7812 23.1406 2.1016 47
10.335899999999999 8.6094 -1.4091999999999998 145
12.4375 10.3672 -1.3184 254
28.6719 23.8906 3.918 142
15.8672 13.218800000000002 -1.1992 118
21.0312 17.5312 -0.3193 54
0.6162 0.5097999999999999 -0.1335 175
0.6934 0.5732 -0.1307 2
29.2188 24.1719 1.3222999999999998 170
27.75 22.9531 2.0938 227
10.3906 8.5938 -1.4121000000000001 251
29.3125 24.25 3.1035000000000004 64
12.5078 10.343800000000002 -1.3222999999999998 234
28.7969 23.8125 3.9219 31
15.9922 13.226600000000001 -1.2051 97
21.1719 17.5156 -0.3206 160
0.6025 0.4951 -0.1301 138
29.0781 23.8906 1.3125 111
27.9688 22.9844 2.1035 127
10.4375 8.5781 -1.415 198
29.7969 24.4844 3.1464999999999996 26
12.5781 10.335899999999999 -1.3262 14
16.0 13.148399999999999 -1.2021 105
21.2969 17.5 -0.3215 179
0.5893999999999999 0.4805 -0.1267 119
30.9219 25.2031 1.3916 54
28.0781 22.8906 2.1055 99
10.468800000000002 8.5391 -1.415 146
29.5781 24.1094 3.1132999999999997 233
12.625 10.289100000000001 -1.3262 4
28.875 23.5469 3.9101999999999997 182
16.1094 13.1328 -1.207 55
21.4531 17.5 -0.32299999999999995 63
0.6001 0.4858 -0.1288 210
0.6992 0.5659000000000001 -0.1307 246
28.2188 22.8438 2.1094 96
10.531199999999998 8.5234 -1.4188999999999998 92
28.5625 23.125 2.998 166
12.6875 10.273399999999999 -1.3300999999999998 249
16.1406 13.0703 -1.2061 218
21.6094 17.4844 -0.32420000000000004 159
0.6338 0.5097999999999999 -0.136 243
0.7012 0.5635 -0.1307 102
29.0938 23.3906 1.3018 3
28.5156 22.9375 2.127 133
10.5547 8.4844 -1.4188999999999998 137
29.1719 23.4531 3.0526999999999997 119
12.75 10.25 -1.3319999999999999 74
30.0625 24.1719 4.0508 237
16.2344 13.0547 -1.21 154
21.75 17.5 -0.32539999999999997 84
0.6108 0.488 -0.1305 204
0.7031000000000001 0.5615 -0.1307 155
28.6719 22.8906 2.1309 82
10.6172 8.4766 -1.4228999999999998 45
29.375 23.4531 3.0664 101
12.789100000000001 10.2109 -1.3330000000000002 15
16.2969 13.0156 -1.2109 41
21.8906 17.4844 -0.3267 135
0.6313 0.5005 -0.1346 120
22.3906 17.75 0.3333 146
0.7051000000000001 0.5586 -0.1307 49
28.7188 22.7656 2.1309 60
10.656199999999998 8.4453 -1.4238 137
29.2188 23.1562 3.043 10
12.843800000000002 10.1797 -1.335 142
16.4062 13.0 -1.2148 239
22.0469 17.4688 -0.32789999999999997 221
0.5991 0.4714 -0.127 187
22.5625 17.7656 0.335 253
0.7070000000000001 0.5562 -0.1307 93
29.9062 23.5312 1.3271000000000002 109
28.875 22.7188 2.1348 40
10.7031 8.4219 -1.4268 42
29.4219 23.1562 3.0547000000000004 58
12.914100000000001 10.1641 -1.3388999999999998 57
16.4688 12.9531 -1.2158 100
22.2031 17.4688 -0.3293 46
0.5820000000000001 0.4548 -0.1229 110
22.7656 17.7969 0.3369 80
0.7090000000000001 0.5537 -0.1307 172
29.7656 23.2656 1.3174000000000001 87
28.6719 22.3906 2.1133 50
10.75 8.3984 -1.4297 98
29.3125 22.9062 3.0351999999999997 218
12.976600000000001 10.1406 -1.3418 81
29.6719 23.1875 3.9531 3
16.5625 12.9375 -1.2197 80
22.3438 17.4688 -0.3308 173
0.624 0.4841 -0.1318 110
0.7109000000000001 0.5513 -0.1307 10
30.1406 23.375 1.3300999999999998 39
28.75 22.2969 2.1152 251
10.8047 8.3828 -1.4325999999999999 38
28.7031 22.2656 2.9629000000000003 121
13.023399999999999 10.1016 -1.3428 57
29.7188 23.0469 3.9492000000000003 145
16.625 12.898399999999999 -1.2217 57
22.5156 17.4531 -0.3323 199
0.6069 0.4675 -0.1277 156
0.7129000000000001 0.5488000000000001 -0.1307 174
31.2656 24.0781 1.376 112
29.1562 22.4531 2.1387 228
10.8672 8.3672 -1.4365 73
29.5781 22.7656 3.0449 45
13.093800000000002 10.0859 -1.3457 76
29.7344 22.8906 3.9395 135
16.75 12.898399999999999 -1.2266 103
22.8594 17.5938 -1.0059 95
22.6406 17.4375 -0.3335 55
0.6274000000000001 0.4797 -0.1318 82
0.7148 0.5464 -0.1307 35
31.2656 23.9062 1.3730000000000002 145
28.5625 21.8281 2.0898 111
10.914100000000001 8.3438 -1.4385 211
29.7031 22.7031 3.0507999999999997 190
13.148399999999999 10.0547 -1.3477000000000001 60
29.5938 22.625 3.9101999999999997 151
16.8281 12.8672 -1.2305 191
22.9219 17.5156 -1.0059 167
22.7969 17.4375 -0.3347 226
0.6069 0.46090000000000003 -0.127 184
0.7162999999999999 0.5439 -0.1307 125
28.3438 21.5156 2.0684 94
10.9531 8.3203 -1.4413999999999998 155
30.1406 22.8906 3.0879000000000003 5
13.2031 10.0234 -1.3506 121
29.6406 22.5 3.9062 73
16.8906 12.8203 -1.2314 203
23.0312 17.4844 -1.0078 177
22.9688 17.4375 -0.33640000000000003 47
0.6304 0.4756 -0.1318 27
0.6801999999999999 0.5132 -0.1234 58
35.4375 26.7188 1.5478999999999998 92
29.6719 22.375 2.1602 108
11.0078 8.2969 -1.4443000000000001 227
30.0312 22.6406 3.0683999999999996 14
13.25 9.9922 -1.3516 177
29.7031 22.3906 3.9043 23
16.9844 12.8125 -1.2354 122
23.1406 17.4531 -0.3381 102
0.645 0.4827 -0.1346 167
0.6884999999999999 0.5151 -0.1246 4
29.5 22.0781 2.1406 228
11.0547 8.2734 -1.4463 79
29.8594 22.3438 3.043 202
13.3125 9.9609 -1.3544999999999998 174
29.8281 22.3125 3.9101999999999997 188
17.0781 12.781199999999998 -1.2383 144
23.3438 17.4688 -0.34009999999999996 68
0.6436 0.478 -0.13390000000000002 98
0.6553 0.48710000000000003 -0.11800000000000001 237
35.9375 26.6875 1.5615 132
30.2344 22.4531 2.1875 73
30.1719 22.4219 3.0664 28
13.351600000000001 9.9141 -1.3544999999999998 114
29.9531 22.2656 3.918 103
17.1562 12.75 -1.2412 23
27.9375 20.75 -0.406 66
0.623 0.4595 -0.129 133
0.6698999999999999 0.4941 -0.1204 96
36.125 26.6406 1.5654 201
30.3906 22.4062 2.1934 38
29.25 21.5781 2.9648000000000003 95
13.406199999999998 9.8906 -1.3574000000000002 30
30.0312 22.1562 3.918 24
17.2031 12.6875 -1.2412 1
28.1094 20.7344 -0.4075 25
0.6279 0.4597 -0.1298 29
0.6846 0.501 -0.1229 219
36.4062 26.6562 1.5741999999999998 37
30.2031 22.1094 2.1758 122
29.2188 21.3906 2.9531 56
13.4844 9.875 -1.3622999999999998 138
29.9375 21.9219 3.8945 79
17.25 12.6328 -1.2412 200
28.3438 20.75 -0.40990000000000004 103
0.623 0.45289999999999997 -0.1284 43
0.667 0.48460000000000003 -0.1192 196
36.7188 26.6719 1.5830000000000002 82
30.5 22.1719 2.1914 20
29.3281 21.3125 2.9589999999999996 113
13.5703 9.8594 -1.3662 23
30.0 21.7969 3.8926 223
17.3906 12.6328 -1.248 239
28.5156 20.7344 -0.4114 128
0.6533 0.4714 -0.1346 31
0.6655 0.48 -0.1186 240
36.9375 26.6562 1.5888999999999998 129
31.2969 22.5781 2.2441 152
29.375 21.2031 2.9551 35
13.601600000000001 9.8125 -1.3662 56
30.4062 21.9375 3.9355 148
17.4688 12.601600000000001 -1.25 143
28.7031 20.7031 -0.4131 136
0.6323 0.45289999999999997 -0.1298 107
0.6572 0.47090000000000004 -0.1168 223
37.1562 26.625 1.5947 119
31.25 22.375 2.2344 69
29.4062 21.0625 2.9512 47
13.656199999999998 9.7812 -1.3691 187
30.4844 21.8281 3.9355 251
17.5625 12.585899999999999 -1.2549 172
28.9375 20.7188 -0.4153 39
0.6274000000000001 0.44630000000000003 -0.1284 246
0.6655 0.4731 -0.11800000000000001 216
37.4688 26.6406 1.6035 15
31.5469 22.4375 2.25 214
30.6406 21.7812 3.0683999999999996 150
13.718800000000002 9.75 -1.3711000000000002 35
30.5312 21.7031 3.9316000000000004 175
17.6562 12.5469 -1.2578 114
29.1406 20.7188 -0.4172 27
0.6099 0.4304 -0.1242 93
37.75 26.6406 1.6113 189
31.6875 22.3594 2.2539 125
30.8281 21.75 3.0781 178
13.7656 9.7188 -1.3730000000000002 43
30.6562 21.6406 3.9395 77
17.7188 12.5078 -1.2598 34
29.375 20.7344 -0.41969999999999996 96
0.6113000000000001 0.4282 -0.1242 46
38.0625 26.6719 1.6211000000000002 50
31.7656 22.25 2.2539 254
31.1406 21.8125 3.1016000000000004 86
13.8281 9.6875 -1.376 78
17.8438 12.5 -1.2646 125
29.6094 20.75 -0.4219 234
0.6484000000000001 0.4512 -0.1318 105
38.3125 26.6562 1.6279 228
43.3125 30.1406 3.0683999999999996 125
31.3125 21.7812 3.1113 138
13.8828 9.6562 -1.3779 234
17.9375 12.4844 -1.2695 237
29.8125 20.75 -0.4238 114
0.6758 0.4668 -0.1375 101
38.7188 26.7656 0.5498 30
38.5625 26.6406 1.6347999999999998 59
43.2812 29.9062 3.0586 107
31.25 21.5781 3.0976999999999997 158
13.9453 9.6328 -1.3809 109
18.0156 12.4453 -1.2715 104
30.0312 20.75 -0.426 79
38.8438 26.625 1.6425999999999998 64
43.2812 29.6719 3.0507999999999997 239
14.023399999999999 9.6172 -1.3857 47
18.125 12.4297 -1.2764 138
30.2812 20.75 -0.4285 30
39.1562 26.6406 1.6513999999999998 36
43.3125 29.4531 3.0449 39
14.0469 9.5547 -1.3847999999999998 142
18.2188 12.3906 -1.2793 44
31.5781 21.4844 -0.4456 235
39.5312 26.6719 0.5566 248
43.25 29.1875 3.0332 204
14.1328 9.5391 -1.3896000000000002 106
18.2969 12.343800000000002 -1.2812000000000001 118
31.5938 21.3125 -0.4448 121
39.7812 26.6406 1.6699000000000002 47
43.2812 28.9688 3.0273000000000003 64
14.210899999999999 9.5156 -1.3936000000000002 178
18.375 12.2969 -1.2832 200
31.6094 21.1562 -0.44380000000000003 170
40.0312 26.6094 1.6768 231
43.2812 28.7656 3.0214999999999996 205
14.2578 9.4766 -1.3944999999999999 41
18.5312 12.3203 -1.2919999999999998 9
31.6094 21.0156 -0.44310000000000005 79
43.2812 28.5625 3.0156 76
14.335899999999999 9.4531 -1.3994 205
18.5625 12.25 -1.2919999999999998 114
31.6094 20.8438 -0.44189999999999996 108
43.25 28.3281 3.0058999999999996 240
11.1094 7.2773 -1.3916 26
14.3906 9.4219 -1.4013999999999998 206
18.6719 12.226600000000001 -1.2959 48
31.6562 20.7344 -0.44170000000000004 94
40.875 26.5781 1.7012 59
43.25 28.1094 2.998 141
11.148399999999999 7.25 -1.3936000000000002 81
14.460899999999999 9.3984 -1.4053 218
18.7656 12.2031 -1.2997999999999998 161
31.7031 20.6094 -0.4412 223
43.25 27.8906 2.9922000000000004 77
11.2031 7.2265999999999995 -1.3965 147
14.523399999999999 9.3672 -1.4082 92
18.875 12.1719 -1.3047 114
31.8125 20.5156 -0.44170000000000004 128
41.5 26.5625 1.7187999999999999 205
43.25 27.6719 2.9844 255
11.2344 7.1914 -1.3975 88
14.601600000000001 9.3438 -1.4131 195
18.9688 12.1406 -1.3075999999999999 69
31.9844 20.4688 -0.44310000000000005 129
43.25 27.4688 2.9785000000000004 240
11.273399999999999 7.1562 -1.3984 109
14.664100000000001 9.3125 -1.415 147
19.0469 12.093800000000002 -1.3105000000000002 65
32.1875 20.4531 -0.4451 62
43.2188 27.2344 2.9707 207
11.3203 7.136699999999999 -1.4022999999999999 112
14.7422 9.2891 -1.4199000000000002 81
19.125 12.0547 -1.3125 60
32.4375 20.4375 -0.4473 102
43.1875 27.0312 2.9608999999999996 173
11.335899999999999 7.0977 -1.4013999999999998 126
14.7969 9.2578 -1.4219 221
19.25 12.0469 -1.3184 159
32.6562 20.4375 -0.4495 248
42.7812 26.5781 1.7568000000000001 37
11.398399999999999 7.078099999999999 -1.4053 201
14.875 9.2422 -1.4268 180
19.3281 12.0078 -1.3213 220
32.9062 20.4375 -0.45189999999999997 55
43.1562 26.5938 2.9473000000000003 102
11.4219 7.0352 -1.4053 135
14.9453 9.2109 -1.4306999999999999 247
19.4375 11.976600000000001 -1.3262 214
33.125 20.4219 -0.4543 133
43.25 26.4375 2.9452999999999996 223
11.460899999999999 7.0078 -1.4072 82
14.9844 9.1641 -1.4316 5
19.5156 11.9297 -1.3281 37
33.375 20.4062 -0.45649999999999996 222
43.875 26.6094 0.5991 5
43.5625 26.4219 2.9608999999999996 163
11.5156 6.980499999999999 -1.4102000000000001 234
15.093800000000002 9.1484 -1.4385 189
19.6406 11.906199999999998 -1.3330000000000002 110
33.6562 20.4062 -0.4592 116
44.1562 26.5625 0.6021 52
43.0625 25.9219 1.7538999999999998 69
43.9375 26.4375 2.9805 250
11.5781 6.9648 -1.415 123
15.156199999999998 9.1172 -1.4413999999999998 123
19.6719 11.835899999999999 -1.3330000000000002 165
33.9062 20.3906 -0.4617 192
44.5312 26.5938 0.606 115
44.2812 26.4531 1.7997999999999998 84
44.2812 26.4375 2.998 41
11.5781 6.9140999999999995 -1.4131 99
15.218800000000002 9.0859 -1.4443000000000001 164
19.8281 11.835899999999999 -1.3408000000000002 0
34.1562 20.4062 -0.4644 181
44.8438 26.5625 0.6084 103
44.6875 26.4688 1.8115 240
44.625 26.4375 3.0156 233
11.625 6.890599999999999 -1.416 172
15.2656 9.0469 -1.4453 107
19.9375 11.8125 -1.3457 64
34.4375 20.4062 -0.467 236
45.25 26.5938 0.6128 164
45.0 26.4688 1.8213 182
44.9375 26.4062 3.0293 103
11.664100000000001 6.859400000000001 -1.4180000000000001 52
20.0156 11.7656 -1.3477000000000001 128
34.6875 20.3906 -0.4697 130
45.5312 26.5625 0.6152000000000001 5
43.0 25.0781 1.7363 235
45.2812 26.4219 3.0488 38
11.6797 6.8164 -1.4169999999999998 99
20.1406 11.75 -1.3544999999999998 209
34.9688 20.4062 -0.4727 60
45.875 26.5312 0.6187 183
43.125 24.9375 1.7372999999999998 72
45.625 26.375 3.0625 193
11.7344 6.7852 -1.4199000000000002 70
20.2344 11.7031 -1.3574000000000002 163
35.25 20.375 -0.4753 230
46.2188 26.5 0.6221 217
46.0625 26.4219 1.8525 60
44.9062 25.7656 3.0098000000000003 184
11.7656 6.75 -1.4209 182
20.3438 11.6719 -1.3622999999999998 172
35.5312 20.375 -0.478 226
46.5938 26.5156 0.626 133
46.3438 26.375 1.8603999999999998 185
44.2812 25.2031 2.9629000000000003 35
11.789100000000001 6.7109000000000005 -1.4209 161
20.5 11.664100000000001 -1.3700999999999999 240
35.8125 20.375 -0.48100000000000004 29
43.0312 24.2969 1.7246000000000001 146
44.25 24.9688 2.9531 50
11.8281 6.675800000000001 -1.4228999999999998 197
12.148399999999999 6.855499999999999 -1.1357 54
20.5625 11.6094 -1.3711000000000002 210
36.0625 20.3594 -0.48340000000000005 219
47.2812 26.4531 0.6328 4
43.1562 24.1719 1.7256 124
44.2188 24.75 2.9452999999999996 72
11.843800000000002 6.6289 -1.4219 8
12.1328 6.792999999999999 -1.1328 233
20.6875 11.5781 -1.3769999999999998 189
36.4062 20.375 -0.4868 163
47.625 26.4375 0.6362 23
11.843800000000002 6.574199999999999 0.7856000000000001 120
11.8828 6.5977 -1.4238 26
11.914100000000001 6.613300000000001 1.1094 147
12.1172 6.7265999999999995 -1.1279000000000001 2
12.1875 6.769500000000001 -0.8086 206
36.6562 20.3594 -0.48950000000000005 68
11.835899999999999 6.5234000000000005 0.7837000000000001 158
11.9219 6.5703 -1.4258000000000002 108
11.8906 6.550800000000001 1.1055 64
12.125 6.6797 -1.127 188
12.1875 6.7148 -0.8070999999999999 235
12.1875 6.7109000000000005 -0.4839 27
12.1719 6.703099999999999 -0.1616 177
12.226600000000001 6.6836 0.162 23
12.1719 6.6523 0.4824 125
11.843800000000002 6.4727 0.7822 200
11.9453 6.5273 -1.4258000000000002 191
12.093800000000002 6.613300000000001 -1.1220999999999999 192
12.1953 6.6640999999999995 -0.8057 235
12.1953 6.6640999999999995 -0.48340000000000005 139
12.1875 6.6602 -0.16149999999999998 54
12.25 6.636699999999999 0.162 16
12.1797 6.6015999999999995 0.4819 205
11.843800000000002 6.417999999999999 0.7812 221
11.9922 6.5 -1.4287 226
11.8906 6.4453 1.1016 92
12.164100000000001 6.5898 -1.126 248
12.2969 6.6602 1.4647999999999999 154
12.2344 6.6289 -0.8070999999999999 185
12.218800000000002 6.6211 1.7822 100
12.25 6.640599999999999 -0.4849 135
12.2422 6.6328 2.1172 55
12.218800000000002 6.6172 -0.1616 216
12.164100000000001 6.5898 2.4316 78
12.3125 6.613300000000001 0.1625 114
12.218800000000002 6.5664 0.4824 35
11.8203 6.3515999999999995 0.7783 215
12.023399999999999 6.457000000000001 -1.4297 103
11.8281 6.355499999999999 1.0928 95
12.2578 6.5859000000000005 -1.1328 168
21.2344 11.406199999999998 -1.3994 23
12.2344 6.574199999999999 1.7812000000000001 2
12.3125 6.6172 -0.16260000000000002 89
12.1875 6.546900000000001 2.4316 181
44.3125 23.625 1.7519999999999998 164
11.8281 6.3047 0.7773 73
12.039100000000001 6.417999999999999 -1.4297 140
11.851600000000001 6.3125 1.0928 253
12.343800000000002 6.578099999999999 -1.1387 119
21.375 11.3906 -1.4062000000000001 215
49.7812 26.5312 -0.6587000000000001 74
12.2422 6.5234000000000005 2.4395 178
49.9375 26.375 0.6597 94
44.375 23.4375 1.751 59
11.843800000000002 6.2578 0.7768999999999999 15
12.101600000000001 6.394500000000001 -1.4336000000000002 3
11.875 6.2734000000000005 1.0928 165
21.5156 11.3672 -1.4131 127
50.375 26.6094 -0.6655 140
44.625 23.4062 1.7578 143
11.843800000000002 6.2109000000000005 0.7759 94
12.1172 6.355499999999999 -1.4336000000000002 243
21.5781 11.3203 -1.415 177
44.9375 23.5625 -0.5922999999999999 111
11.906199999999998 6.1914 0.7778 102
12.164100000000001 6.324199999999999 -1.4365 237
21.7188 11.289100000000001 -1.4209 211
44.9688 23.3906 -0.5918 112
45.125 23.25 1.7715 201
12.7656 6.578099999999999 0.833 44
12.210899999999999 6.2890999999999995 -1.4385 35
21.8594 11.2578 -1.4277000000000002 154
46.1875 23.5938 1.8096 98
43.7188 22.3281 2.8535000000000004 244
12.2344 6.25 -1.4394999999999998 236
21.9531 11.210899999999999 -1.4316 177
45.0312 22.8281 1.7616999999999998 19
44.4375 22.5156 2.8945 246
12.2656 6.2148 -1.4404 183
22.0781 11.1797 -1.4365 1
44.9688 22.6094 1.7559 90
45.4688 22.8438 2.957 214
12.2969 6.1797 -1.4424000000000001 59
22.25 11.1797 -1.4463 206
52.7812 26.5156 -0.6899 178
45.3125 22.5625 1.7656 10
52.625 26.2031 3.418 212
12.335899999999999 6.140599999999999 -1.4434 167
100.0 49.7812 9.125 8
22.3125 11.1094 -1.4472999999999998 175
54.125 26.9375 -0.7061 92
45.5 22.4531 1.7705000000000002 7
46.375 22.8906 3.0058999999999996 193
12.375 6.105499999999999 -1.4453 190
54.0625 26.6875 -0.7041 97
45.9062 22.4375 1.7822 7
12.375 6.0547 -1.4434 69
46.7188 22.8438 -0.6069 234
47.1875 22.875 1.8291 105
100.0 48.4688 6.4648 254
12.398399999999999 6.011699999999999 -1.4443000000000001 249
99.875 48.4062 9.0625 121
54.4688 26.4062 -0.7070000000000001 191
47.0 22.5938 1.8193000000000001 26
99.9375 48.0625 6.449199999999999 206
12.4297 5.9765999999999995 -1.4443000000000001 128
99.9375 48.0312 9.0547 56
99.9375 47.6562 6.4414 252
12.4531 5.9375 -1.4453 179
99.9375 47.6562 9.0391 72
45.0312 21.4688 -0.5825 77
55.4062 26.1719 2.1387 49
12.468800000000002 5.890599999999999 -1.4443000000000001 44
99.875 47.1562 9.0234 32
45.25 21.375 -0.5845 97
55.8438 26.1406 2.1504 63
12.5 5.8515999999999995 -1.4463 200
99.9375 46.7812 9.0078 114
56.4375 26.4062 -0.7275 237
56.3438 26.125 2.168 41
12.5156 5.8047 -1.4453 138
56.875 26.125 2.1836 39
12.5469 5.761699999999999 -1.4463 56
57.5938 26.4531 -0.7402 46
57.75 26.2812 0.7406999999999999 118
57.8125 26.3281 -0.7422 162
99.8125 45.0625 8.9453 43
19.4844 8.7891 -1.2412 226
99.875 44.625 6.363300000000001 166
15.0703 6.730499999999999 -0.9575 130
60.1875 26.8906 -0.77 178
99.875 44.2188 6.3515999999999995 174
99.875 44.1875 8.9141 235
14.9375 6.609400000000001 -1.3311000000000002 58
14.9453 6.613300000000001 -0.9481999999999999 204
14.968800000000002 6.6211 -0.5698 175
99.875 43.8438 6.3438 5
99.75 43.7812 8.8984 29
14.9531 6.5586 -1.3300999999999998 93
14.9297 6.550800000000001 -0.9458 240
14.960899999999999 6.5664 -0.5688 11
60.0938 26.3594 -0.7666 158
55.5 24.1406 2.1113 71
100.0 43.4688 6.3398 52
99.8125 43.4062 8.8828 217
14.906199999999998 6.484400000000001 -1.3241999999999998 139
14.8906 6.4727 -0.9419 244
14.9219 6.488300000000001 -0.5664 194
61.4062 26.7031 -0.7822 179
99.75 42.9375 8.8672 169
14.906199999999998 6.417999999999999 -1.3222999999999998 236
14.875 6.4023 -0.9399 74
14.8828 6.4062 -0.564 218
61.375 26.4219 -0.7807999999999999 234
61.4062 26.1719 0.7798 221
55.875 23.8281 2.1191 81
99.8125 42.5312 8.8594 101
14.8906 6.3477 -1.3184 9
14.875 6.3398 -0.938 60
14.851600000000001 6.332000000000001 -0.562 45
61.5 26.2188 -0.7807999999999999 50
14.898399999999999 6.2852 -1.3174000000000001 181
14.8828 6.2812 -0.9375 72
14.875 6.2773 -0.562 37
99.875 41.7188 8.8359 173
15.023399999999999 6.2812 -1.3262 22
15.0469 6.2852 -0.9458 110
14.968800000000002 6.2539 -0.5645 152
99.8125 41.3125 8.8203 101
14.9844 6.203099999999999 -1.3213 204
15.0625 6.238300000000001 -0.9458 162
15.031199999999998 6.2227 -0.5664 80
99.875 40.9688 6.2773 47
99.8125 40.9375 8.8047 26
15.093800000000002 6.1914 -1.3291 60
15.085899999999999 6.1875 -0.9458 31
65.125 26.7031 -0.8218000000000001 239
99.75 40.4688 8.7891 126
15.164100000000001 6.1523 -1.3330000000000002 104
15.1875 6.1640999999999995 -0.9506999999999999 0
16.1094 6.5390999999999995 -0.2025 37
16.1406 6.484400000000001 0.2024 98
16.1562 6.488300000000001 0.606 34
16.1875 6.5078 1.0127 40
16.0781 6.4609000000000005 -1.4121000000000001 111
16.0938 6.4688 -1.0068000000000001 176
16.1094 6.4727 -0.6045 186
16.1094 6.4688 -0.20199999999999999 80
16.125 6.4102 0.20199999999999999 126
16.1094 6.4062 0.604 251
16.1406 6.4140999999999995 1.0078 120
16.1094 6.4062 1.4131 129
16.1094 6.4062 -1.4131 183
16.125 6.4140999999999995 1.8203 193
16.125 6.4102 -1.0068000000000001 197
16.125 6.4140999999999995 2.2266 70
16.125 6.4102 -0.604 146
16.125 6.4140999999999995 2.6406 123
16.1094 6.4062 -0.2018 144
16.125 6.4140999999999995 3.0526999999999997 127
16.1406 6.3515999999999995 0.20190000000000002 161
16.1094 6.3398 0.6025 191
16.1094 6.3398 1.0049 8
16.125 6.3438 1.4111000000000002 68
16.1406 6.3515999999999995 -1.4131 43
16.1094 6.3398 1.8154 102
16.1406 6.3515999999999995 -1.0068000000000001 235
16.1094 6.3398 2.2207 169
16.1562 6.359400000000001 -0.6045 102
16.1094 6.3398 2.6348000000000003 187
16.1094 6.3398 -0.20149999999999998 241
16.125 6.3438 3.0469 145
16.1719 6.300800000000001 0.20199999999999999 13
16.1406 6.2890999999999995 0.603 24
16.125 6.2812 1.0039 178
16.125 6.2852 1.4111000000000002 192
16.2031 6.3164 -1.4169999999999998 43
16.125 6.2852 1.8144999999999998 142
13.9375 5.4297 -0.8676999999999999 83
16.1094 6.2812 2.2188 206
16.2031 6.3164 -0.6054999999999999 47
16.125 6.2852 2.6327999999999996 135
16.1562 6.296900000000001 -0.20190000000000002 155
16.1406 6.2890999999999995 3.0469 17
16.2031 6.2539 0.2023 209
16.1719 6.238300000000001 0.6035 6
16.1719 6.238300000000001 1.0059 171
16.1406 6.230499999999999 1.4102000000000001 29
16.2812 6.2812 -1.4219 68
16.1719 6.238300000000001 1.8174000000000001 147
13.976600000000001 5.394500000000001 -0.8691 191
16.1406 6.2265999999999995 2.2207 17
16.2812 6.2812 -0.6074 16
16.1719 6.2422 2.6367000000000003 241
16.25 6.269500000000001 -0.2028 145
16.1719 6.238300000000001 3.0488 142
16.2969 6.2265999999999995 0.20309999999999997 213
16.25 6.203099999999999 0.6054999999999999 204
16.25 6.203099999999999 1.0098 22
16.2031 6.1875 1.4131 213
16.2656 6.2148 1.8262 15
13.9453 5.324199999999999 -0.8656999999999999 232
16.2188 6.1914 2.2266 135
16.25 6.203099999999999 2.6445 230
55.8438 21.1094 2.084 39
99.9375 37.7812 8.7188 211
13.960899999999999 5.2773 -1.2158 145
13.9453 5.269500000000001 -0.8647 95
58.25 21.7812 2.1699 31
17.9375 6.707000000000001 1.1113 79
13.9453 5.2148 -1.2129 43
13.875 5.1875 -0.8589 118
14.0078 5.238300000000001 -0.5205 135
14.0781 5.265599999999999 -0.17489999999999997 113
17.9219 6.6289 0.2225 219
17.8594 6.609400000000001 0.6631 118
17.9219 6.6328 1.1094 254
100.0 37.0 8.7031 16
13.9922 5.175800000000001 -1.2148 200
13.851600000000001 5.125 -0.8564 118
13.9844 5.171900000000001 -0.519 200
14.031199999999998 5.1914 -0.1741 143
17.9375 6.5625 0.665 162
17.9219 6.5625 1.1084 63
99.9375 36.5625 8.6875 151
13.8594 5.0703 -0.856 2
13.9297 5.0977 -0.5161 215
14.0 5.1211 -0.17350000000000002 97
17.9531 6.4961 1.1084 106
99.9375 36.1875 8.6797 80
14.0156 5.0742 -1.2139 182
13.8906 5.0273 -0.8569 37
13.9219 5.0391 -0.5151 66
13.9531 5.0508 -0.1726 23
17.9688 6.4336 1.1074 209
99.9375 35.7812 8.6641 182
14.0 5.0117 -1.2109 83
13.976600000000001 5.0039 -0.8608 125
13.8828 4.9727 -0.5132 230
13.9531 4.9961 -0.1724 100
68.875 24.375 2.5488 88
99.9375 35.4062 8.6562 31
14.0547 4.9766 -1.2139 221
13.9453 4.9375 -0.8579000000000001 53
13.7578 4.8711 -0.5078 71
68.625 24.0469 2.5391 49
71.0625 24.8906 4.3789 101
99.875 34.9688 8.6406 110
13.968800000000002 4.8906 -0.8584 219
14.0625 4.9219 -0.5186 124
71.25 24.6719 4.3828 25
99.875 34.5938 8.6328 246
99.9375 34.2188 8.625 162
20.6875 7.082000000000001 -0.7617 1
68.375 23.1406 4.1992 138
99.875 33.8125 8.6094 62
20.7344 7.015599999999999 -0.7622 64
67.8125 22.6875 2.4941 34
70.6875 23.6562 4.3359 158
99.875 33.4062 8.5938 124
20.7656 6.949199999999999 -0.7626999999999999 245
68.375 22.6094 4.1875 245
20.9375 6.925800000000001 -0.7686 132
67.8125 22.1875 2.4902 233
68.4375 22.3906 4.1875 221
99.8125 32.6562 8.5781 238
69.6875 22.5625 4.2617 55
101.0 32.2812 8.6562 2
67.625 21.3438 2.4746 22
69.375 21.9062 4.2305 255
101.0 31.875 8.6484 12
22.4375 7.082000000000001 -1.3662 172
13.4297 4.2422 -0.1638 62
68.0 21.2031 2.4863 72
13.468800000000002 4.1992 -0.491 87
13.406199999999998 4.1797 -0.16329999999999997 201
67.9375 20.9375 2.4805 72
101.0 31.1094 8.6328 176
13.335899999999999 4.1094 -1.1367 218
13.414100000000001 4.1328 -0.8140000000000001 200
13.406199999999998 4.1289 -0.488 40
13.3906 4.125 -0.163 198
67.9375 20.6719 2.4785 9
71.6875 21.8125 4.3594 15
13.3125 4.0508 -1.1328 73
13.3906 4.0742 -0.812 152
13.375 4.0664 -0.4863 217
13.3906 4.0742 -0.1628 223
13.335899999999999 4.0078 -1.1338 180
13.398399999999999 4.0234 -0.8115000000000001 111
13.351600000000001 4.0117 -0.4851 153
13.3828 4.0195 -0.1625 231
13.601600000000001 4.0352 0.165 235
69.8125 20.7188 2.541 111
13.4297 3.9824 -0.8125 247
13.3594 3.9629000000000003 -0.4849 138
13.3672 3.9648000000000003 -0.16219999999999998 13
13.593800000000002 3.9785000000000004 0.16469999999999999 174
13.4531 3.9395 -0.813 93
13.3672 3.9141000000000004 -0.48460000000000003 38
13.3828 3.918 -0.16219999999999998 239
13.5781 3.9276999999999997 0.16440000000000002 106
107.6875 31.1406 6.519500000000001 241
13.4531 3.8926 -0.8125 106
13.3125 3.8516000000000004 -0.48219999999999996 104
13.3125 3.8495999999999997 -0.1611 9
13.6797 3.9062 0.1654 38
13.6406 3.8964999999999996 -1.1553 200
13.5 3.8555 -0.8145 157
13.3203 3.8047000000000004 -0.4819 38
13.2969 3.7969 -0.16079999999999997 28
13.6797 3.8535000000000004 -1.1572 142
13.5547 3.8164 -0.8164 60
13.289100000000001 3.7441000000000004 -0.4805 154
13.3594 3.7637 -0.16140000000000002 209
13.718800000000002 3.8125 -1.1592 37
13.6172 3.7832 -0.8193 230
13.3203 3.7012 -0.48100000000000004 82
13.343800000000002 3.7089999999999996 -0.1611 88
13.6719 3.748 -0.8218000000000001 94
13.375 3.6660000000000004 -0.4824 46
13.4219 3.6797000000000004 -0.16190000000000002 102
13.4375 3.6348000000000003 -0.4844 74
25.3438 6.2812 -0.3044 127
25.3594 6.1953 0.3044 113
25.3125 6.1836 0.9077 224
25.3906 6.203099999999999 3.3574 182
25.3125 6.1836 3.9668 164
25.2969 6.1797 -0.3037 61
25.3438 6.1914 4.5938 164
25.3281 6.0977 0.3037 14
25.2969 6.0938 0.9067000000000001 143
25.3125 6.0938 1.5116999999999998 43
25.2969 6.0898 2.1211 113
25.2969 6.0898 2.7305 182
25.2812 6.0898 3.3398000000000003 243
25.3438 6.1015999999999995 -0.9081999999999999 80
25.2656 6.0859000000000005 3.957 190
25.2812 6.0898 -0.3032 79
25.2812 6.0898 4.5781 82
25.3438 6.0078 0.3037 180
25.2969 6.0 0.9062 71
25.2969 6.0 1.5097999999999998 155
25.2969 6.0 2.1211 131
25.2969 6.0 2.7285000000000004 82
25.2812 5.9961 3.3358999999999996 34
25.4531 6.0352 -0.9120999999999999 123
25.3125 6.0039 3.9608999999999996 175
25.3594 6.015599999999999 -0.304 129
25.2969 5.9961 4.5781 171
25.375 5.9297 0.9081999999999999 248
25.375 5.925800000000001 1.5127000000000002 202
12.6719 2.9608999999999996 -1.3633000000000002 64
25.3594 5.921900000000001 2.123 96
12.6875 2.9648000000000003 -1.0605 138
12.593800000000002 2.9433999999999996 1.3544999999999998 34
12.664100000000001 2.9589999999999996 -0.7539 24
25.3594 5.921900000000001 3.3438 186
25.4844 5.953099999999999 3.9844 220
25.4062 5.9336 4.5938 83
12.6797 2.9141000000000004 -1.3633000000000002 181
12.6797 2.9141000000000004 -1.0595999999999999 77
12.6094 2.8983999999999996 1.3555000000000001 141
12.6875 2.9160000000000004 -0.7548999999999999 59
12.5703 2.8887 1.6543 250
12.6797 2.9120999999999997 -0.4524 70
12.664100000000001 2.9101999999999997 -0.15109999999999998 46
12.6953 2.8711 0.1514 162
12.664100000000001 2.8632999999999997 0.4514 90
12.6797 2.8672000000000004 0.7539 83
12.6875 2.8691000000000004 -1.3633000000000002 87
12.656199999999998 2.8613 1.0556999999999999 191
12.6719 2.8651999999999997 -1.0576 187
12.601600000000001 2.8495999999999997 1.3535 224
12.6797 2.8672000000000004 -0.7539 222
12.585899999999999 2.8457 1.6543 188
12.6953 2.8691000000000004 -0.4526 166
12.664100000000001 2.8632999999999997 -0.1509 188
12.6953 2.8202999999999996 0.15109999999999998 49
12.6719 2.8164 0.4517 108
12.6797 2.8183999999999996 0.7529 33
12.6875 2.8202999999999996 -1.3613 126
12.6953 2.8223000000000003 1.0586 116
12.664100000000001 2.8145 -1.0556999999999999 200
12.593800000000002 2.7988 1.3516 205
12.6719 2.8164 -0.7524 234
12.5781 2.7969 1.6522999999999999 19
12.6875 2.8202999999999996 -0.4521 246
12.664100000000001 2.8145 1.9716999999999998 184
12.664100000000001 2.8145 -0.1508 141
12.664100000000001 2.8145 2.2793 77
12.6875 2.7714999999999996 0.1509 113
12.6797 2.7714999999999996 0.4514 48
12.6797 2.7714999999999996 0.7524 6
12.6875 2.7733999999999996 -1.3603999999999998 21
12.6875 2.7733999999999996 1.0566 29
12.6875 2.7733999999999996 -1.0576 70
12.6094 2.7558999999999996 1.3516 229
12.664100000000001 2.7676 -0.7515000000000001 247
12.5781 2.75 1.6503999999999999 133
12.6953 2.7733999999999996 -0.45189999999999997 247
12.6797 2.7714999999999996 1.9727000000000001 255
12.656199999999998 2.7676 -0.1506 239
12.625 2.7598000000000003 2.2715 51
12.664100000000001 2.7245999999999997 0.1506 219
12.6875 2.7285000000000004 0.4514 131
12.6719 2.7245999999999997 0.7515000000000001 119
12.6797 2.7266000000000004 -1.3584 42
12.6797 2.7285000000000004 1.0556999999999999 3
12.6797 2.7285000000000004 -1.0556999999999999 68
12.6094 2.7129000000000003 1.3506 253
12.656199999999998 2.7226999999999997 -0.7505 5
12.5703 2.7031 1.6484 178
12.6719 2.7266000000000004 -0.4509 207
12.6719 2.7245999999999997 1.9697 138
12.664100000000001 2.7245999999999997 -0.1506 127
12.664100000000001 2.7245999999999997 2.2773 229
12.6797 2.6836 0.1506 24
12.6719 2.6836 0.4507 65
12.6797 2.6836 0.7515000000000001 95
12.6797 2.6836 -1.3574000000000002 68
12.664100000000001 2.6797000000000004 1.0537 154
12.664100000000001 2.6797000000000004 -1.0537 67
12.625 2.6719 1.3516 83
12.664100000000001 2.6797000000000004 -0.7505 78
12.5703 2.6601999999999997 1.6465 178
12.6719 2.6816000000000004 -0.45039999999999997 91
12.648399999999999 2.6776999999999997 1.9647999999999999 13
12.6797 2.6836 -0.1506 95
12.664100000000001 2.6797000000000004 2.2754 148
12.6719 2.6327999999999996 0.1505 34
12.6719 2.6327999999999996 0.45020000000000004 159
12.6797 2.6348000000000003 0.7509999999999999 14
12.6797 2.6348000000000003 -1.3563999999999998 224
12.6719 2.6327999999999996 1.0537 220
12.664100000000001 2.6308999999999996 -1.0527 213
12.601600000000001 2.6191000000000004 1.3486000000000002 98
12.664100000000001 2.6308999999999996 -0.75 66
12.5781 2.6151999999999997 1.6475 181
12.6719 2.6327999999999996 -0.45020000000000004 7
12.648399999999999 2.6289 1.9638999999999998 145
12.664100000000001 2.6327999999999996 -0.15039999999999998 123
12.664100000000001 2.6308999999999996 2.2734 42
12.6875 2.5898000000000003 0.1505 32
12.664100000000001 2.5858999999999996 0.4497 73
12.6719 2.5879000000000003 0.75 143
12.6875 2.5898000000000003 -1.3563999999999998 238
12.6719 2.5858999999999996 1.0527 112
12.664100000000001 2.5858999999999996 -1.0527 146
12.585899999999999 2.5702999999999996 1.3457 37
12.656199999999998 2.5839999999999996 -0.7484999999999999 26
12.5781 2.5683999999999996 1.6455000000000002 29
12.6719 2.5879000000000003 -0.45 51
12.656199999999998 2.5839999999999996 1.9628999999999999 219
12.656199999999998 2.5839999999999996 -0.1501 102
12.6406 2.582 2.2676 107
12.6719 2.541 0.1503 15
12.6797 2.543 0.4497 30
12.664100000000001 2.541 0.7490000000000001 189
12.6875 2.5449 -1.3555000000000001 35
12.6797 2.543 1.0527 61
12.664100000000001 2.5391 -1.0518 174
12.601600000000001 2.5273 1.3457 14
12.648399999999999 2.5371 -0.748 251
12.5703 2.5195 1.6436000000000002 238
12.6797 2.543 -0.4497 169
12.656199999999998 2.5391 1.9619 119
12.664100000000001 2.5391 -0.1501 202
12.6406 2.5352 2.2656 92
12.656199999999998 2.4922 0.1499 249
12.6875 2.498 0.4497 130
12.6719 2.4941 0.7484999999999999 204
12.6719 2.4941 -1.3525 188
12.6797 2.4961 1.0518 116
12.664100000000001 2.4941 -1.0508 177
12.601600000000001 2.4824 1.3457 202
12.656199999999998 2.4922 -0.7476 54
12.5547 2.4727 1.6406 15
12.6719 2.4941 -0.44920000000000004 251
12.656199999999998 2.4922 1.9609 232
12.664100000000001 2.4941 -0.15 89
12.6406 2.4902 2.2656 244
12.6719 2.4512 0.15 0
12.664100000000001 2.4512 0.4487 178
12.6719 2.4531 0.7484999999999999 230
12.6719 2.4512 -1.3516 105
12.664100000000001 2.4492 1.0498 49
12.664100000000001 2.4512 -1.0498 139
12.593800000000002 2.4355 1.3437999999999999 23
12.664100000000001 2.4492 -0.7476 44
12.5625 2.4297 1.6406 158
12.664100000000001 2.4492 -0.4487 102
12.6406 2.4453 1.9569999999999999 228
12.6719 2.4512 -0.15 186
12.656199999999998 2.4492 2.2656 220
12.6797 2.4102 0.15 255
12.664100000000001 2.4062 0.4482 107
12.6797 2.4102 0.748 148
12.6797 2.4102 -1.3525 101
12.6719 2.4082 1.0498 189
12.664100000000001 2.4062 -1.0488 10
12.585899999999999 2.3926 1.3418 124
12.6719 2.4082 -0.748 249
12.5703 2.3887 1.6406 132
12.6719 2.4082 -0.4487 88
12.6406 2.4023 1.9561000000000002 39
12.656199999999998 2.4043 -0.14980000000000002 152
12.648399999999999 2.4043 2.2637 220
12.6719 2.3594 0.1499 15
12.656199999999998 2.3574 0.44780000000000003 241
12.664100000000001 2.3594 0.7471 180
12.6797 2.3613 -1.3516 32
12.664100000000001 2.3594 1.0488 229
12.664100000000001 2.3594 -1.0488 110
12.5781 2.3418 1.3397999999999999 38
12.656199999999998 2.3574 -0.7465999999999999 5
12.5703 2.3418 1.6396000000000002 131
12.6719 2.3594 -0.4482 145
12.656199999999998 2.3574 1.9561000000000002 44
12.648399999999999 2.3555 -0.1495 118
12.6328 2.3535 2.2598 221
12.6797 2.3145 0.14980000000000002 144
12.6719 2.3145 0.44799999999999995 178
12.664100000000001 2.3125 0.7461 108
12.6719 2.3145 -1.3486000000000002 144
12.6719 2.3145 1.0488 40
12.6719 2.3145 -1.0488 242
12.5781 2.2969 1.3388999999999998 9
12.648399999999999 2.3086 -0.7451000000000001 117
12.5625 2.2949 1.6377000000000002 26
12.6797 2.3145 -0.4482 133
12.656199999999998 2.3105 1.9550999999999998 57
12.648399999999999 2.3105 -0.1494 65
12.6406 2.3086 2.2578 198
12.656199999999998 2.2656 0.1494 74
12.664100000000001 2.2676 0.4475 20
12.664100000000001 2.2676 0.7456 165
12.664100000000001 2.2676 -1.3477000000000001 80
12.664100000000001 2.2676 1.0469 152
12.6719 2.2695 -1.0479 168
12.585899999999999 2.2539 1.3397999999999999 21
12.648399999999999 2.2637 -0.7451000000000001 120
12.5469 2.2461 1.6338 100
12.664100000000001 2.2676 -0.4473 61
12.648399999999999 2.2656 1.9531 229
12.6406 2.2637 -0.1493 185
12.648399999999999 2.2637 2.2578 169
12.656199999999998 2.2207 0.1494 226
12.664100000000001 2.2207 0.4473 56
12.664100000000001 2.2227 0.7456 108
12.6719 2.2227 -1.3477000000000001 152
12.656199999999998 2.2207 1.0459 26
12.664100000000001 2.2207 -1.0469 237
12.585899999999999 2.209 1.3388999999999998 116
12.656199999999998 2.2207 -0.7451000000000001 190
12.5625 2.2031 1.6347999999999998 13
12.656199999999998 2.2207 -0.447 7
12.6406 2.2188 1.9512 233
12.648399999999999 2.2188 -0.1493 109
12.6406 2.2168 2.2559 10
12.6719 2.1777 0.1494 151
12.648399999999999 2.1738 0.44630000000000003 48
12.6797 2.1777 0.7456 109
12.6719 2.1777 -1.3466999999999998 196
12.648399999999999 2.1738 1.0449 186
12.656199999999998 2.1758 -1.0459 17
12.5781 2.1621 1.3369 17
12.664100000000001 2.1758 -0.7451000000000001 158
12.5781 2.1602 1.6357 110
12.6719 2.1777 -0.447 168
12.6406 2.1719 1.9491999999999998 1
12.6328 2.1699 -0.1489 124
12.648399999999999 2.1738 2.2559 183
12.6719 2.1328 0.1494 101
12.656199999999998 2.1289 0.44630000000000003 251
12.664100000000001 2.1309 0.7445999999999999 170
12.6719 2.1328 -1.3457 82
12.664100000000001 2.1309 1.0449 167
12.664100000000001 2.1309 -1.0449 197
12.5781 2.1172 1.3359 3
12.656199999999998 2.1289 -0.7441 191
12.5625 2.1133 1.6328 210
12.664100000000001 2.1309 -0.4468 146
12.648399999999999 2.127 1.9491999999999998 227
12.6328 2.125 -0.1489 126
12.6328 2.125 2.252 37
12.664100000000001 2.084 0.1492 176
12.664100000000001 2.084 0.44630000000000003 145
12.648399999999999 2.082 0.7432 113
12.656199999999998 2.084 -1.3437999999999999 110
12.6719 2.0859 1.0459 120
12.664100000000001 2.084 -1.0449 45
12.585899999999999 2.0723 1.3359 142
12.648399999999999 2.082 -0.7432 148
12.5547 2.0664 1.6309 248
12.6719 2.0879 -0.4468 38
12.6406 2.082 1.9472999999999998 171
12.6406 2.0801 -0.1489 66
12.6406 2.0801 2.252 224
12.648399999999999 2.0371 0.1489 175
12.664100000000001 2.041 0.44630000000000003 155
12.656199999999998 2.0391 0.7432 79
12.648399999999999 2.0371 -1.3418 222
12.656199999999998 2.0391 1.0439 211
12.6719 2.041 -1.0449 84
12.5781 2.0273 1.335 185
12.648399999999999 2.0371 -0.7426999999999999 90
12.5469 2.0215 1.6288999999999998 243
12.6719 2.041 -0.4465 41
12.648399999999999 2.0371 1.9472999999999998 80
12.6328 2.0352 -0.14880000000000002 155
12.625 2.0332 2.248 241
12.648399999999999 1.9922 0.1489 45
12.648399999999999 1.9922 0.44530000000000003 253
12.664100000000001 1.9950999999999999 0.7432 173
12.656199999999998 1.9931999999999999 -1.3418 124
12.656199999999998 1.9931999999999999 1.043 224
12.664100000000001 1.9950999999999999 -1.0439 152
12.585899999999999 1.9824000000000002 1.334 8
12.648399999999999 1.9922 -0.7422 51
12.5547 1.9775 1.6288999999999998 48
12.664100000000001 1.9941 -0.4458 69
12.6328 1.9893 1.9434 107
12.656199999999998 1.9931999999999999 -0.1489 205
12.6406 1.9912 2.25 170
12.6719 1.9502000000000002 0.149 128
12.6328 1.9443000000000001 0.4446 138
12.6719 1.9502000000000002 0.7432 195
12.664100000000001 1.9491999999999998 -1.3418 108
12.648399999999999 1.9463 1.042 152
12.648399999999999 1.9472999999999998 -1.042 21
12.585899999999999 1.9365 1.334 226
12.648399999999999 1.9472999999999998 -0.7422 75
12.5547 1.9325999999999999 1.6288999999999998 220
12.664100000000001 1.9491999999999998 -0.4458 170
12.625 1.9434 1.9413999999999998 1
12.6328 1.9443000000000001 -0.14859999999999998 54
12.648399999999999 1.9472999999999998 2.25 15
12.6719 1.9091999999999998 0.1489 251
12.648399999999999 1.9053 0.4448 254
12.648399999999999 1.9062000000000001 0.7417 203
12.6719 1.9091999999999998 -1.3418 121
12.648399999999999 1.9053 1.041 111
12.648399999999999 1.9062000000000001 -1.041 63
12.5625 1.8936000000000002 1.3311000000000002 177
12.6406 1.9043 -0.7406999999999999 117
12.5625 1.8925999999999998 1.6279 71
12.664100000000001 1.9082 -0.44530000000000003 43
12.625 1.9022999999999999 1.9404 143
12.6328 1.9043 -0.14859999999999998 176
12.625 1.9022999999999999 2.2441 73
12.656199999999998 1.8643 0.1487 79
12.648399999999999 1.8633000000000002 0.4446 245
12.648399999999999 1.8633000000000002 0.7412000000000001 7
12.664100000000001 1.8652000000000002 -1.3408000000000002 12
12.656199999999998 1.8652000000000002 1.042 158
12.656199999999998 1.8643 -1.041 199
12.5703 1.8516 1.3300999999999998 208
12.6328 1.8613 -0.7402 187
12.5547 1.8486000000000002 1.6269999999999998 54
12.6719 1.8662 -0.44530000000000003 91
12.625 1.8603999999999998 1.9394999999999998 190
12.6328 1.8613 -0.1484 4
12.6094 1.8574000000000002 2.2402 92
12.648399999999999 1.8135 0.1484 77
12.648399999999999 1.8135 0.4443 33
12.648399999999999 1.8135 0.7406999999999999 174
12.648399999999999 1.8135 -1.3388999999999998 2
12.656199999999998 1.8144999999999998 1.041 14
12.648399999999999 1.8144999999999998 -1.04 122
12.5781 1.8027000000000002 1.3311000000000002 196
12.6406 1.8125 -0.7402 17
12.5469 1.7988 1.625 194
12.6719 1.8163999999999998 -0.4451 147
12.6328 1.8115 1.9394999999999998 161
12.6406 1.8135 -0.1484 217
12.625 1.8105000000000002 2.2422 218
12.656199999999998 1.7694999999999999 0.14859999999999998 33
12.6406 1.7675999999999998 0.44380000000000003 124
12.656199999999998 1.7705000000000002 0.7412000000000001 125
12.656199999999998 1.7694999999999999 -1.3388999999999998 77
12.6328 1.7666 1.0391 36
12.648399999999999 1.7686000000000002 -1.04 175
12.5781 1.7588 1.3311000000000002 40
12.648399999999999 1.7686000000000002 -0.7402 2
12.5469 1.7549000000000001 1.625 63
12.6406 1.7675999999999998 -0.44409999999999994 37
12.6328 1.7656 1.9385 174
12.648399999999999 1.7686000000000002 -0.1484 163
12.625 1.7656 2.2402 245
12.656199999999998 1.7266 0.1484 98
12.6328 1.7236000000000002 0.4436 226
12.664100000000001 1.7285 0.7412000000000001 204
12.664100000000001 1.7285 -1.3388999999999998 136
12.6406 1.7246000000000001 1.0381 253
12.6328 1.7246000000000001 -1.0381 43
12.5781 1.7158000000000002 1.3291 120
12.6328 1.7236000000000002 -0.7393000000000001 114
12.5547 1.7128999999999999 1.625 178
12.656199999999998 1.7266 -0.44409999999999994 188
12.625 1.7227000000000001 1.9365 32
12.6406 1.7256 -0.1483 225
12.6328 1.7246000000000001 2.2422 4
12.664100000000001 1.6855000000000002 0.14859999999999998 16
12.6406 1.6825999999999999 0.4436 25
12.648399999999999 1.6836000000000002 0.7397 239
12.656199999999998 1.6846 -1.3378999999999999 63
12.656199999999998 1.6846 1.0391 12
12.6406 1.6825999999999999 -1.0381 213
12.5547 1.6709 1.3271000000000002 13
12.6328 1.6806999999999999 -0.7387999999999999 209
12.5625 1.6719 1.625 87
12.656199999999998 1.6846 -0.44409999999999994 147
12.625 1.6797 1.9355000000000002 121
12.6328 1.6806999999999999 -0.1481 138
12.625 1.6806999999999999 2.2383 185
12.664100000000001 1.6377000000000002 0.1484 136
12.656199999999998 1.6366999999999998 0.44380000000000003 152
12.6328 1.6338 0.7383 24
12.656199999999998 1.6377000000000002 -1.3369 121
12.656199999999998 1.6366999999999998 1.0391 9
12.648399999999999 1.6366999999999998 -1.0381 243
12.5625 1.625 1.3262 165
12.6328 1.6338 -0.7383 137
12.5547 1.6230000000000002 1.6221 209
12.656199999999998 1.6366999999999998 -0.44380000000000003 197
12.6328 1.6338 1.9355000000000002 75
12.6328 1.6347999999999998 -0.1481 187
12.6094 1.6309 2.2344 39
12.6406 1.5897999999999999 0.1481 109
12.656199999999998 1.5918 0.4436 78
12.6406 1.5908000000000002 0.7387999999999999 137
12.648399999999999 1.5918 -1.3359 35
12.6406 1.5908000000000002 1.0371 165
12.6406 1.5897999999999999 -1.0371 51
12.5703 1.5811000000000002 1.3271000000000002 5
12.6328 1.5888999999999998 -0.7383 119
12.5469 1.5781 1.6211000000000002 235
12.664100000000001 1.5928 -0.44380000000000003 103
12.6406 1.5897999999999999 1.9355000000000002 133
12.648399999999999 1.5908000000000002 -0.1482 218
12.6328 1.5888999999999998 2.2363 6
12.6406 1.5449000000000002 0.1481 106
12.648399999999999 1.5459 0.44310000000000005 162
12.6406 1.5459 0.7383 109
12.656199999999998 1.5478999999999998 -1.3359 169
12.6328 1.5438999999999998 1.0361 97
12.6406 1.5449000000000002 -1.0361 97
12.5781 1.5381 1.3271000000000002 85
12.6328 1.5438999999999998 -0.7378 209
12.539100000000001 1.5332 1.6200999999999999 182
12.6406 1.5459 -0.44310000000000005 102
12.6328 1.5438999999999998 1.9336000000000002 169
12.6406 1.5459 -0.1481 169
12.6094 1.541 2.2324 33
12.648399999999999 1.501 0.1481 116
12.6328 1.5 0.4426 8
12.656199999999998 1.5019999999999998 0.7387999999999999 241
12.656199999999998 1.5029 -1.335 71
12.648399999999999 1.5019999999999998 1.0371 179
12.6328 1.5 -1.0361 153
12.5547 1.4912 1.3241999999999998 146
12.6328 1.5 -0.7378 158
12.5547 1.4902000000000002 1.6200999999999999 242
12.648399999999999 1.5019999999999998 -0.44310000000000005 114
12.6172 1.4980000000000002 1.9316 135
12.6406 1.501 -0.1479 56
12.6406 1.501 2.2363 226
12.656199999999998 1.4580000000000002 0.1481 135
12.6328 1.4550999999999998 0.4424 186
12.6406 1.4561000000000002 0.7378 59
12.664100000000001 1.459 -1.3359 163
12.6406 1.4561000000000002 1.0361 243
12.6406 1.4561000000000002 -1.0352 113
12.5469 1.4453 1.3232 81
12.6328 1.4550999999999998 -0.7373000000000001 221
12.5625 1.4463 1.6211000000000002 156
12.648399999999999 1.4569999999999999 -0.4429 245
12.625 1.4541 1.9316 79
12.6328 1.4550999999999998 -0.1478 253
8.1328 0.9365000000000001 1.4355000000000002 77
12.6406 1.4111000000000002 0.1478 35
12.648399999999999 1.4121000000000001 0.4426 30
12.6328 1.4111000000000002 0.7373000000000001 161
12.656199999999998 1.4131 -1.334 128
12.648399999999999 1.4121000000000001 1.0361 158
12.6406 1.4111000000000002 -1.0352 94
12.5625 1.4022999999999999 1.3241999999999998 58
12.6172 1.4091999999999998 -0.7363 210
12.539100000000001 1.4003999999999999 1.6181999999999999 155
12.664100000000001 1.4131 -0.44310000000000005 236
12.6328 1.4102000000000001 1.9316 224
