# .PCD v0.7 - Point Cloud Data file format
VERSION 0.7
FIELDS x y z intensity
SIZE 4 4 4 4
TYPE F F F F
COUNT 1 1 1 1
WIDTH 1319
HEIGHT 1
VIEWPOINT 0 0 0 1 0 0 0
POINTS 1319
DATA ascii
-3.418 -13.476600000000001 -0.1617 66
-13.9375 -54.9688 9.9922 202
-9.1328 -35.5312 0.4282 170
-1.291 -5.0234 -0.7842 223
-1.2949000000000002 -5.0352 -0.6631 253
-10.0156 -38.9688 2.3379 253
-8.6016 -33.4375 2.8183999999999996 207
-1.4658000000000002 -5.699199999999999 -0.4771 120
-9.2266 -35.875 4.7578 150
-13.906199999999998 -54.0938 8.5078 123
-3.4629000000000003 -13.468800000000002 -0.1617 222
-13.906199999999998 -54.0625 9.8359 218
-1.3056999999999999 -5.0 -0.9033 64
-1.3037 -4.9922 -0.7803 16
-11.4375 -43.7812 1.5791 235
-1.499 -5.738300000000001 -0.48100000000000004 15
-8.8828 -34.0312 3.6914 137
-9.2891 -35.5625 4.7227 250
-13.914100000000001 -53.25 8.3906 220
-3.5156 -13.460899999999999 -0.1617 109
-13.898399999999999 -53.1875 9.6875 222
-1.3447 -5.0742 -0.9179999999999999 116
-9.7031 -36.625 0.4421 83
-1.3232 -4.9922 -0.7812 32
-8.8672 -33.4688 1.207 7
-1.3447 -5.0742 -0.6698999999999999 201
-8.9531 -33.8125 2.0312 59
-8.7969 -33.1875 2.8007999999999997 28
-3.1445 -11.8672 -0.9995 172
-8.9062 -33.5938 3.6483999999999996 160
-9.4844 -35.8125 4.7578 131
-13.8906 -52.4062 8.2578 181
-3.5605 -13.4375 -0.1617 115
-13.8672 -52.3438 9.5391 237
-1.3603999999999998 -5.0703 -0.9185 110
-1.3378999999999999 -4.9844 -0.7807999999999999 226
-8.9844 -33.4688 1.209 50
-1.3730000000000002 -5.1172 -0.6758 193
-13.960899999999999 -52.0312 3.1308999999999996 105
-9.0625 -33.7812 2.8516000000000004 202
-3.1797000000000004 -11.851600000000001 -0.9984999999999999 174
-8.7969 -32.7812 3.5625 141
-13.9844 -52.125 6.9336 177
-14.0 -52.1875 8.2344 58
-3.6074 -13.4453 -0.16190000000000002 199
-14.023399999999999 -52.25 9.5312 229
-1.3633000000000002 -5.0156 -0.7861 161
-9.0781 -33.375 1.2061 216
-1.3877000000000002 -5.1055 -0.6748000000000001 230
-3.2245999999999997 -11.8594 -1.0 205
-9.2344 -33.9688 3.6952999999999996 3
-14.1875 -52.1875 6.949199999999999 113
-14.1875 -52.1875 8.2344 129
-3.6523000000000003 -13.4297 -0.16190000000000002 234
-14.2031 -52.25 9.5391 133
-1.3857 -5.0156 -0.7870999999999999 108
-9.1953 -33.3125 1.2051 144
-1.4072 -5.0938 -0.6743000000000001 71
-10.585899999999999 -38.3438 2.3105 127
-9.8828 -35.7812 3.0293 152
-9.3438 -33.8438 3.6836 118
-3.248 -11.7578 -0.7070000000000001 43
-14.398399999999999 -52.125 6.949199999999999 243
-14.406199999999998 -52.1562 8.2422 101
-3.707 -13.4219 -0.16190000000000002 147
-14.414100000000001 -52.1875 9.5391 162
-1.4033000000000002 -5.0117 -0.7870999999999999 21
-9.3047 -33.2188 1.2031 230
-1.4141 -5.0469 -0.6685 153
-10.7031 -38.2188 2.3066 28
-3.2832 -11.718800000000002 -0.9906999999999999 249
-3.2891000000000004 -11.7422 -0.7070000000000001 162
-3.7598000000000003 -13.4219 -0.16210000000000002 145
-13.789100000000001 -49.2188 9.0078 130
-1.4131 -4.9844 -0.9062 152
-10.8672 -38.375 0.4653 233
-1.4209 -5.0156 -0.7881 116
-10.843800000000002 -38.2812 1.3866999999999998 162
-10.125 -35.75 2.1582 177
-10.7656 -37.9688 3.2207 189
-3.2812 -11.5781 -0.9795 51
-10.601600000000001 -37.4375 4.082 162
-3.3242000000000003 -11.726600000000001 -0.7065 142
-10.0703 -35.5625 4.7461 95
-13.773399999999999 -48.625 7.699199999999999 80
-3.8026999999999997 -13.4219 -0.16219999999999998 60
-13.7578 -48.5625 8.8906 81
-1.4287 -4.9805 -0.9057999999999999 11
-1.4413999999999998 -5.0234 -0.7905 204
-9.6875 -33.7812 1.2246 231
-1.4658000000000002 -5.1094 -0.6781999999999999 58
-13.843800000000002 -48.25 2.918 121
-3.3183999999999996 -11.5703 -0.9795 22
-9.5625 -33.3125 3.6387 36
-3.3594 -11.710899999999999 -0.7061 104
-13.7344 -47.875 6.4023 183
-13.75 -47.9062 7.5938 210
-3.8476999999999997 -13.414100000000001 -0.16219999999999998 99
-13.726600000000001 -47.8438 8.7656 190
-1.4443000000000001 -4.9609 -0.9033 191
-1.4647999999999999 -5.0312 -0.7925 120
-10.3125 -35.4062 1.2861000000000002 163
-1.4805000000000001 -5.082 -0.6753 178
-3.3574 -11.523399999999999 -1.2568000000000001 118
-3.3672000000000004 -11.5625 -0.98 192
-3.4082 -11.6953 -0.7065 76
-10.343800000000002 -35.5312 4.7539 237
-3.9023000000000003 -13.398399999999999 -0.1624 76
-13.7422 -47.1875 8.6562 191
-1.5019999999999998 -5.0859 -0.8022 163
-1.5116999999999998 -5.1211 -0.6816 127
-11.023399999999999 -37.3438 2.2637 67
-3.3808999999999996 -11.4531 -1.25 75
-3.4276999999999997 -11.6094 -0.9849 230
-11.210899999999999 -37.9688 4.1562 18
-3.4452999999999996 -11.664100000000001 -0.7051000000000001 216
-10.4844 -35.5312 4.7578 233
-3.957 -13.406199999999998 -0.16260000000000002 84
-13.7344 -46.5312 8.5469 227
-11.1953 -37.5 0.4568 59
-1.5654 -5.2461 -0.8281000000000001 177
-11.093800000000002 -37.1875 2.2539 221
-3.418 -11.4531 -1.251 164
-9.9062 -33.1875 2.8262 86
-3.4629000000000003 -11.601600000000001 -0.9854 172
-11.3906 -38.1562 4.1797 149
-3.4824 -11.664100000000001 -0.7056 248
-13.718800000000002 -45.9688 6.1640999999999995 176
-13.710899999999999 -45.9375 7.3047 192
-4.0039 -13.406199999999998 -0.16269999999999998 119
-13.6875 -45.875 8.4297 60
-13.789100000000001 -45.625 1.6631 105
-10.2656 -33.9688 2.0625 148
-3.4608999999999996 -11.460899999999999 -1.2539 42
-10.460899999999999 -34.625 2.9512 251
-3.5233999999999996 -11.664100000000001 -0.9917 125
-10.1562 -33.625 3.6855 33
-3.5273000000000003 -11.6719 -0.7070000000000001 153
-13.7031 -45.375 6.0898 118
-4.0508 -13.406199999999998 -0.1628 85
-13.343800000000002 -44.1875 8.1328 57
-11.125 -36.3125 1.3241999999999998 93
-10.656199999999998 -34.7812 2.1133 53
-3.5077999999999996 -11.4453 -1.2539 192
-10.6094 -34.625 2.9551 48
-3.5742000000000003 -11.6719 -0.9937 224
-13.4453 -43.9062 4.8203 80
-3.5742000000000003 -11.6719 -0.7075 46
-13.4375 -43.875 5.8984000000000005 57
-13.4375 -43.875 6.988300000000001 33
-4.1055 -13.406199999999998 -0.1631 57
-13.4297 -43.8438 8.0781 219
-11.2656 -36.3438 1.3271000000000002 202
-13.531199999999998 -43.625 2.6562 188
-3.5526999999999997 -11.4531 -1.2559 114
-10.7969 -34.8125 2.9726999999999997 199
-3.6367000000000003 -11.726600000000001 -0.9990000000000001 246
-13.468800000000002 -43.4062 4.7734 171
-3.6132999999999997 -11.648399999999999 -0.7070000000000001 29
-13.4219 -43.2812 5.824199999999999 67
-13.4219 -43.2812 6.9023 27
-4.1602 -13.4219 -0.1635 241
-13.406199999999998 -43.2188 7.9727 126
-13.4922 -42.9688 1.5713 88
-13.4844 -42.9375 2.6172000000000004 230
-3.5858999999999996 -11.4219 -1.2539 97
-10.9375 -34.8438 2.9805 47
-3.6483999999999996 -11.6172 -0.9912000000000001 42
-11.6406 -37.0625 4.0781 28
-3.6543 -11.6406 -0.7070000000000001 175
-13.4297 -42.7812 5.761699999999999 54
-13.414100000000001 -42.7188 6.8203 182
-4.2188 -13.4375 -0.1638 107
-13.3906 -42.6562 7.875 202
-13.4844 -42.4375 1.5527000000000002 41
-13.468800000000002 -42.375 2.5858999999999996 17
-3.6289 -11.4219 -1.2549 136
-11.0078 -34.6562 2.9668 186
-3.7108999999999996 -11.6797 -0.9976 189
-11.8203 -37.1875 4.0977 3
-3.6952999999999996 -11.6328 -0.7075 171
-13.398399999999999 -42.1562 5.6875 241
-13.398399999999999 -42.1562 6.738300000000001 73
-4.2695 -13.4375 -0.1641 43
-13.375 -42.0938 7.7812 210
-9.4609 -29.4375 0.3608 189
-13.460899999999999 -41.875 1.5341999999999998 254
-13.4531 -41.8438 2.5547 229
-3.6738 -11.4297 -1.2568000000000001 180
-11.0547 -34.375 2.9473000000000003 121
-3.7656 -11.710899999999999 -1.001 254
-3.7401999999999997 -11.6406 -0.7084999999999999 15
-13.3906 -41.6562 5.6211 63
-13.3672 -41.5938 6.6562 102
-4.3281 -13.460899999999999 -0.16440000000000002 241
-13.351600000000001 -41.5625 7.6875 70
-9.5703 -29.4375 0.3611 31
-13.4219 -41.2812 1.5137 163
-13.4219 -41.2812 2.5234 101
-3.7226999999999997 -11.4453 -1.2607 33
-11.164100000000001 -34.3438 2.9452999999999996 44
-3.7695 -11.593800000000002 -0.9922 114
-11.656199999999998 -35.8438 3.957 75
-3.7870999999999997 -11.648399999999999 -0.71 202
-13.3125 -40.9375 5.5352 213
-13.3047 -40.9375 6.5547 90
-4.3789 -13.476600000000001 -0.1648 144
-13.3125 -40.9375 7.5859000000000005 7
-9.7266 -29.5312 0.3628 225
-13.3906 -40.6562 1.4931999999999999 168
-13.406199999999998 -40.7188 2.4902 86
-3.7695 -11.4453 -1.2617 233
-13.4297 -40.7812 3.5039 102
-3.7656 -11.4375 -0.98 227
-13.4297 -40.7812 4.5078 83
-3.832 -11.6328 -0.71 231
-13.4531 -40.8438 5.5234000000000005 76
-13.468800000000002 -40.875 6.5586 180
-4.4453 -13.5 -0.1653 242
-13.4844 -40.9375 7.5938 124
-13.539100000000001 -40.625 1.4941 84
-13.5547 -40.6562 2.4922 179
-3.7988 -11.398399999999999 -1.2578 112
-13.585899999999999 -40.7812 3.5058999999999996 50
-3.8223000000000003 -11.468800000000002 -0.9839 108
-13.593800000000002 -40.7812 4.5156 253
-3.873 -11.625 -0.7104 222
-13.593800000000002 -40.7812 5.5234000000000005 86
-13.593800000000002 -40.7812 6.546900000000001 108
-4.5117 -13.539100000000001 -0.166 118
-13.593800000000002 -40.7812 7.574199999999999 205
-13.664100000000001 -40.5625 1.4922 38
-13.6719 -40.5625 2.4883 245
-3.8476999999999997 -11.4219 -1.2617 98
-13.625 -40.4375 3.4824 234
-3.8651999999999997 -11.468800000000002 -0.9849 134
-12.0625 -35.8125 3.9648000000000003 201
-3.9160000000000004 -11.625 -0.7109000000000001 90
-13.6172 -40.4375 5.480499999999999 169
-13.5703 -40.2812 6.4727 67
-4.5938 -13.6328 -0.1674 226
-13.7031 -40.6875 7.5625 66
-3.8887 -11.414100000000001 -1.2627 181
-13.585899999999999 -39.9062 3.4395 224
-3.9023000000000003 -11.460899999999999 -0.9849 207
-3.9629000000000003 -11.6328 -0.7123999999999999 82
-13.539100000000001 -39.75 6.3984000000000005 23
-13.75 -40.3438 -0.4976 159
-12.101600000000001 -35.0938 2.1562 135
-3.9414 -11.4219 -1.2656 115
-13.601600000000001 -39.4375 3.4043 144
-3.9551 -11.460899999999999 -0.9868000000000001 252
-4.0117 -11.6328 -0.7134 252
-13.5547 -39.2812 5.3398 156
-13.5469 -39.2812 6.328099999999999 2
-14.843800000000002 -43.0312 -0.5312 185
-13.539100000000001 -39.25 7.3164 157
-12.726600000000001 -36.4688 0.4509 90
-13.5703 -38.9062 1.4375 101
-13.6172 -39.0312 2.4023 6
-3.9785000000000004 -11.406199999999998 -1.2656 81
-13.585899999999999 -38.9375 3.3672000000000004 32
-4.0156 -11.5078 -0.9917 4
-13.531199999999998 -38.8125 4.3125 183
-4.0625 -11.6406 -0.7148 44
-13.5469 -38.8438 5.2852 144
-13.539100000000001 -38.8125 6.261699999999999 76
-13.5547 -38.875 -0.4805 170
-13.4922 -38.6875 7.2148 195
-12.835899999999999 -36.375 0.45039999999999997 165
-13.5625 -38.4688 1.4219 129
-13.601600000000001 -38.5625 2.377 5
-4.0273 -11.4219 -1.2686 175
-13.5781 -38.5 3.332 78
-4.1211 -11.6797 -1.0078 254
-13.5156 -38.3125 4.2656 34
-4.1016 -11.6328 -0.7148 36
-13.625 -38.625 5.261699999999999 133
-13.531199999999998 -38.375 6.1953 241
-13.5547 -38.4062 -0.4756 48
-13.4531 -38.125 7.1211 227
-12.9453 -36.2812 0.4497 12
-13.5547 -38.0 1.4072 199
-13.6797 -38.375 2.3672 24
-4.0703 -11.414100000000001 -1.2686 32
-13.5625 -38.0312 3.2949 111
-4.1602 -11.656199999999998 -1.0078 240
-13.5156 -37.9062 4.2227 116
-4.1523 -11.6406 -0.7162999999999999 91
-13.523399999999999 -37.9062 6.1328 42
-13.625 -38.1875 -0.47340000000000004 143
-13.468800000000002 -37.75 7.0586 77
-13.0547 -36.25 0.4497 71
-13.531199999999998 -37.5625 1.3925999999999998 190
-4.1133 -11.414100000000001 -1.2705 143
-13.523399999999999 -37.5625 3.2577999999999996 90
-4.1953 -11.6406 -1.0068000000000001 4
-13.4844 -37.4375 4.1758 176
-4.1992 -11.656199999999998 -0.7182999999999999 161
-13.773399999999999 -38.2188 5.2227 107
-13.523399999999999 -37.5625 6.078099999999999 86
-13.4375 -37.2812 6.984400000000001 86
-13.156199999999998 -36.125 0.4487 192
-13.5 -37.0938 1.3769999999999998 167
-13.539100000000001 -37.1875 2.3008 226
-4.1562 -11.4219 -1.2734 39
-13.523399999999999 -37.1562 3.2266000000000004 208
-4.2344 -11.625 -1.0068000000000001 226
-13.460899999999999 -37.0 4.1328 191
-4.2461 -11.664100000000001 -0.7197 179
-13.4844 -37.0625 5.0664 131
-4.7734 -13.1172 -0.48560000000000003 65
-13.476600000000001 -37.0312 -0.46 87
-13.4453 -36.9375 6.921900000000001 109
-13.3203 -36.1562 0.4497 94
-13.5 -36.6562 1.3622999999999998 87
-13.5469 -36.75 2.2773 248
-4.2148 -11.4375 -1.2773 19
-13.531199999999998 -36.7188 3.1933999999999996 169
-4.3008 -11.664100000000001 -1.0117 254
-13.468800000000002 -36.5312 4.0898 54
-4.3008 -11.6719 -0.7206999999999999 152
-9.2578 -25.125 3.4375 40
-13.5 -36.625 -1.3613 222
-13.4922 -36.625 -0.45530000000000004 171
-13.4453 -36.5 6.8515999999999995 5
-13.4375 -36.0625 0.44920000000000004 175
-13.5078 -36.25 1.3486000000000002 114
-13.531199999999998 -36.3125 2.252 112
-4.2656 -11.4453 -1.2793 106
-13.5156 -36.2812 3.1582 214
-4.3203 -11.593800000000002 -1.0068000000000001 204
-13.5 -36.2188 4.0586 64
-4.3516 -11.6797 -0.7222 129
-13.476600000000001 -36.1562 4.957 255
-13.5 -36.2188 -1.3486000000000002 143
-13.4922 -36.2188 -0.4509 147
-13.4531 -36.0938 6.7852 25
-13.5156 -35.9375 0.44799999999999995 48
-13.4844 -35.8438 1.3359 187
-13.5078 -35.9375 2.2305 180
-4.3242 -11.5 -1.2861000000000002 228
-13.4922 -35.875 3.1289 204
-4.3711 -11.625 -1.0107 60
-13.476600000000001 -35.8438 4.0195 95
-4.3945 -11.6875 -0.7241 167
-9.4141 -25.0312 3.4355 199
-13.4844 -35.8438 -1.3359 32
-13.476600000000001 -35.8438 5.832000000000001 56
-13.468800000000002 -35.8125 -0.4465 233
-13.476600000000001 -35.8438 6.7461 149
-13.5078 -35.5625 0.44380000000000003 39
-13.5078 -35.5625 1.3262 196
-13.531199999999998 -35.625 2.2148 251
-4.3516 -11.460899999999999 -1.2832 147
-13.5547 -35.6875 3.1132999999999997 57
-4.3906 -11.5547 -1.0059 123
-4.4531 -11.718800000000002 -0.7271 130
-9.5078 -25.0312 3.4375 155
-13.4844 -35.5 -1.3241999999999998 92
-13.601600000000001 -35.8125 5.8359000000000005 152
-13.4844 -35.5 -0.44310000000000005 217
-13.4922 -35.5 6.6914 67
-9.6094 -25.0156 0.3125 100
-13.625 -35.4688 1.3252000000000002 46
-13.6875 -35.625 2.2168 226
-4.418 -11.5 -1.29 151
-13.718800000000002 -35.7188 3.1211 204
-4.4336 -11.539100000000001 -1.0059 136
-4.5312 -11.789100000000001 -0.7319 142
-9.5938 -24.9688 3.4355 254
-13.6172 -35.4375 -1.3241999999999998 149
-13.6328 -35.4688 -0.4436 74
-13.476600000000001 -35.0625 6.6172 89
-9.6562 -24.8594 0.9297 194
-9.6719 -24.9062 1.5518 224
-4.4922 -11.5703 -1.3008000000000002 74
-4.4883 -11.5625 -1.0098 73
-9.6875 -24.9531 2.8086 138
-4.6172 -11.8906 -0.7397 124
-9.6875 -24.9531 3.4375 31
-9.625 -24.7969 -0.9272 169
-13.906199999999998 -35.8125 5.8515999999999995 18
-9.6172 -24.7656 -0.3098 89
-13.468800000000002 -34.6875 6.5547 252
-9.75 -24.8594 0.9312 192
-9.7578 -24.875 1.5518 222
-4.5312 -11.5625 -1.3008000000000002 97
-14.0 -35.6875 3.1289 21
-4.625 -11.7969 -1.0312000000000001 205
-4.6875 -11.960899999999999 -0.7445999999999999 227
-9.7969 -24.9844 3.4473000000000003 150
-9.7031 -24.75 -0.9268000000000001 243
-14.023399999999999 -35.75 5.8515999999999995 28
-9.7188 -24.7812 -0.3103 93
-13.4453 -34.2812 6.484400000000001 64
-14.0781 -35.5625 2.2227 86
-14.0625 -35.5312 3.1172000000000004 235
-4.6836 -11.8281 -1.0361 103
-13.4844 -34.0625 3.8457 114
-9.8828 -24.9688 3.4492000000000003 126
-9.3828 -23.7031 -0.8881999999999999 21
-14.039100000000001 -35.4688 5.8086 149
-14.023399999999999 -35.4375 -0.4446 149
-13.4375 -33.9375 6.4297 242
-13.5547 -33.875 1.2725 173
-14.0781 -35.1875 2.2031 28
-14.0547 -35.125 3.0858999999999996 176
-4.7344 -11.8281 -1.0371 112
-13.460899999999999 -33.6562 3.8047000000000004 46
-9.4766 -23.6719 -0.8887 157
-14.039100000000001 -35.0938 -0.4409 162
-14.0781 -34.8438 0.4385 199
-13.531199999999998 -33.4688 1.2588 169
-14.093800000000002 -34.875 2.1855 175
-14.0469 -34.75 3.0586 71
-4.7734 -11.8047 -1.0361 188
-10.1094 -25.0 3.4629000000000003 173
-14.031199999999998 -34.7188 -1.3056999999999999 68
-14.031199999999998 -34.7188 -0.43700000000000006 81
-13.3828 -33.0938 6.2890999999999995 187
-14.0703 -34.4688 0.4346 210
-13.531199999999998 -33.125 1.248 43
-14.1953 -34.7812 2.1816 23
-14.0703 -34.4688 3.0370999999999997 114
-13.3828 -32.7812 3.7148000000000003 37
-13.3281 -32.625 4.5273 239
-14.085899999999999 -34.5 -0.4351 238
-13.351600000000001 -32.6875 6.2188 105
-13.414100000000001 -32.5312 0.4106 183
-13.414100000000001 -32.5312 1.2266 131
-13.414100000000001 -32.5312 2.0449 32
-13.4219 -32.5312 2.8711 241
-13.3906 -32.4688 3.6855 77
-13.3281 -32.3125 4.4922 10
-13.375 -32.4375 -1.2236 1
-13.3672 -32.4062 5.3398 233
-13.375 -32.4375 -0.4092 174
-13.343800000000002 -32.3438 6.1640999999999995 105
-13.4453 -32.2812 0.408 160
-13.398399999999999 -32.1875 1.2158 209
-13.406199999999998 -32.1875 2.0273 75
-13.3906 -32.1562 2.8418 175
-13.3594 -32.0938 3.6483999999999996 24
-13.3281 -32.0 4.4531 52
-13.3672 -32.0938 -1.2119 37
-13.351600000000001 -32.0625 5.2890999999999995 134
-13.3672 -32.0938 -0.40549999999999997 146
-13.343800000000002 -32.0312 6.113300000000001 231
-13.398399999999999 -31.8594 0.4033 127
-13.398399999999999 -31.8594 1.2051 148
-13.406199999999998 -31.875 2.0098 70
-13.375 -31.7969 2.8145 252
-13.375 -31.7969 3.6211 39
-13.3203 -31.6719 4.4141 198
-13.375 -31.7969 -1.2031 106
-13.343800000000002 -31.7188 5.2422 193
-13.351600000000001 -31.75 -0.4019 232
-13.335899999999999 -31.7031 6.0586 45
-13.4297 -31.625 0.40090000000000003 213
-13.3906 -31.5312 1.1943000000000001 211
-13.398399999999999 -31.5469 1.9912 12
-13.375 -31.4844 2.7910000000000004 33
-13.351600000000001 -31.4375 3.5858999999999996 212
-13.3125 -31.3438 4.375 221
-13.3594 -31.4531 -1.1914 236
-13.335899999999999 -31.4062 5.1953 222
-13.351600000000001 -31.4375 -0.39840000000000003 235
-13.3125 -31.3438 6.0 190
-13.406199999999998 -31.2656 0.397 215
-13.3828 -31.2031 1.1836 106
-13.3828 -31.2031 1.9736000000000002 137
-13.375 -31.2031 2.7695 132
-13.351600000000001 -31.1406 3.5566000000000004 241
-13.3047 -31.0156 4.3359 12
-13.351600000000001 -31.125 -1.1806999999999999 246
-13.3281 -31.0781 5.1484000000000005 170
-13.3281 -31.0938 -0.3948 193
-13.3125 -31.0469 5.949199999999999 88
-13.375 -30.8906 0.39280000000000004 79
-13.375 -30.8906 1.1738 236
-13.375 -30.8906 1.9561000000000002 45
-13.351600000000001 -30.8438 2.7422000000000004 216
-13.335899999999999 -30.8125 3.5233999999999996 216
-13.3125 -30.75 4.3047 151
-13.351600000000001 -30.8281 -1.1719 16
-13.3203 -30.7656 5.1055 5
-13.335899999999999 -30.7969 -0.39159999999999995 235
-13.3047 -30.7188 5.894500000000001 98
-13.375 -30.6094 0.3896 191
-13.375 -30.5938 1.1641 125
-13.375 -30.5938 1.9394999999999998 95
-13.351600000000001 -30.5469 2.7207 252
-13.3281 -30.5 3.4941000000000004 119
-13.3125 -30.4531 4.2695 52
-13.3203 -30.4688 -1.1592 210
-13.3203 -30.4688 5.0664 124
-13.3203 -30.4688 -0.38789999999999997 25
-13.2969 -30.4219 5.8477 31
-13.3672 -30.3125 0.3865 221
-13.351600000000001 -30.2812 1.1533 39
-13.351600000000001 -30.2656 1.9219 68
-13.335899999999999 -30.2344 2.6952999999999996 129
-13.3125 -30.1875 3.4629000000000003 1
-13.3125 -30.1875 4.2383 90
-13.3047 -30.1562 -1.1494 159
-13.3047 -30.1719 5.0195 185
-13.3125 -30.1875 -0.385 87
-13.289100000000001 -30.125 5.796900000000001 245
-13.3672 -30.0312 0.3835 33
-13.343800000000002 -29.9844 1.1436 162
-13.3125 -29.9219 1.9022999999999999 167
-13.3281 -29.9531 2.6738 48
-13.3047 -29.8906 3.4355 97
-13.2969 -29.875 4.2031 78
-13.289100000000001 -29.875 -1.1396 178
-13.289100000000001 -29.8594 4.9766 82
-13.2969 -29.875 -0.38159999999999994 255
-13.281199999999998 -29.8438 5.7539 200
-13.3594 -29.7031 0.3799 60
-13.351600000000001 -29.7031 1.1348 117
-13.3125 -29.6094 1.8857 23
-13.3672 -29.7188 2.6582 211
-13.3047 -29.5938 3.4062 138
-13.3047 -29.5781 4.168 120
-13.2969 -29.5781 -1.1309 109
-13.281199999999998 -29.5469 4.9336 223
-13.2969 -29.5625 -0.3782 209
-13.281199999999998 -29.5312 5.703099999999999 67
-13.3594 -29.4375 0.3772 165
-13.335899999999999 -29.3906 1.125 145
-13.3047 -29.3125 1.8700999999999999 242
-13.3125 -29.3438 2.6289 39
-13.3047 -29.3125 3.3789 88
-13.289100000000001 -29.2812 4.1328 77
-13.281199999999998 -29.2656 -1.1211 243
-13.2969 -29.2969 4.8984 116
-13.289100000000001 -29.2969 -0.37520000000000003 149
-13.273399999999999 -29.25 5.6562 185
-13.335899999999999 -29.125 0.3738 1
-13.335899999999999 -29.1094 1.1162 43
-13.3047 -29.0469 1.8563999999999998 16
-13.3203 -29.0781 2.6094 128
-13.3047 -29.0469 3.3535000000000004 236
-13.281199999999998 -29.0 4.0977 182
-13.273399999999999 -28.9688 -1.1113 234
-13.3125 -29.0625 4.8672 34
-13.289100000000001 -29.0156 -0.37229999999999996 95
-13.3203 -29.0781 5.6328 77
-13.3281 -28.8281 0.37060000000000004 116
-13.343800000000002 -28.8594 1.1084 87
-13.351600000000001 -28.875 1.8486000000000002 73
-13.375 -28.9219 2.5995999999999997 188
-13.398399999999999 -28.9844 3.3516000000000004 45
-13.398399999999999 -28.9844 4.1016 224
-13.3047 -28.7812 -1.1055 248
-13.4219 -29.0312 4.8711 97
-13.3047 -28.7812 -0.3699 16
-13.4453 -29.0781 5.640599999999999 56
-13.4375 -28.8125 0.37079999999999996 148
-13.4297 -28.7969 1.1084 92
-13.4531 -28.8438 1.8496000000000001 178
-13.4844 -28.9062 2.6016000000000004 249
-13.5078 -28.9688 3.3555 144
-13.5156 -28.9844 4.1094 48
-13.406199999999998 -28.75 -1.1055 235
-13.531199999999998 -29.0156 4.875 191
-13.3906 -28.7031 -0.3696 247
-13.5625 -29.0781 5.6523 168
-13.5781 -28.8594 0.3721 179
-13.5547 -28.8125 1.1104 131
-13.5625 -28.8438 1.8516 237
-13.601600000000001 -28.9219 2.6074 108
-13.6172 -28.9531 3.3574 59
-13.6406 -29.0 4.1172 203
-13.656199999999998 -29.0312 4.8867 248
-13.6719 -29.0625 5.6562 46
-13.710899999999999 -28.8594 0.3728 35
-13.7031 -28.8438 1.1133 128
-13.6953 -28.8281 1.8544999999999998 193
-13.7344 -28.9219 2.6113 163
-13.75 -28.9531 3.3632999999999997 150
-13.7578 -28.9688 4.1211 163
-13.7969 -29.0469 4.8945 148
-13.656199999999998 -28.75 -0.3713 75
-13.8047 -29.0625 5.6640999999999995 98
-13.8203 -28.8281 0.373 100
-13.8125 -28.8125 1.1143 114
-13.8125 -28.8281 1.8574000000000002 199
-13.8594 -28.9062 2.6151999999999997 114
-13.8906 -28.9688 3.373 24
-13.8828 -28.9531 4.125 132
-13.906199999999998 -29.0156 4.8984 253
-13.773399999999999 -28.7344 -0.3716 79
-13.9219 -29.0469 5.671900000000001 91
-13.976600000000001 -28.8906 0.37450000000000006 173
-13.9375 -28.8125 1.1162 47
-13.9531 -28.8438 1.8613 25
-13.976600000000001 -28.8906 2.6172000000000004 218
-14.0 -28.9531 3.375 106
-14.0078 -28.9688 4.1328 0
-14.023399999999999 -29.0 4.9062 242
-13.9375 -28.8125 -0.3735 240
-14.0469 -29.0469 5.6836 183
-13.0781 -26.8125 1.04 86
-14.0781 -28.8438 1.8652000000000002 66
-14.101600000000001 -28.9062 2.623 194
-14.125 -28.9531 3.3808999999999996 141
-14.1328 -28.9688 4.1406 122
-14.156199999999998 -29.0156 4.9141 40
-14.1797 -29.0625 5.6953 29
-13.1797 -26.7812 0.3481 30
-13.101600000000001 -26.625 1.0342 55
-14.1797 -28.8281 1.8662 149
-14.218800000000002 -28.8906 2.627 214
-14.2344 -28.9219 3.3848000000000003 218
-14.25 -28.9688 4.1484 246
-13.156199999999998 -26.7344 -1.0391 63
-14.281199999999998 -29.0156 4.9258 58
-13.156199999999998 -26.7344 -0.34740000000000004 147
-14.2969 -29.0469 5.703099999999999 97
-13.226600000000001 -26.6562 0.3469 222
-13.2031 -26.6094 1.0352 225
-14.2969 -28.8125 1.8691 124
-14.335899999999999 -28.8906 2.6308999999999996 96
-14.3594 -28.9375 3.3906 168
-14.3672 -28.9688 4.1523 13
-13.1875 -26.5781 -1.0342 167
-14.406199999999998 -29.0312 4.9336 28
-13.164100000000001 -26.5312 -0.3455 79
-14.414100000000001 -29.0469 5.7109000000000005 127
-13.25 -26.4531 0.345 141
-13.25 -26.4531 1.0312000000000001 171
-14.4375 -28.8281 1.8730000000000002 86
-14.460899999999999 -28.875 2.6348000000000003 200
-14.4922 -28.9375 3.3964999999999996 21
-14.5 -28.9531 4.1602 191
-13.218800000000002 -26.3906 -1.0293 129
-14.531199999999998 -29.0156 4.9414 248
-13.218800000000002 -26.3906 -0.3442 218
-14.5469 -29.0469 5.7188 214
-13.3594 -26.4531 0.3457 39
-13.2422 -26.2031 1.0234 34
-14.5547 -28.8125 1.876 15
-14.593800000000002 -28.8906 2.6406 156
-14.6172 -28.9375 3.4023000000000003 63
-14.625 -28.9531 4.168 170
-13.210899999999999 -26.1562 -1.0215 9
-14.648399999999999 -29.0 4.9492 88
-13.2031 -26.1406 -0.34159999999999996 31
-14.6797 -29.0625 5.730499999999999 210
-13.2422 -25.9844 0.34009999999999996 4
-13.218800000000002 -25.9375 1.0146 238
-14.6875 -28.8281 1.8799000000000001 0
-14.710899999999999 -28.875 2.6445 68
-14.7422 -28.9375 3.4082 42
-14.7578 -28.9688 4.1758 248
-13.210899999999999 -25.9219 -1.0137 34
-14.773399999999999 -29.0 4.957 192
-13.1875 -25.8906 -0.3389 40
-14.7969 -29.0469 5.7422 17
-13.226600000000001 -25.7344 0.33740000000000003 158
-13.218800000000002 -25.7188 1.0078 108
-14.8125 -28.8125 1.8828 150
-14.843800000000002 -28.875 2.6483999999999996 122
-14.8672 -28.9375 3.4141000000000004 172
-14.8828 -28.9531 4.1836 130
-13.2031 -25.6875 -1.0068000000000001 127
-14.898399999999999 -29.0 4.9648 168
-13.1953 -25.6719 -0.3367 222
-14.914100000000001 -29.0156 5.7461 40
-13.2422 -25.5469 0.3357 32
-13.210899999999999 -25.4844 1.001 19
-14.9297 -28.8125 1.8847999999999998 55
-14.960899999999999 -28.8594 2.6523000000000003 232
-14.9844 -28.9062 3.418 114
-15.0 -28.9375 4.1875 113
-13.273399999999999 -25.6094 -1.0059 51
-15.039100000000001 -29.0 4.9766 2
-13.289100000000001 -25.6406 -0.3367 80
-15.039100000000001 -29.0156 5.7578 45
-13.210899999999999 -25.2656 0.3325 151
-13.2031 -25.25 0.9937 88
-15.0547 -28.7969 1.8877000000000002 124
-15.085899999999999 -28.8594 2.6562 101
-15.125 -28.9375 3.4276999999999997 43
-15.125 -28.9219 4.1953 195
-15.164100000000001 -29.0 4.9844 237
-15.1719 -29.0156 5.765599999999999 252
-13.218800000000002 -25.0781 0.3306 130
-13.1953 -25.0312 0.9863 223
-15.1797 -28.7969 1.8916 53
-15.218800000000002 -28.8594 2.6620999999999997 18
-15.2578 -28.9375 3.4336 216
-15.2578 -28.9375 4.2031 206
-13.9922 -26.5469 -1.0459 206
-15.289100000000001 -29.0 4.9922 36
-15.2969 -29.0156 5.7773 210
-13.210899999999999 -24.8438 0.3281 253
-13.1953 -24.8125 0.9795 88
-15.3125 -28.7969 1.8955000000000002 104
-15.335899999999999 -28.8438 2.6641000000000004 185
-15.3828 -28.9219 3.4395 206
-15.3906 -28.9375 4.2109 227
-14.156199999999998 -26.625 -1.0508 212
-15.406199999999998 -28.9688 4.9961 239
-14.1719 -26.6562 -0.3521 3
-15.4375 -29.0312 5.7890999999999995 247
-13.1953 -24.6094 0.3257 106
-13.1797 -24.5781 0.9722 50
-15.4375 -28.7812 1.8975 233
-15.476600000000001 -28.8594 2.6719 73
-15.5 -28.9062 3.4433999999999996 46
-15.5156 -28.9375 4.2188 255
-14.281199999999998 -26.6406 -1.0537 100
-15.5469 -29.0 5.0117 225
-14.289100000000001 -26.6562 -0.3528 119
-15.5625 -29.0156 5.796900000000001 246
-13.1953 -24.4062 0.3235 51
-13.1797 -24.375 0.9658 34
-15.5625 -28.7812 1.9013999999999998 76
-15.6094 -28.8594 2.6776999999999997 140
-15.6328 -28.9062 3.4492000000000003 56
-15.648399999999999 -28.9375 4.2266 51
-14.4219 -26.6719 -1.0576 67
-15.6797 -29.0 5.0195 66
-14.398399999999999 -26.625 -0.3533 26
-15.6797 -29.0 5.8047 91
-13.1875 -24.1875 0.32130000000000003 211
-13.1797 -24.1719 0.96 231
-15.6875 -28.7812 1.9043 39
-15.7344 -28.8594 2.6816000000000004 110
-15.7578 -28.9062 3.4551 253
-15.7656 -28.9219 4.2305 207
-14.523399999999999 -26.6406 -1.0576 115
-15.8672 -29.0938 5.0469 109
-14.5156 -26.625 -0.3538 247
-15.898399999999999 -29.1562 5.8477 57
-13.1797 -23.9688 0.3191 201
-13.1719 -23.9531 0.9526 71
-15.8281 -28.7969 1.9091999999999998 164
-15.9219 -28.9531 2.6952999999999996 75
-15.8906 -28.9062 3.4629000000000003 154
-15.898399999999999 -28.9219 4.2383 58
-14.6406 -26.6406 -1.0595999999999999 150
-15.976600000000001 -29.0625 5.0508 193
-14.648399999999999 -26.6406 -0.35450000000000004 235
-16.0625 -29.2031 5.8711 162
-13.1719 -23.7812 0.3169 212
-13.156199999999998 -23.75 0.9462999999999999 15
-15.9531 -28.7969 1.9121000000000001 184
-16.0469 -28.9688 2.7031 124
-16.0 -28.8906 3.4668 79
-16.0156 -28.9062 4.2461 15
-14.7656 -26.6406 -1.0615 73
-16.125 -29.0938 5.0664 223
-14.7656 -26.6562 -0.3555 55
-16.1719 -29.1875 5.8789 34
-13.156199999999998 -23.5625 0.3147 105
-13.156199999999998 -23.5469 0.9404 171
-16.0781 -28.7812 1.915 190
-16.1875 -28.9688 2.707 120
-16.1406 -28.8906 3.4726999999999997 34
-9.2188 -16.5156 -1.0977 254
-16.1562 -28.9219 4.2539 111
-9.2344 -16.5312 -0.6592 161
-16.25 -29.0938 5.0742 110
-14.8906 -26.6719 -0.35619999999999996 176
-16.3125 -29.2188 5.890599999999999 55
-13.156199999999998 -23.3594 0.3127 141
-13.156199999999998 -23.3594 0.9346 125
-16.2031 -28.7656 1.9180000000000001 164
-16.3281 -29.0 2.7148000000000003 35
-16.2812 -28.8906 3.4805 85
-16.2812 -28.9219 4.2617 221
-9.2891 -16.5 -0.6592 84
-16.4062 -29.1406 5.0938 13
-15.0156 -26.6562 -0.3569 79
-16.4531 -29.2031 5.9023 67
-13.148399999999999 -23.1562 0.3105 148
-13.1406 -23.1406 0.9277 28
-16.3438 -28.7812 1.9228999999999998 9
-16.4219 -28.9219 2.7129000000000003 233
-16.4062 -28.8906 3.4863 114
-16.4062 -28.8906 4.2695 95
-9.3516 -16.4688 -0.6592 216
-16.6094 -29.2344 5.1211 203
-13.101600000000001 -23.0781 -0.3093 249
-16.5781 -29.2031 5.9140999999999995 198
-13.156199999999998 -22.9844 0.30879999999999996 232
-13.148399999999999 -22.9688 0.9224 123
-16.4844 -28.7812 1.9268 106
-16.5312 -28.875 2.7148000000000003 212
-16.5312 -28.875 3.4922000000000004 55
-16.5469 -28.8906 4.2773 150
-16.7031 -29.1875 5.1211 104
-13.1094 -22.9062 -0.3079 85
-16.7188 -29.2188 5.9297 50
-13.148399999999999 -22.7812 0.3066 71
-13.1406 -22.7656 0.9159999999999999 56
-16.6094 -28.7656 1.9306999999999999 37
-16.7344 -28.9844 2.7305 225
-16.6562 -28.875 3.498 141
-16.6719 -28.8906 4.2852 160
-13.125 -22.7344 -0.915 143
-16.8281 -29.1562 5.1289 190
-16.8594 -29.2031 5.9375 102
-13.1328 -22.5781 0.9102 69
-16.75 -28.7969 1.9355000000000002 216
-16.9219 -29.0781 2.7441000000000004 28
-16.7812 -28.8594 3.5039 120
-16.8125 -28.9062 4.2969 55
-13.125 -22.5625 -0.9097 150
-16.9219 -29.0938 5.125 208
-13.0703 -22.4688 -0.303 180
-16.9219 -29.0938 5.925800000000001 206
-13.1328 -22.3906 0.9048 61
-13.1406 -22.4062 1.5088 120
-16.9688 -28.9375 2.7363 190
-16.9219 -28.8594 3.5117000000000003 92
-16.9375 -28.875 4.3008 83
-16.9844 -28.9531 5.1133 6
-13.093800000000002 -22.3281 -0.3018 156
-16.9844 -28.9688 5.9140999999999995 141
-13.1328 -22.2188 0.8994 170
-13.1172 -22.1875 1.4971 189
-17.0469 -28.8281 2.7324 143
-17.0625 -28.8594 3.5195 201
-17.0781 -28.8906 4.3125 96
-17.1094 -28.9375 5.1211 212
-13.1328 -22.2188 -0.30079999999999996 125
-17.1406 -28.9844 5.9297 85
-13.1328 -22.0469 0.894 193
-13.1094 -22.0 1.4872999999999998 247
-17.1719 -28.8125 2.7363 44
-17.2031 -28.8594 3.5273000000000003 249
-17.2031 -28.875 4.3203 230
-17.2344 -28.9375 5.1289 213
-13.281199999999998 -22.2969 -0.3025 223
-17.2656 -28.9688 5.9414 89
-13.1172 -21.8438 0.8876999999999999 175
-13.093800000000002 -21.8125 1.4775 96
-17.2969 -28.8125 2.7422000000000004 187
-17.3281 -28.875 3.5351999999999997 219
-17.3438 -28.875 4.3281 22
-17.3594 -28.9219 5.136699999999999 143
-17.3906 -28.9688 5.949199999999999 231
-13.125 -21.6875 0.8833 118
-13.093800000000002 -21.6406 1.4687999999999999 148
-17.4219 -28.7969 2.7461 101
-17.4531 -28.8438 3.5391000000000004 219
-17.4688 -28.8906 4.3359 187
-17.5 -28.9375 5.1523 207
-13.4922 -22.2969 -0.304 136
-17.5156 -28.9531 5.9609000000000005 39
-13.1094 -21.4844 0.8774 201
-13.101600000000001 -21.4688 1.4609 87
-17.5625 -28.7812 2.75 200
-17.6094 -28.8594 3.5488 177
-17.6094 -28.8594 4.3438 138
-13.0781 -21.4375 -0.875 99
-17.6562 -28.9375 5.1602 218
-13.0547 -21.3906 -0.2922 32
-17.6562 -28.9531 5.9727 121
-13.1094 -21.3125 0.8721 248
-13.101600000000001 -21.2969 1.4521000000000002 111
-17.7031 -28.7812 2.7558999999999996 164
-17.75 -28.8594 3.5566000000000004 233
-17.75 -28.8594 4.3516 228
-13.125 -21.3438 -0.873 55
-17.7812 -28.9219 5.171900000000001 149
-13.085899999999999 -21.2812 -0.2913 57
-17.7969 -28.9531 5.984400000000001 91
-13.101600000000001 -21.1406 0.8667 21
-13.101600000000001 -21.1406 1.4443000000000001 117
-17.8438 -28.7812 2.7617000000000003 71
-17.875 -28.8438 3.5625 204
-13.1094 -21.1562 -1.4453 155
-17.8906 -28.8594 4.3633 92
-17.9219 -28.9062 5.1797 94
-13.085899999999999 -21.125 -0.2896 217
-17.9531 -28.9531 6.0 107
-13.093800000000002 -20.9688 0.8613 40
-7.6328 -12.218800000000002 0.8354 67
-17.9688 -28.7812 2.7676 155
-18.0 -28.8125 3.5664 230
-13.0781 -20.9375 -1.4336000000000002 73
-18.0312 -28.8594 4.3711 18
-13.093800000000002 -20.9531 -0.8613 129
-18.0469 -28.9062 5.1914 245
-13.085899999999999 -20.9531 -0.28809999999999997 154
-18.0938 -28.9531 6.011699999999999 191
-13.085899999999999 -20.8125 0.8564 75
-7.675800000000001 -12.2031 0.8364 170
-18.1094 -28.7969 2.7754000000000003 76
-18.1406 -28.8438 3.5762 154
-13.0625 -20.7656 -1.4247999999999998 174
-18.1406 -28.8438 4.3789 182
-18.1875 -28.9219 5.203099999999999 79
-18.2031 -28.9375 6.0234000000000005 52
-13.0781 -20.6406 0.8515999999999999 250
-7.8438 -12.375 0.8501000000000001 96
-7.667999999999999 -12.101600000000001 1.166 160
-7.113300000000001 -11.226600000000001 1.3925999999999998 206
-18.2812 -28.8594 4.3906 206
-18.3438 -28.9531 5.2188 237
-18.4688 -29.1562 6.078099999999999 188
-13.085899999999999 -20.4688 0.8467 8
-7.8203 -12.2344 0.8423 95
-7.6289 -11.9297 1.1533 169
-7.1484000000000005 -11.1875 1.3906 242
-18.7031 -29.25 4.4609 74
-18.7344 -29.3125 5.300800000000001 109
-18.7656 -29.3438 6.1328 191
-13.0781 -20.2969 0.8412999999999999 25
-7.8711 -12.210899999999999 0.8428 58
-7.6602 -11.8828 1.1514 109
-7.0938 -11.0078 1.3711000000000002 223
-18.8438 -29.2344 4.4688 15
-18.875 -29.2969 5.3086 243
-18.8906 -29.3281 6.144500000000001 52
-13.0469 -20.1094 0.8354 98
-7.0273 -10.835899999999999 0.7484999999999999 45
-7.0547 -10.875 1.0547 43
-7.0625 -10.8906 1.3594 70
-13.023399999999999 -20.0781 -1.3896000000000002 196
-18.9219 -29.1719 4.4688 128
-13.0469 -20.1094 -0.8354 161
-18.9844 -29.2812 5.3125 8
-12.9844 -20.0156 -0.2783 229
-19.0312 -29.3281 6.1562 111
-13.0469 -19.9688 0.8311 26
-6.957000000000001 -10.648399999999999 0.7373000000000001 34
-7.050800000000001 -10.789100000000001 1.0498 251
-7.046900000000001 -10.781199999999998 1.3496000000000001 79
-13.0 -19.9062 -1.3809 115
-19.0625 -29.1719 4.4766 248
-13.0469 -19.9688 -0.8315 166
-19.1406 -29.2969 5.328099999999999 201
-13.0 -19.9062 -0.2771 108
-19.1562 -29.3125 6.167999999999999 30
-6.9648 -10.5703 0.4404 72
-6.980499999999999 -10.593800000000002 0.7358 79
-6.988300000000001 -10.6094 1.0342 11
-7.0938 -10.7656 1.3506 158
-13.0078 -19.7344 -1.3730000000000002 38
-7.1484000000000005 -10.851600000000001 1.666 121
-19.2812 -29.2656 5.3359000000000005 68
-12.9922 -19.7188 -0.2751 9
-19.2656 -29.2344 6.167999999999999 241
-13.0547 -19.6562 0.2751 253
-7.011699999999999 -10.5625 0.4409 7
-7.0352 -10.593800000000002 0.7373000000000001 130
-6.988300000000001 -10.523399999999999 1.0283 116
-7.1875 -10.8281 1.3613 157
-13.023399999999999 -19.625 -1.3672 238
-7.175800000000001 -10.8047 1.6631 185
-19.2969 -29.0625 5.3125 46
-13.031199999999998 -19.625 -0.2747 101
-19.2656 -29.0156 6.136699999999999 113
-13.039100000000001 -19.5 0.2734 112
-7.0390999999999995 -10.531199999999998 0.4404 214
-7.0898 -10.601600000000001 0.7393000000000001 12
-6.9961 -10.460899999999999 1.0244 162
-7.3047 -10.9297 1.3769999999999998 219
-13.023399999999999 -19.4844 -1.3603999999999998 182
-7.1797 -10.7344 1.6553 57
-13.0078 -19.4531 -0.8154 198
-6.8438 -10.2344 1.8711000000000002 209
-13.0156 -19.4688 -0.2729 253
-19.3438 -28.9219 6.1289 33
-13.0469 -19.375 0.2722 115
-13.031199999999998 -19.3438 0.813 6
-7.0898 -10.531199999999998 0.7358 176
-7.078099999999999 -10.5156 1.0312000000000001 142
-7.7188 -11.460899999999999 1.4472999999999998 246
-13.0 -19.2969 -1.3516 202
-7.046900000000001 -10.460899999999999 1.6172 55
-13.0078 -19.3125 -0.8109999999999999 204
-6.8828 -10.2188 1.8730000000000002 20
-13.0078 -19.3125 -0.27149999999999996 19
-19.4844 -28.9375 6.144500000000001 4
-13.0625 -19.2344 0.271 186
-13.031199999999998 -19.1875 0.8081 100
-7.0898 -10.4375 0.7314 213
-7.1875 -10.585899999999999 1.041 223
-7.3672 -10.851600000000001 1.374 131
-13.0156 -19.1719 -1.3457 47
-7.3828 -10.875 1.6855000000000002 196
-13.039100000000001 -19.2031 -0.8090999999999999 0
-6.9102 -10.1797 1.8691 242
-13.031199999999998 -19.1875 -0.2703 45
-7.050800000000001 -10.3828 2.2051 194
-13.093800000000002 -19.1406 0.2703 108
-13.039100000000001 -19.0625 0.8047 15
-7.0977 -10.375 0.7284999999999999 162
-7.082000000000001 -10.351600000000001 1.0205 129
-7.644500000000001 -11.1719 1.4180000000000001 36
-13.023399999999999 -19.0312 -1.3388999999999998 180
-19.7188 -28.8281 4.4883 206
-13.0781 -19.1094 -0.8070999999999999 192
-7.0 -10.2266 1.8838 233
-13.0469 -19.0625 -0.2693 184
-7.1484000000000005 -10.4453 2.2246 26
-13.0781 -18.9844 0.2688 218
-13.039100000000001 -18.9219 0.8008 112
-7.1836 -10.4297 0.7343999999999999 132
-7.050800000000001 -10.2344 1.0117 100
-6.9102 -10.0312 1.2754 55
-13.0078 -18.875 -1.3311000000000002 0
-7.078099999999999 -10.273399999999999 1.5996000000000001 226
-13.0625 -18.9688 -0.8027 237
-7.0390999999999995 -10.2188 1.8857 137
-13.0469 -18.9375 -0.2681 57
-7.0938 -10.2969 2.1973 51
-13.101600000000001 -18.8906 0.26780000000000004 101
-13.023399999999999 -18.7656 0.7959 149
-13.0156 -18.7656 1.3262 91
-6.9961 -10.0859 0.9990000000000001 59
-6.9062 -9.9609 1.2695 166
-13.0078 -18.75 -1.3252000000000002 141
-7.125 -10.2656 1.6025 145
-13.0547 -18.8125 -0.7979 158
-7.125 -10.2656 1.8994 38
-13.0781 -18.8594 -0.2673 153
-7.0625 -10.1797 2.1777 221
-13.156199999999998 -18.8125 0.2676 172
-7.792999999999999 -11.1406 0.4729 223
-7.2265999999999995 -10.3281 0.731 90
-7.1562 -10.2344 1.0166 159
-6.953099999999999 -9.9453 1.2705 64
-13.0 -18.5938 -1.3174000000000001 141
-7.203099999999999 -10.2969 1.6103999999999998 108
-13.0547 -18.6562 -0.7935 171
-7.0547 -10.0859 1.8700999999999999 197
-13.1094 -18.75 -0.2666 218
-7.230499999999999 -10.335899999999999 2.2168 227
-0.5376 -0.7631999999999999 -0.1572 117
-13.2656 -18.8281 0.2686 91
-7.875 -11.1797 0.4756 166
-7.2109000000000005 -10.2344 0.7256 74
-20.25 -28.7344 2.8672000000000004 24
-6.9453 -9.8594 1.2627 222
-13.0 -18.4375 -1.3105000000000002 219
-7.234400000000001 -10.2656 1.6103999999999998 121
-13.0469 -18.5156 -0.7890999999999999 229
-7.1015999999999995 -10.0781 1.8730000000000002 99
-13.093800000000002 -18.5781 -0.26489999999999997 43
-7.109400000000001 -10.0859 2.168 221
-7.917999999999999 -11.156199999999998 0.47609999999999997 139
-6.7812 -9.5547 0.6792 74
-7.171900000000001 -10.1016 1.0088 112
-6.988300000000001 -9.8438 1.2646 118
-12.9922 -18.2969 -1.3027000000000002 54
-7.1172 -10.0312 1.5762 205
-13.0469 -18.375 -0.7852 204
-7.171900000000001 -10.1016 1.8828 246
-13.093800000000002 -18.4375 -0.2637 173
-7.1015999999999995 -10.0078 2.1562 52
-0.6006 -0.8393999999999999 -0.1746 41
-7.8828 -11.023399999999999 0.4714 104
-6.824199999999999 -9.5391 0.6797 104
-7.2812 -10.1797 1.0186 78
-7.0312 -9.8359 1.2656 192
-12.9922 -18.1719 -1.2969 149
-7.109400000000001 -9.9375 1.5663999999999998 217
-13.0469 -18.25 -0.7812 141
-7.207000000000001 -10.0781 1.8828 126
-13.085899999999999 -18.2969 -0.2622 254
-7.2773 -10.1719 2.1992 227
-0.5459 -0.7573000000000001 -0.1572 42
-7.890599999999999 -10.9531 0.46950000000000003 175
-6.824199999999999 -9.4688 0.6762999999999999 225
-7.238300000000001 -10.0469 1.0078 245
-7.0586 -9.7969 1.2646 79
-13.0 -18.0469 -1.291 153
-7.1953 -9.9844 1.5771000000000002 234
-13.039100000000001 -18.1094 -0.7773 224
-7.75 -10.7578 2.0156 93
-13.085899999999999 -18.1562 -0.261 54
-7.3515999999999995 -10.2031 2.209 246
-0.5483 -0.7554000000000001 -0.1572 9
-8.0469 -11.085899999999999 0.47659999999999997 27
-6.8711 -9.4688 0.6777 73
-7.2461 -9.9844 1.0039 34
-7.082000000000001 -9.7578 1.2627 53
-12.9844 -17.8906 -1.2832 199
-7.2148 -9.9375 1.5741999999999998 29
-13.031199999999998 -17.9531 -0.7729 77
-7.8047 -10.7578 2.0195 185
-13.210899999999999 -18.2031 -0.262 64
-7.328099999999999 -10.0938 2.1914 106
-13.375 -18.2969 0.2642 208
-13.0 -17.7812 0.7676000000000001 103
-6.8984000000000005 -9.4375 0.6772 182
-7.3164 -10.0156 1.0098 237
-7.1640999999999995 -9.8047 1.2715 8
-12.976600000000001 -17.7656 -1.2773 63
-7.144500000000001 -9.7734 1.5518 133
-13.031199999999998 -17.8281 -0.7695000000000001 139
-7.863300000000001 -10.7578 2.0254 95
-13.289100000000001 -18.1719 -0.2625 239
-7.2890999999999995 -9.9766 2.1699 19
-13.3828 -18.1875 0.2632 208
-8.5078 -11.5625 0.49950000000000006 104
-6.9648 -9.4609 0.6812 74
-7.2812 -9.8906 0.9995 167
-7.1836 -9.7656 1.2695 28
-12.960899999999999 -17.6094 -1.2695 217
-7.171900000000001 -9.7422 1.5508000000000002 6
-13.031199999999998 -17.7031 -0.7661 133
-7.167999999999999 -9.7422 1.8378999999999999 113
-13.3047 -18.0781 -0.2615 109
-7.4961 -10.1875 2.2227 246
-7.988300000000001 -10.773399999999999 0.156 49
-6.9765999999999995 -9.4141 0.4072 135
-6.9727 -9.4062 0.6781999999999999 47
-6.5039 -8.7734 -1.1436 176
-7.328099999999999 -9.8828 1.001 26
-7.2148 -9.7344 1.2686 253
-12.968800000000002 -17.4844 -1.2637 125
-7.2109000000000005 -9.7266 1.5518 108
-13.0156 -17.5625 -0.7612000000000001 45
-7.296900000000001 -9.8438 1.8613 90
-13.2969 -17.9375 -0.26030000000000003 26
-7.6484000000000005 -10.3125 2.2578 5
-13.3594 -17.8906 0.26030000000000003 204
-7.011699999999999 -9.3906 0.4075 50
-6.988300000000001 -9.3594 0.6772 248
-6.4961 -8.7031 -1.1367 20
-7.0234000000000005 -9.4062 0.9556 0
-21.4688 -28.7656 3.7676 43
-12.968800000000002 -17.375 -1.2588 172
-7.2578 -9.7266 1.5556999999999999 220
-13.0078 -17.4219 -0.7573000000000001 16
-7.3672 -9.8672 1.8711000000000002 26
-13.281199999999998 -17.7969 -0.2588 37
-7.8438 -10.5078 2.3047 234
-13.3281 -17.7188 0.2583 236
-7.042999999999999 -9.3594 0.4075 65
-6.953099999999999 -9.2422 0.6704000000000001 124
-6.5039 -8.6406 -1.1318000000000001 198
-7.082000000000001 -9.4141 0.9584999999999999 195
-6.6015999999999995 -8.7734 -0.8931 75
-9.2891 -12.351600000000001 1.6200999999999999 45
-12.968800000000002 -17.2344 -1.2529000000000001 76
-6.6914 -8.8906 1.4258000000000002 193
-13.0156 -17.2969 -0.7539 90
-7.355499999999999 -9.7734 1.8584 67
-13.281199999999998 -17.6562 -0.25730000000000003 71
-7.875 -10.460899999999999 2.3027 133
-13.351600000000001 -17.6094 0.2576 133
-7.375 -9.7344 0.42460000000000003 129
-6.9648 -9.1875 0.6679999999999999 72
-6.5039 -8.5859 -1.127 126
-7.300800000000001 -9.6328 0.9839 169
-6.574199999999999 -8.6719 -0.8853 210
-7.3984000000000005 -9.7578 1.2832 253
-12.976600000000001 -17.125 -1.2470999999999999 139
-6.734400000000001 -8.8828 1.4287 227
-13.023399999999999 -17.1875 -0.7509999999999999 224
-7.394500000000001 -9.7578 1.8603999999999998 110
-13.2656 -17.5 -0.2559 172
-7.9023 -10.4219 2.2988 232
-13.039100000000001 -17.0781 0.2505 59
-7.4375 -9.7422 0.426 254
-7.0039 -9.1797 0.6689 242
-6.5 -8.5156 -1.1211 169
-7.203099999999999 -9.4297 0.9658 233
-6.5703 -8.6016 -0.8809 7
-7.4023 -9.6953 1.2773 147
-6.671900000000001 -8.7422 -0.6372 204
-6.8086 -8.9141 1.4375 175
-13.0156 -17.0469 -0.7471 215
-7.4648 -9.7812 1.8691 15
-12.9922 -17.0156 -0.2495 154
-7.980499999999999 -10.4531 2.3105 61
-13.0469 -16.9688 0.2493 255
-7.4922 -9.7422 0.4275 135
-7.0938 -9.2266 0.6743000000000001 160
-6.5 -8.4531 -1.1162 27
-7.175800000000001 -9.3281 0.9575 149
-6.5586 -8.5312 -0.8755 204
-7.4727 -9.7188 1.2832 178
-6.6602 -8.6641 -0.6328 88
-6.8086 -8.8594 1.4316 164
-13.0078 -16.9219 -0.7437 132
-7.5312 -9.7891 1.8769999999999998 241
-13.0078 -16.9062 -0.2487 189
-6.828099999999999 -8.8828 1.9678 188
-0.6318 -0.8159000000000001 -0.1746 158
-12.9922 -16.7656 0.24719999999999998 10
-8.4219 -10.875 0.47850000000000004 127
-7.1914 -9.2812 0.6807 50
-6.5039 -8.3984 -1.1123 2
-7.125 -9.1953 0.9468000000000001 15
-6.5625 -8.4688 -0.8715999999999999 148
-7.4961 -9.6797 1.2822 79
-6.6640999999999995 -8.6016 -0.6304 204
-6.863300000000001 -8.8594 1.4365 210
-12.976600000000001 -16.75 -0.7378 148
-7.480499999999999 -9.6562 1.8555000000000001 185
-12.960899999999999 -16.7344 -0.2466 100
-8.9297 -11.531199999999998 2.5645 3
-0.5742 -0.7363 -0.1572 82
-12.976600000000001 -16.6406 0.2458 77
-12.968800000000002 -16.625 0.7343999999999999 190
-7.2265999999999995 -9.2656 0.6807 219
-6.511699999999999 -8.3438 -1.1084 137
-7.1562 -9.1719 0.9468000000000001 107
-6.5547 -8.4062 -0.8672 33
-7.4765999999999995 -9.5859 1.2734 255
-6.675800000000001 -8.5547 -0.6289 213
-6.9062 -8.8516 1.4385 58
-12.9531 -16.5938 -0.7334 145
-7.550800000000001 -9.6797 1.8652000000000002 27
-12.9375 -16.5938 -0.2451 152
-6.7852 -8.6953 1.9375 125
-12.9922 -16.5312 0.245 63
-12.960899999999999 -16.5 0.731 148
-7.2265999999999995 -9.1953 0.6777 245
-6.515599999999999 -8.2891 -1.1035 144
-7.1953 -9.1562 0.9478 107
-6.5547 -8.3438 -0.8633 105
-8.6875 -11.0625 1.4736000000000002 200
-6.8672 -8.7344 1.4238 33
-12.960899999999999 -16.5 -0.7304999999999999 178
-7.5703 -9.6328 1.8622999999999998 108
-12.9297 -16.4531 -0.2439 12
-6.8672 -8.7422 1.9521000000000002 168
-0.5796 -0.7319 -0.1572 221
-12.968800000000002 -16.3906 0.24350000000000002 88
-12.968800000000002 -16.375 0.7275 61
-7.2890999999999995 -9.2109 0.6807 95
-6.5039 -8.2188 -1.0967 133
-7.2422 -9.1484 0.9497 187
-6.550800000000001 -8.2734 -0.8584 169
-7.125 -9.0078 1.2021 113
-6.8203 -8.6172 1.4082 144
-12.9531 -16.375 -0.7271 159
-7.761699999999999 -9.8125 1.9013999999999998 251
-12.9375 -16.3438 -0.24280000000000002 36
-6.8398 -8.6406 1.9365 140
-0.5942000000000001 -0.7456 -0.1606 211
-12.968800000000002 -16.2656 0.24230000000000002 252
-12.9531 -16.25 0.7241 27
-7.3672 -9.2422 0.6851 115
-6.5 -8.1562 -1.0908 83
-8.8516 -11.101600000000001 1.1562000000000001 211
-6.5547 -8.2188 -0.8554999999999999 3
-8.7734 -11.0 1.4746000000000001 26
-6.863300000000001 -8.6094 1.4111000000000002 46
-12.9531 -16.25 -0.7236 84
-8.0547 -10.1016 1.9638999999999998 19
-12.9297 -16.2188 -0.24170000000000003 110
-6.9102 -8.6641 1.9472999999999998 218
-0.5796 -0.7217 -0.1559 59
-12.9531 -16.1406 0.24109999999999998 207
-12.9531 -16.125 0.7206999999999999 20
-3.0332 -3.7793 -0.6177 229
-12.9375 -16.1094 1.2002 136
-6.5078 -8.1016 -1.0879 31
-7.324199999999999 -9.1172 0.9517 96
-6.5586 -8.1641 -0.8521 101
-7.1211 -8.8672 1.1914 186
-6.9102 -8.6094 1.4141 44
-12.9375 -16.1094 -0.7197 39
-6.7578 -8.4141 1.6396000000000002 49
-12.9219 -16.0938 -0.24050000000000002 141
-6.925800000000001 -8.625 1.9434 137
-0.5869 -0.7261 -0.1572 24
-12.9219 -15.9922 0.2395 226
-12.906199999999998 -15.968800000000002 0.7153 224
-2.9766000000000004 -3.6816000000000004 -0.6035 167
-12.9297 -16.0 1.1943000000000001 13
-6.5078 -8.0547 -1.084 193
-7.3164 -9.0547 0.9473 229
-6.546900000000001 -8.1016 -0.8472 78
-7.105499999999999 -8.7891 1.1836 158
-6.9648 -8.6172 1.4199000000000002 49
-12.906199999999998 -15.968800000000002 -0.7153 233
-6.7852 -8.3906 1.6387 200
-12.8828 -15.9375 -0.23879999999999998 234
-6.886699999999999 -8.5156 1.9238 80
-0.5893999999999999 -0.7241 -0.1572 250
-12.914100000000001 -15.8672 0.2384 1
-9.6953 -11.914100000000001 0.5347 243
-2.9707 -3.6504000000000003 -0.6001 104
-12.9297 -15.8828 1.1895 129
-6.5039 -7.988300000000001 -1.0781 60
-7.3398 -9.0156 0.9458 127
-6.542999999999999 -8.0391 -0.8428 166
-8.7969 -10.8125 1.46 45
-7.0352 -8.6484 1.4287 177
-12.898399999999999 -15.851600000000001 -0.7119 190
-6.832000000000001 -8.3906 1.6436000000000002 163
-12.8672 -15.8125 -0.23739999999999997 1
-6.917999999999999 -8.5 1.9258000000000002 225
-0.6118 -0.7461 -0.16269999999999998 36
-12.914100000000001 -15.75 0.2373 231
-12.914100000000001 -15.75 0.7095 60
-2.9922000000000004 -3.6483999999999996 -0.6015999999999999 186
-12.914100000000001 -15.75 1.1826 105
-6.4922 -7.917999999999999 -1.0713 184
-7.421900000000001 -9.0547 0.9526 162
-6.5547 -7.9922 -0.8408 127
-8.8594 -10.7969 1.4638999999999998 253
-7.082000000000001 -8.6406 1.4316 176
-12.898399999999999 -15.726600000000001 -0.7084999999999999 57
-6.9062 -8.4219 1.6543 231
-12.875 -15.7031 -0.2366 206
-6.886699999999999 -8.3984 1.9082 247
-0.5942000000000001 -0.7197 -0.1572 106
-12.898399999999999 -15.6172 0.23600000000000002 32
-12.906199999999998 -15.6328 0.7061 183
-2.9844 -3.6151999999999997 -0.5977 208
-12.9297 -15.656199999999998 1.1787 226
-6.4961 -7.8672 -1.0674 19
-7.457000000000001 -9.0312 0.9526 188
