# .PCD v0.7 - Point Cloud Data file format
VERSION 0.7
FIELDS x y z intensity
SIZE 4 4 4 4
TYPE F F F F
COUNT 1 1 1 1
WIDTH 1222
HEIGHT 1
VIEWPOINT 0 0 0 1 0 0 0
POINTS 1222
DATA ascii
-9.0938 -2.3691 1.4258000000000002 142
-17.5781 -4.582 -0.2114 16
-8.6641 -2.2598 1.5713 215
-17.8281 -4.5859 0.2144 132
-3.6895 -0.9487000000000001 -0.5747 59
-12.4297 -3.1952999999999996 0.44630000000000003 119
-6.1797 -1.5888999999999998 -0.8154 75
-12.398399999999999 -3.1875 0.7422 50
-6.2422 -1.6055000000000001 -0.6729 189
-12.4219 -3.1952999999999996 1.0439 136
-9.3906 -2.416 1.0146 60
-12.2031 -3.1387 1.6152000000000002 183
-6.863300000000001 -1.7646000000000002 -0.24559999999999998 240
-11.8203 -3.0391000000000004 1.8544999999999998 70
-12.3906 -3.1875 -0.14880000000000002 227
-12.031199999999998 -3.0938 2.1836 213
-12.4219 -3.1504000000000003 0.1489 172
-3.7422000000000004 -0.9492 -0.5825 139
-12.3672 -3.1367000000000003 0.44380000000000003 100
-6.175800000000001 -1.5654 -0.8140000000000001 214
-12.3672 -3.1367000000000003 0.7397 68
-6.238300000000001 -1.5819999999999999 -0.6718999999999999 78
-12.3672 -3.1367000000000003 1.0391 14
-9.4297 -2.3906 1.0176 28
-12.218800000000002 -3.0976999999999997 1.6152000000000002 114
-11.8047 -2.9922000000000004 1.8496000000000001 43
-12.351600000000001 -3.1327999999999996 -0.1481 164
-11.976600000000001 -3.0370999999999997 2.1699 221
-12.4297 -3.1035000000000004 0.1489 36
-3.6895 -0.9209 -0.5732 150
-12.3281 -3.0781 0.44189999999999996 235
-6.171900000000001 -1.541 -0.813 196
-12.343800000000002 -3.0839999999999996 0.7378 222
-6.1484000000000005 -1.5361000000000002 -0.6616 233
-12.343800000000002 -3.082 1.0361 163
-9.4531 -2.3613 1.0195 212
-12.226600000000001 -3.0526999999999997 1.6152000000000002 38
-11.781199999999998 -2.9433999999999996 1.8457 175
-12.3203 -3.0762 -0.1476 234
-11.875 -2.9648000000000003 2.1504 199
-12.375 -3.0449 0.1482 6
-3.75 -0.9224 -0.5825 122
-12.335899999999999 -3.0351999999999997 0.44189999999999996 87
-6.167999999999999 -1.5175999999999998 -0.812 42
-12.351600000000001 -3.0370999999999997 0.7373000000000001 34
-6.125 -1.5068000000000001 -0.6581999999999999 166
-12.375 -3.043 1.0371 17
-9.5 -2.3359 1.0234 217
-6.3438 -1.5605000000000002 -0.3772 83
-12.2422 -3.0117000000000003 1.6162 117
-7.074199999999999 -1.7402000000000002 -0.2527 22
-11.789100000000001 -2.9004000000000003 1.8457 134
-12.3203 -3.0312 -0.1475 169
-11.8125 -2.9043 2.1367 19
-12.3594 -2.998 0.1478 90
-3.752 -0.9102 -0.5825 226
-12.335899999999999 -2.9922000000000004 0.44170000000000004 229
-6.1640999999999995 -1.4950999999999999 -0.8105 170
-12.351600000000001 -2.9961 0.7368000000000001 238
-6.109400000000001 -1.4813999999999998 -0.6562 216
-12.3906 -3.0039 1.0381 56
-9.5547 -2.3164 1.0283 125
-6.3438 -1.5381 -0.3772 28
-12.226600000000001 -2.9648000000000003 1.6133000000000002 126
-7.082000000000001 -1.7168 -0.2527 210
-11.843800000000002 -2.873 1.8525 106
-12.3281 -2.9901999999999997 -0.1475 198
-9.1953 -2.2305 1.6611000000000002 248
-12.398399999999999 -2.9629000000000003 0.1482 82
-3.7832 -0.9037999999999999 -0.5864 14
-12.375 -2.957 0.4426 228
-6.175800000000001 -1.4756 -0.8109999999999999 91
-12.3906 -2.9608999999999996 0.7387999999999999 68
-6.1015999999999995 -1.4580000000000002 -0.6548 233
-12.414100000000001 -2.9668 1.0391 149
-6.1797 -1.4766 -0.5156000000000001 213
-12.3828 -2.9589999999999996 1.3330000000000002 63
-6.3398 -1.5146000000000002 -0.3765 47
-9.6484 -2.3066 1.2705 152
-7.1562 -1.71 -0.2551 28
-9.6719 -2.3105 1.5097999999999998 236
-12.343800000000002 -2.9512 -0.1476 59
-9.1953 -2.1973 1.6591999999999998 81
-12.4375 -2.9238 0.14859999999999998 186
-3.7891000000000004 -0.8911 -0.5869 196
-12.3906 -2.9120999999999997 0.4426 175
-6.175800000000001 -1.4521000000000002 -0.8105 190
-12.460899999999999 -2.9297000000000004 0.7422 5
-6.113300000000001 -1.4375 -0.6553 137
-6.199199999999999 -1.4569999999999999 -0.5166 92
-12.398399999999999 -2.9160000000000004 1.334 77
-6.3477 -1.4922 -0.37670000000000003 124
-9.6406 -2.2656 1.2686 184
-7.2148 -1.6963 -0.2571 196
-9.6641 -2.2715 1.5068000000000001 221
-12.3828 -2.9101999999999997 -0.1478 25
-9.2109 -2.1641 1.6602000000000001 25
-3.7617000000000003 -0.8706 -0.5825 225
-12.476600000000001 -2.8867000000000003 0.44530000000000003 59
-6.167999999999999 -1.4277000000000002 -0.8090999999999999 191
-6.1328 -1.4188999999999998 -0.6567000000000001 147
-13.468800000000002 -3.1172000000000004 1.125 31
-6.2148 -1.4385 -0.5176 210
-13.460899999999999 -3.1151999999999997 1.4472999999999998 140
-6.3515999999999995 -1.4707 -0.37670000000000003 27
-9.6719 -2.2383 1.2715 58
-7.292999999999999 -1.6875 -0.2595 6
-9.6562 -2.2344 1.5038999999999998 174
-12.4297 -2.877 -0.1483 186
-11.789100000000001 -2.7285000000000004 2.127 78
-13.4922 -3.0702999999999996 0.161 109
-3.8145 -0.8682 -0.5903 128
-13.468800000000002 -3.0645 0.4805 224
-6.171900000000001 -1.4043 -0.8086 32
-13.476600000000001 -3.0664 0.8012999999999999 101
-6.1484000000000005 -1.3994 -0.6581999999999999 127
-13.4844 -3.0683999999999996 1.126 132
-13.468800000000002 -3.0645 1.4472999999999998 130
-6.363300000000001 -1.4482 -0.377 87
-9.6953 -2.2051 1.2734 123
-7.5078 -1.709 -0.2671 180
-9.7109 -2.2109 1.5127000000000002 78
-13.4375 -3.0586 -0.1603 247
-9.5781 -2.1797 1.7246000000000001 146
-13.4844 -3.0195 0.1606 64
-3.8066000000000004 -0.8521 -0.5884 220
-13.468800000000002 -3.0156 0.48 172
-6.171900000000001 -1.3818000000000001 -0.8081 167
-13.468800000000002 -3.0156 0.8003 170
-6.1836 -1.3847999999999998 -0.6616 57
-13.468800000000002 -3.0156 1.124 174
-13.460899999999999 -3.0137 1.4453 63
-6.3711 -1.4258000000000002 -0.377 230
-12.2422 -2.7401999999999997 1.6084 58
-7.6640999999999995 -1.7158000000000002 -0.2725 170
-11.9922 -2.6836 1.8672 183
-13.4531 -3.0117000000000003 -0.1603 17
-9.5781 -2.1445 1.7236000000000002 221
-13.5 -2.9726999999999997 0.16079999999999997 136
-3.8672000000000004 -0.8515999999999999 -0.5972 17
-13.468800000000002 -2.9648000000000003 0.4797 192
-6.171900000000001 -1.3594 -0.8076000000000001 136
-13.476600000000001 -2.9668 0.8003 249
-13.4844 -2.9688 1.124 227
-13.476600000000001 -2.9688 1.4463 105
-12.226600000000001 -2.6933999999999996 1.6044999999999998 61
-7.667999999999999 -1.6894999999999998 -0.2725 222
-9.875 -2.1758 1.5361000000000002 28
-13.460899999999999 -2.9648000000000003 -0.1603 217
-9.5781 -2.1094 1.7216999999999998 169
-13.476600000000001 -2.918 0.1604 63
-3.8711 -0.8384 -0.5972 115
-13.4531 -2.9141000000000004 0.479 98
-6.1797 -1.3388999999999998 -0.8081 67
-13.476600000000001 -2.918 0.7998000000000001 201
-6.265599999999999 -1.3574000000000002 -0.6694 10
-13.460899999999999 -2.9141000000000004 1.1211 61
-13.4844 -2.9199 1.4453 1
-12.2344 -2.6483999999999996 1.6044999999999998 125
-13.468800000000002 -2.9160000000000004 -0.47950000000000004 95
-9.875 -2.1387 1.5341999999999998 104
-13.460899999999999 -2.9141000000000004 -0.1602 248
-9.6406 -2.0879 1.7324000000000002 220
-13.468800000000002 -2.8691000000000004 0.1602 207
-3.8926 -0.8286 -0.6006 75
-13.4531 -2.8632999999999997 0.47850000000000004 26
-6.167999999999999 -1.3135 -0.8062 208
-13.4844 -2.8711 0.7993000000000001 0
-6.265599999999999 -1.334 -0.6685 35
-13.4531 -2.8651999999999997 1.1201 136
-13.468800000000002 -2.8691000000000004 1.4434 213
-12.25 -2.6094 1.6055000000000001 164
-13.476600000000001 -2.8691000000000004 -0.47950000000000004 216
-12.039100000000001 -2.5645 1.8700999999999999 62
-13.4453 -2.8632999999999997 -0.15990000000000001 183
-9.8906 -2.1055 1.7763999999999998 90
-13.375 -2.7988 0.1589 139
-3.9257999999999997 -0.8218000000000001 -0.605 111
-13.4531 -2.8164 0.4783 199
-6.171900000000001 -1.291 -0.8057 63
-13.476600000000001 -2.8202999999999996 0.7983 89
-6.265599999999999 -1.3115 -0.6679999999999999 11
-13.468800000000002 -2.8183999999999996 1.1201 89
-13.4531 -2.8164 1.4404 89
-12.2422 -2.5625 1.6035 30
-13.4844 -2.8223000000000003 -0.4792 156
-12.0625 -2.5234 1.8721 174
-13.4453 -2.8125 -0.1597 31
-9.8203 -2.0547 1.7616999999999998 50
-13.3594 -2.752 0.1586 29
-3.9766000000000004 -0.8188 -0.6123 8
-13.468800000000002 -2.7754000000000003 0.47850000000000004 157
-6.1602 -1.2686 -0.8031999999999999 27
-13.4922 -2.7793 0.7988 188
-6.269500000000001 -1.2919999999999998 -0.6685 124
-13.531199999999998 -2.7870999999999997 1.125 155
-13.468800000000002 -2.7754000000000003 1.4413999999999998 207
-12.2344 -2.5215 1.6016 170
-13.4844 -2.7773000000000003 -0.4788 22
-12.0781 -2.4883 1.874 33
-13.4453 -2.7695 -0.1597 68
-11.75 -2.4199 2.1074 250
-13.3594 -2.7051 0.15839999999999999 112
-4.0156 -0.8134999999999999 -0.6187 28
-13.523399999999999 -2.7401999999999997 0.4802 67
-6.171900000000001 -1.25 -0.8047 157
-13.5469 -2.7441000000000004 0.8018000000000001 139
-6.25 -1.2656 -0.6655 137
-13.5703 -2.748 1.127 19
-6.3984000000000005 -1.2959 -0.5297999999999999 203
-13.468800000000002 -2.7285000000000004 1.4394999999999998 203
-12.25 -2.4805 1.6025 163
-13.468800000000002 -2.7285000000000004 -0.478 28
-12.101600000000001 -2.4512 1.876 68
-13.460899999999999 -2.7266000000000004 -0.1597 143
-11.7578 -2.3809 2.1074 8
-13.3594 -2.6523000000000003 0.15839999999999999 164
-4.0352 -0.8012999999999999 -0.6211 114
-13.5703 -2.6952999999999996 0.4814 208
-6.1797 -1.2275 -0.8051999999999999 16
-13.593800000000002 -2.6992000000000003 0.8037000000000001 48
-6.2734000000000005 -1.2461 -0.6679999999999999 158
-13.5703 -2.6952999999999996 1.127 35
-6.292999999999999 -1.25 -0.5205 158
-13.468800000000002 -2.6738 1.4385 144
-12.2422 -2.4316 1.6006 18
-13.460899999999999 -2.6719 -0.4775 100
-12.093800000000002 -2.4023 1.874 203
-13.460899999999999 -2.6738 -0.1595 172
-11.773399999999999 -2.3379 2.1094 128
-13.375 -2.6074 0.15839999999999999 70
-4.1016 -0.7993000000000001 -0.6304 220
-13.5547 -2.6426 0.4805 89
-6.1640999999999995 -1.2012 -0.8022 199
-13.585899999999999 -2.6483999999999996 0.8027 221
-6.2852 -1.2256 -0.6685 253
-13.593800000000002 -2.6504000000000003 1.1279000000000001 217
-6.2852 -1.2246 -0.5195000000000001 59
-13.468800000000002 -2.625 1.4375 113
-12.2578 -2.3906 1.6016 77
-13.460899999999999 -2.625 -0.4771 21
-12.101600000000001 -2.3574 1.8730000000000002 166
-13.4375 -2.6191000000000004 -0.1592 54
-11.7656 -2.293 2.1055 38
-3.4297000000000004 -0.6567000000000001 -0.6084 230
-13.375 -2.5625 0.15839999999999999 55
-4.1211 -0.7896 -0.6338 62
-13.5625 -2.5976999999999997 0.4805 130
-6.171900000000001 -1.1816 -0.8027 170
-13.593800000000002 -2.6035000000000004 0.8027 169
-6.2773 -1.2021 -0.6675 117
-13.593800000000002 -2.6035000000000004 1.127 119
-6.3047 -1.207 -0.521 252
-13.460899999999999 -2.5762 1.4355000000000002 176
-12.25 -2.3457 1.5996000000000001 147
-13.468800000000002 -2.5781 -0.4771 41
-11.8828 -2.2754 1.8388999999999998 237
-13.4375 -2.5723000000000003 -0.1591 104
-11.7656 -2.2539 2.1055 84
-3.4863 -0.6557999999999999 -0.6182 154
-13.375 -2.5156 0.1583 109
-4.1602 -0.7822 -0.6392 65
-13.5703 -2.5508 0.4802 56
-6.171900000000001 -1.1602 -0.8022 78
-13.5703 -2.5527 0.8008 58
-6.3438 -1.1934 -0.6738 177
-13.585899999999999 -2.5547 1.126 250
-6.3125 -1.1875 -0.521 202
-13.468800000000002 -2.5332 1.4355000000000002 94
-12.2344 -2.3008 1.5957 92
-13.460899999999999 -2.5312 -0.47659999999999997 9
-11.851600000000001 -2.2285 1.8330000000000002 80
-13.4531 -2.5293 -0.1592 76
-11.7656 -2.2129 2.1035 58
-3.4882999999999997 -0.6420999999999999 -0.6182 154
-13.3828 -2.4629 0.1582 103
-4.1484 -0.7637 -0.6367 236
-13.5625 -2.498 0.48 161
-6.175800000000001 -1.1367 -0.8022 134
-13.5781 -2.5 0.8008 147
-6.3203 -1.1631 -0.6704000000000001 211
-13.5781 -2.5 1.124 132
-6.3203 -1.1631 -0.521 93
-13.476600000000001 -2.4805 1.4355000000000002 2
-12.2344 -2.252 1.5947 190
-13.460899999999999 -2.4785 -0.47609999999999997 252
-11.8672 -2.1855 1.834 79
-13.4531 -2.4766 -0.1591 162
-11.773399999999999 -2.166 2.1035 171
-3.4863 -0.6294 -0.6172 111
-13.406199999999998 -2.4199 0.15839999999999999 129
-4.1211 -0.7441 -0.6323 250
-13.5547 -2.4473 0.4792 31
-6.1836 -1.1162 -0.8027 164
-13.593800000000002 -2.4531 0.8008 57
-6.355499999999999 -1.1465 -0.6738 130
-13.5781 -2.4512 1.123 186
-6.3047 -1.1377 -0.5195000000000001 132
-13.476600000000001 -2.4316 1.4346 24
-12.2344 -2.209 1.5937999999999999 222
-13.4531 -2.4277 -0.4756 36
-11.8594 -2.1406 1.8311000000000002 129
-13.4453 -2.4277 -0.1589 55
-11.781199999999998 -2.127 2.1035 215
-3.5117000000000003 -0.6211 -0.6215999999999999 26
-13.414100000000001 -2.373 0.15839999999999999 115
-6.167999999999999 -1.0908 -0.9487000000000001 71
-13.5547 -2.3965 0.4788 138
-6.175800000000001 -1.0928 -0.8012999999999999 138
-13.585899999999999 -2.4023 0.8003 171
-6.359400000000001 -1.124 -0.6738 84
-13.5781 -2.4004 1.1220999999999999 58
-6.300800000000001 -1.1143 -0.519 183
-13.4844 -2.3848 1.4346 150
-7.2227 -1.2773 -0.4241 177
-12.2578 -2.168 1.5957 214
-13.460899999999999 -2.3809 -0.4756 173
-12.0469 -2.1309 1.8584 164
-13.4297 -2.375 -0.1586 70
-11.781199999999998 -2.084 2.1016 242
-3.5039 -0.6069 -0.6196 175
-13.4297 -2.3281 0.15839999999999999 0
-6.1562 -1.0674 -0.9462999999999999 161
-13.5625 -2.3496 0.479 168
-6.167999999999999 -1.0684 -0.7993000000000001 207
-13.5781 -2.3535 0.7993000000000001 163
-6.363300000000001 -1.1025 -0.6738 183
-13.5781 -2.3535 1.1220999999999999 41
-6.3164 -1.0937999999999999 -0.52 253
-13.468800000000002 -2.334 1.4325999999999999 185
-12.2578 -2.123 1.5947 229
-13.460899999999999 -2.332 -0.4753 252
-12.1172 -2.0996 1.8681999999999999 19
-13.4219 -2.3262 -0.15839999999999999 139
-11.7578 -2.0371 2.0957 42
-3.5332 -0.5991 -0.6245 204
-13.4375 -2.2793 0.15839999999999999 90
-6.167999999999999 -1.0469 -0.9478 97
-13.5547 -2.3008 0.47850000000000004 23
-6.1797 -1.0488 -0.8008 40
-13.5625 -2.3008 0.7979 111
-6.3672 -1.0801 -0.6738 194
-13.593800000000002 -2.3066 1.1220999999999999 233
-6.3438 -1.0762 -0.522 69
-13.5078 -2.291 1.4355000000000002 194
-7.425800000000001 -1.2598 -0.4355 132
-12.25 -2.0781 1.5928 236
-13.468800000000002 -2.2852 -0.47509999999999997 239
-12.1172 -2.0547 1.8672 24
-13.4219 -2.2773 -0.1583 248
-11.7656 -1.9971 2.0977 110
-3.5195 -0.5845 -0.6215999999999999 207
-13.4375 -2.2305 0.1583 24
-6.1602 -1.0234 -0.9458 124
-13.5703 -2.2539 0.47850000000000004 169
-6.175800000000001 -1.0254 -0.7998000000000001 87
-13.5625 -2.2539 0.7974 106
-6.292999999999999 -1.0459 -0.6659999999999999 92
-13.5625 -2.252 1.1191 249
-13.5156 -2.2441 1.4355000000000002 136
-7.644500000000001 -1.2695 -0.4482 46
-12.2578 -2.0371 1.5937999999999999 38
-13.4531 -2.2344 -0.4746 170
-12.125 -2.0137 1.8672 239
-13.4375 -2.2305 -0.1583 224
-11.7656 -1.9541 2.0957 1
-3.5664 -0.5806 -0.6299 142
-13.4297 -2.1855 0.1582 0
-6.144500000000001 -0.9995 -0.9429000000000001 141
-13.5469 -2.2031 0.4775 43
-6.1836 -1.0059 -0.8008 60
-13.5547 -2.2051 0.7964 153
-6.269500000000001 -1.0205 -0.6631 213
-13.5469 -2.2051 1.1181999999999999 230
-6.542999999999999 -1.0645 -0.5381 201
-13.5078 -2.1973 1.4336000000000002 208
-7.730499999999999 -1.2578 -0.4531 156
-12.25 -1.9922 1.5908000000000002 49
-13.4453 -2.1875 -0.4739 126
-12.1094 -1.9697 1.8643 148
-13.4297 -2.1855 -0.1582 163
-11.7656 -1.9141 2.0938 176
-3.5879000000000003 -0.5718 -0.6333 130
-13.4531 -2.1426 0.1583 163
-6.1484000000000005 -0.9790000000000001 -0.9423999999999999 170
-13.531199999999998 -2.1543 0.47659999999999997 190
-6.175800000000001 -0.9834 -0.7988 184
-13.531199999999998 -2.1562 0.7944 253
-6.2773 -1.0 -0.6636 205
-13.5156 -2.1523 1.1143 224
-13.468800000000002 -2.1445 1.4287 216
-7.738300000000001 -1.2324 -0.4534 201
-12.25 -1.9521000000000002 1.5908000000000002 47
-13.4453 -2.1406 -0.4736 24
-12.1094 -1.9287 1.8633000000000002 31
-13.4297 -2.1387 -0.15810000000000002 29
-11.773399999999999 -1.875 2.0938 228
-3.5858999999999996 -0.5576 -0.6328 143
-13.4531 -2.0918 0.1583 84
-6.1523 -0.9570000000000001 -0.9434 80
-13.4844 -2.0977 0.4746 53
-6.167999999999999 -0.9590000000000001 -0.7974 227
-13.4531 -2.0918 0.7896 51
-6.2890999999999995 -0.978 -0.6640999999999999 133
-13.4531 -2.0918 1.1084 17
-13.4453 -2.0898 1.4247999999999998 108
-12.273399999999999 -1.9082 1.5918 182
-13.468800000000002 -2.0938 -0.47409999999999997 158
-12.101600000000001 -1.8828 1.8613 143
-13.4297 -2.0879 -0.158 174
-11.7578 -1.8281 2.0898 8
-3.6464999999999996 -0.5542 -0.6431 215
-13.4453 -2.043 0.1582 224
-6.1523 -0.9351 -0.9423999999999999 93
-13.4375 -2.043 0.4729 174
-6.175800000000001 -0.9384999999999999 -0.7979 86
-13.4375 -2.041 0.7881 17
-6.261699999999999 -0.9517 -0.6611 66
-13.4453 -2.043 1.1074 68
-13.4531 -2.0449 1.4258000000000002 18
-13.4219 -2.0391 -0.7870999999999999 63
-12.273399999999999 -1.8652000000000002 1.5918 162
-13.468800000000002 -2.0469 -0.4739 200
-12.1172 -1.8408000000000002 1.8613 192
-13.4297 -2.041 -0.158 247
-11.75 -1.7861000000000002 2.0879 37
-3.6483999999999996 -0.5415 -0.6431 9
-13.4375 -1.9941 0.158 31
-6.1484000000000005 -0.9126000000000001 -0.9414 236
-13.4375 -1.9941 0.4727 153
-6.1797 -0.917 -0.7983 26
-13.4375 -1.9941 0.7881 197
-6.2578 -0.9281999999999999 -0.6602 60
-13.4375 -1.9941 1.1064 22
-13.4453 -1.9950999999999999 1.4238 93
-13.460899999999999 -1.9980000000000002 -0.7890999999999999 164
-12.2656 -1.8203 1.5897999999999999 177
-13.4531 -1.9961000000000002 -0.4731 56
-12.1172 -1.7978999999999998 1.8613 13
-13.4375 -1.9931999999999999 -0.158 1
-11.75 -1.7431999999999999 2.0879 56
-13.4297 -1.9443000000000001 0.1577 115
-6.1562 -0.8916 -0.9419 65
-13.4297 -1.9443000000000001 0.4722 253
-6.1797 -0.895 -0.7979 195
-13.4375 -1.9463 0.7876000000000001 238
-6.2578 -0.9057999999999999 -0.6597 115
-13.4219 -1.9434 1.1045 42
-13.4531 -1.9491999999999998 1.4247999999999998 126
-13.5703 -1.9658000000000002 -0.7954000000000001 166
-12.273399999999999 -1.7772999999999999 1.5897999999999999 233
-13.4453 -1.9463 -0.47240000000000004 192
-12.1094 -1.7529 1.8584 129
-13.4375 -1.9463 -0.1578 94
-11.773399999999999 -1.7041 2.0898 247
-13.460899999999999 -1.9013999999999998 0.15810000000000002 245
-6.1562 -0.8695999999999999 -0.9419 159
-13.4219 -1.8955000000000002 0.4717 190
-6.1836 -0.8734999999999999 -0.7979 57
-13.4531 -1.8994 0.7876000000000001 1
-6.2734000000000005 -0.8862000000000001 -0.6611 159
-13.4375 -1.8984 1.1045 85
-13.4297 -1.8975 1.4209 78
-13.4453 -1.8984 -0.7870999999999999 122
-12.281199999999998 -1.7353999999999998 1.5897999999999999 124
-12.1094 -1.71 1.8574000000000002 151
-13.4297 -1.8965 -0.1577 123
-11.7578 -1.6611000000000002 2.0859 128
-13.4531 -1.8525 0.1578 136
-6.1640999999999995 -0.8486 -0.9423999999999999 201
-13.4297 -1.8496000000000001 0.4717 234
-6.167999999999999 -0.8491 -0.7954000000000001 191
-13.4375 -1.8506 0.7866 75
-6.269500000000001 -0.8633 -0.6606000000000001 199
-13.4375 -1.8506 1.1045 194
-6.894500000000001 -0.9492 -0.5649000000000001 29
-13.4375 -1.8506 1.4209 171
-13.414100000000001 -1.8477000000000001 -0.7852 161
-12.281199999999998 -1.6904 1.5888999999999998 223
-12.101600000000001 -1.666 1.8563999999999998 233
-13.4219 -1.8477000000000001 -0.1575 54
-11.7578 -1.6181999999999999 2.084 32
-3.7266000000000004 -0.5005 -0.6557999999999999 79
-13.4531 -1.8066 0.1578 59
-6.203099999999999 -0.833 -0.9478 183
-13.4453 -1.8056999999999999 0.4719 30
-6.1797 -0.8301000000000001 -0.7968999999999999 7
-13.4219 -1.8027000000000002 0.7856000000000001 82
-6.269500000000001 -0.8418000000000001 -0.6602 171
-13.4453 -1.8056999999999999 1.1045 195
-6.9414 -0.9326000000000001 -0.5684 17
-12.5078 -1.6806999999999999 1.3222999999999998 113
-13.406199999999998 -1.8008000000000002 -0.7842 10
-12.2656 -1.6475 1.5869 59
-13.4453 -1.8066 -0.4722 106
-12.1172 -1.6269999999999998 1.8574000000000002 36
-13.4297 -1.8047 -0.1576 68
-11.7422 -1.5771000000000002 2.082 182
-13.4375 -1.7597999999999998 0.1576 16
-6.1797 -0.8096 -0.9438 182
-13.4453 -1.7607 0.4717 84
-6.1914 -0.8105 -0.7979 45
-12.5078 -1.6377000000000002 0.7314 0
-6.265599999999999 -0.8203 -0.6597 210
-12.5 -1.6366999999999998 1.0264 72
-7.199199999999999 -0.9423999999999999 -0.5893999999999999 51
-12.523399999999999 -1.6396000000000002 1.3222999999999998 58
-13.4219 -1.7578 -0.7852 106
-12.2656 -1.6055000000000001 1.5859 184
-13.4531 -1.7616999999999998 -0.4719 203
-12.1172 -1.5869 1.8574000000000002 43
-13.4297 -1.7588 -0.1575 45
-11.75 -1.5381 2.082 43
-12.5 -1.5878999999999999 0.1465 10
-6.175800000000001 -0.7847 -0.9429000000000001 230
-12.5078 -1.5888999999999998 0.4385 230
-6.1953 -0.7870999999999999 -0.7979 149
-12.5078 -1.5888999999999998 0.731 66
-6.265599999999999 -0.7959 -0.6592 251
-12.5 -1.5878999999999999 1.0254 239
-7.238300000000001 -0.9194 -0.5922999999999999 154
-12.4375 -1.5800999999999998 1.3135 42
-13.4297 -1.7061000000000002 -0.7852 234
-12.2578 -1.5566 1.584 18
-12.5078 -1.5888999999999998 -0.4385 255
-12.0547 -1.5312000000000001 1.8466999999999998 205
-12.5 -1.5878999999999999 -0.1464 97
-11.7656 -1.4941 2.084 217
-3.8574 -0.4763 -0.6777 30
-12.5156 -1.5449000000000002 0.1465 249
-6.1562 -0.7603 -0.9395 185
-12.4844 -1.5419999999999998 0.4375 224
-6.1836 -0.7637 -0.7959 13
-12.460899999999999 -1.5381 0.7275 233
-6.2773 -0.7748999999999999 -0.6602 67
-12.4297 -1.5352000000000001 1.0195 56
-7.332000000000001 -0.9053 -0.5996 64
-12.343800000000002 -1.5244 1.3027000000000002 31
-12.5078 -1.5449000000000002 -0.7304999999999999 142
-12.2656 -1.5146000000000002 1.585 83
-12.5156 -1.5459 -0.4385 162
-11.875 -1.4658000000000002 1.8174000000000001 158
-12.4844 -1.5419999999999998 -0.1462 87
-11.7656 -1.4521000000000002 2.082 98
-3.8574 -0.46340000000000003 -0.6777 92
-12.4922 -1.501 0.1462 207
-6.1640999999999995 -0.7406999999999999 -0.9404 145
-12.351600000000001 -1.4844 0.4326 189
-6.1875 -0.7432 -0.7959 135
-12.3281 -1.4813999999999998 0.7197 204
-6.296900000000001 -0.7563 -0.6620999999999999 147
-12.3594 -1.4844 1.0127 241
-12.3125 -1.4785 1.2988 138
-12.4922 -1.501 -0.7295 93
-12.273399999999999 -1.4746000000000001 1.585 116
-11.8828 -1.4268 1.8184 131
-12.3203 -1.4794999999999998 -0.1442 123
-11.75 -1.4121000000000001 2.0801 210
-3.8983999999999996 -0.45530000000000004 -0.6846 56
-12.375 -1.4453 0.1448 218
-6.1602 -0.7192000000000001 -0.9390000000000001 207
-12.2969 -1.4355000000000002 0.4304 37
-6.1914 -0.7231000000000001 -0.7964 91
-12.2969 -1.4355000000000002 0.7173 224
-6.2812 -0.7334 -0.6602 45
-12.343800000000002 -1.4413999999999998 1.0117 225
-12.3047 -1.4365 1.2969 159
-12.351600000000001 -1.4424000000000001 -0.7206999999999999 120
-12.2578 -1.4316 1.5819999999999999 17
-12.335899999999999 -1.4404 -0.43189999999999995 227
-11.8906 -1.3887 1.8184 250
-12.281199999999998 -1.4336000000000002 -0.1437 51
-11.7422 -1.3711000000000002 2.0762 23
-6.25 -0.7065 -1.1016 245
-12.335899999999999 -1.3944999999999999 0.14429999999999998 38
-6.1562 -0.6962999999999999 -0.9384999999999999 11
-12.3047 -1.3906 0.4304 192
-6.203099999999999 -0.7012 -0.7974 204
-12.281199999999998 -1.3887 0.7162999999999999 205
-6.2812 -0.7104 -0.6602 189
-12.2969 -1.3906 1.0078 145
-12.2969 -1.3896000000000002 1.2959 110
-12.2969 -1.3906 -0.7173 117
-12.2578 -1.3857 1.5811000000000002 250
-12.3125 -1.3925999999999998 -0.43090000000000006 78
-12.031199999999998 -1.3603999999999998 1.8397999999999999 155
-12.289100000000001 -1.3896000000000002 -0.1437 45
-11.75 -1.3291 2.0781 121
-6.203099999999999 -0.6792 -1.0928 24
-12.3047 -1.3477000000000001 0.1439 45
-6.140599999999999 -0.6729 -0.9355 25
-12.273399999999999 -1.3447 0.4294 210
-6.2109000000000005 -0.6801999999999999 -0.7979 42
-12.2969 -1.3466999999999998 0.7173 96
-6.296900000000001 -0.6895 -0.6611 148
-12.3125 -1.3486000000000002 1.0078 90
-7.2461 -0.7935 -0.5918 197
-12.335899999999999 -1.3516 1.2997999999999998 48
-12.2969 -1.3466999999999998 -0.7168000000000001 241
-12.2578 -1.3428 1.5811000000000002 116
-12.281199999999998 -1.3447 -0.42969999999999997 242
-12.1094 -1.3262 1.8516 209
-12.281199999999998 -1.3447 -0.1436 12
-11.7422 -1.2861000000000002 2.0762 22
-6.2539 -0.6626000000000001 -1.1016 0
-12.335899999999999 -1.3066 0.1442 225
-6.1562 -0.6523 -0.9375 122
-12.3047 -1.3037 0.4302 76
-6.1953 -0.6567000000000001 -0.7959 95
-12.3281 -1.3066 0.7182999999999999 148
-6.3125 -0.6689 -0.6626000000000001 121
-12.3594 -1.3105000000000002 1.0117 19
-7.113300000000001 -0.7539 -0.5806 62
-12.351600000000001 -1.3086000000000002 1.3008000000000002 17
-12.2969 -1.3037 -0.7168000000000001 64
-12.2656 -1.2997999999999998 1.5811000000000002 219
-12.289100000000001 -1.3027000000000002 -0.4299 96
-12.093800000000002 -1.2822 1.8477000000000001 152
-12.281199999999998 -1.3018 -0.1436 198
-11.7578 -1.2461 2.0781 162
-6.2422 -0.6392 -1.0986 124
-12.351600000000001 -1.2656 0.14429999999999998 97
-6.1640999999999995 -0.6313 -0.938 67
-12.3047 -1.2607 0.4302 244
-6.199199999999999 -0.6353 -0.7959 160
-12.351600000000001 -1.2656 0.7197 145
-6.324199999999999 -0.6479 -0.6636 14
-12.398399999999999 -1.2705 1.0146 78
-7.1797 -0.7354 -0.5859000000000001 50
-12.414100000000001 -1.2715 1.3066 85
-12.273399999999999 -1.2578 -0.7153 28
-12.273399999999999 -1.2568000000000001 1.5811000000000002 139
-12.2969 -1.2598 -0.4299 98
-12.101600000000001 -1.2402 1.8486000000000002 105
-12.281199999999998 -1.2578 -0.1434 48
-11.7578 -1.2041 2.0762 85
-6.2539 -0.6187 -1.1006 98
-12.3828 -1.2256 0.1447 127
-6.1640999999999995 -0.6099 -0.938 8
-12.343800000000002 -1.2217 0.4314 112
-6.199199999999999 -0.6133 -0.7959 168
-12.406199999999998 -1.2275 0.7227 80
-6.3359000000000005 -0.627 -0.6646 188
-12.4922 -1.2363 1.0215 252
-7.2227 -0.7148 -0.5893999999999999 32
-12.4922 -1.2363 1.3154 238
-12.2969 -1.2168 -0.7162999999999999 206
-12.4531 -1.2324 1.6044999999999998 8
-12.335899999999999 -1.2197 -0.43090000000000006 162
-12.101600000000001 -1.1973 1.8477000000000001 175
-12.3281 -1.2197 -0.1439 204
-11.7344 -1.1611 2.0723 146
-6.2422 -0.5952000000000001 -1.0977 161
-12.476600000000001 -1.1904000000000001 0.1458 126
-6.1562 -0.5874 -0.9365000000000001 34
-12.4844 -1.1904000000000001 0.436 115
-6.2109000000000005 -0.5922999999999999 -0.7968999999999999 207
-12.5 -1.1924 0.728 48
-6.3203 -0.603 -0.6626000000000001 190
-12.5 -1.1924 1.0225 169
-7.292999999999999 -0.6958 -0.5947 193
-12.5 -1.1924 1.3154 62
-12.3594 -1.1787 -0.7197 41
-12.343800000000002 -1.1777 1.5897999999999999 179
-12.3906 -1.1826 -0.4329 65
-12.1094 -1.1553 1.8486000000000002 198
-12.406199999999998 -1.1836 -0.1449 189
-11.726600000000001 -1.1191 2.0703 196
-6.261699999999999 -0.5757 -1.1016 228
-12.5078 -1.1494 0.146 47
-6.1484000000000005 -0.5649000000000001 -0.9351 54
-12.4844 -1.1475 0.436 131
-6.2188 -0.5718 -0.7979 210
-12.4922 -1.1475 0.7271 68
-6.3515999999999995 -0.5835 -0.6659999999999999 139
-12.4844 -1.1465 1.0205 228
-7.3125 -0.6718999999999999 -0.5962 104
-12.5 -1.1484 1.3154 213
-12.4531 -1.1445 -0.7251000000000001 242
-12.468800000000002 -1.1465 1.6055000000000001 221
-12.476600000000001 -1.1465 -0.43579999999999997 88
-12.226600000000001 -1.123 1.8662 200
-12.4922 -1.1475 -0.1458 93
-11.7422 -1.0791 2.0723 86
-6.296900000000001 -0.5562 -1.1074 43
-12.5 -1.1045 0.1459 105
-6.1602 -0.5444 -0.9365000000000001 154
-12.4844 -1.1035 0.436 230
-6.2148 -0.5493 -0.7968999999999999 204
-12.4922 -1.1035 0.7271 198
-6.375 -0.5635 -0.6679999999999999 88
-12.4922 -1.1035 1.0205 173
-7.3438 -0.6489 -0.5986 36
-12.4844 -1.1035 1.3135 168
-12.4844 -1.1035 -0.7265999999999999 112
-12.4922 -1.1035 1.6074000000000002 136
-12.5 -1.1045 -0.4365 82
-12.343800000000002 -1.0908 1.8828 196
-12.4922 -1.1035 -0.1458 236
-11.75 -1.0381 2.0723 121
-6.328099999999999 -0.5390999999999999 -1.1123 82
-12.5 -1.0645 0.1458 19
-6.175800000000001 -0.5259 -0.9384999999999999 201
-12.4922 -1.0645 0.436 164
-6.2109000000000005 -0.5293 -0.7964 51
-12.4922 -1.0645 0.7265999999999999 230
-6.3984000000000005 -0.5449 -0.6704000000000001 12
-12.5 -1.0654000000000001 1.0215 119
-7.3789 -0.6289 -0.6015999999999999 156
-12.468800000000002 -1.0625 1.3105000000000002 83
-12.468800000000002 -1.0625 -0.7256 39
-12.4844 -1.0635 1.6055000000000001 97
-12.5078 -1.0654000000000001 -0.4365 133
-12.3281 -1.0508 1.8799000000000001 142
-12.4844 -1.0635 -0.1456 181
-11.7344 -1.0 2.0703 68
-12.5 -1.0234 0.1458 227
-6.1797 -0.5059 -0.9390000000000001 20
-12.476600000000001 -1.0215 0.4353 253
-6.2265999999999995 -0.5097999999999999 -0.7983 155
-12.4531 -1.0195 0.7241 4
-6.421900000000001 -0.5259 -0.6729 228
-12.4453 -1.0195 1.0166 175
-12.5 -1.0234 -1.0205 61
-12.4531 -1.0195 1.3086000000000002 206
-12.468800000000002 -1.0205 -0.7256 185
-12.4297 -1.0176 1.5986000000000002 180
-12.5 -1.0234 -0.4363 47
-12.335899999999999 -1.0098 1.8809 25
-12.460899999999999 -1.0195 -0.14529999999999998 161
-11.718800000000002 -0.9595 2.0664 252
-6.144500000000001 -0.47950000000000004 -1.0801 18
-12.4297 -0.9697 0.1449 21
-6.1797 -0.48219999999999996 -0.9390000000000001 109
-12.4531 -0.9712000000000001 0.4343 253
-12.476600000000001 -0.9727 0.7251000000000001 42
-6.425800000000001 -0.5015 -0.6729 196
-12.476600000000001 -0.9731000000000001 1.0186 67
-12.468800000000002 -0.9727 -1.0186 59
-12.4922 -0.9741 1.3125 235
-12.4453 -0.9706999999999999 -0.7236 50
-12.460899999999999 -0.9722 1.6025 246
-12.4531 -0.9712000000000001 -0.4343 79
-12.343800000000002 -0.9623999999999999 1.8809 250
-12.4297 -0.9697 -0.1449 232
-11.7422 -0.9159999999999999 2.0703 46
-6.1523 -0.4583 -1.0801 88
-12.5 -0.9312 0.1456 1
-6.1797 -0.4604 -0.9384999999999999 125
-12.4844 -0.9301999999999999 0.4355 105
-12.4844 -0.9301999999999999 0.7261 171
-6.4648 -0.4814 -0.6768000000000001 127
-12.476600000000001 -0.9292 1.0186 59
-12.4531 -0.9272 -1.0166 252
-12.5 -0.9307 1.3125 0
-12.468800000000002 -0.9287000000000001 -0.7245999999999999 251
-12.468800000000002 -0.9287000000000001 1.6025 24
-12.4844 -0.9301999999999999 -0.4355 23
-12.335899999999999 -0.9185 1.8788999999999998 89
-12.5 -0.9307 -0.1456 87
-11.7422 -0.8745 2.0684 183
-6.1562 -0.43700000000000006 -1.0811 17
-12.4922 -0.8867 0.14550000000000002 255
-6.1914 -0.4395 -0.9399 190
-12.476600000000001 -0.8856999999999999 0.4351 89
-6.2461 -0.4434 -0.8003 136
-12.4922 -0.8867 0.7261 230
-6.488300000000001 -0.4607 -0.6792 208
-12.476600000000001 -0.8856999999999999 1.0186 160
-12.476600000000001 -0.8853 -1.0176 46
-12.476600000000001 -0.8856999999999999 1.3105000000000002 204
-12.476600000000001 -0.8853 -0.7251000000000001 11
-12.4844 -0.8856999999999999 1.6044999999999998 85
-12.4922 -0.8867 -0.4355 68
-12.335899999999999 -0.8755 1.8788999999999998 27
-12.4844 -0.8862000000000001 -0.14550000000000002 140
-11.7422 -0.8334999999999999 2.0684 103
-6.1523 -0.415 -1.0801 253
-12.5078 -0.8442000000000001 0.1458 46
-6.199199999999999 -0.4182 -0.9409000000000001 80
-12.4844 -0.8423 0.4351 59
-6.2422 -0.4211 -0.7988 146
-12.4922 -0.8428 0.7256 3
-6.5039 -0.4387 -0.6807 8
-12.5 -0.8432999999999999 1.0195 196
-12.468800000000002 -0.8412999999999999 -1.0176 198
-12.476600000000001 -0.8418000000000001 1.3096 110
-12.476600000000001 -0.8418000000000001 -0.7245999999999999 196
-12.4844 -0.8423 1.6035 19
-12.5 -0.8438 -0.43579999999999997 149
-12.4297 -0.8389 1.8936000000000002 137
-12.476600000000001 -0.8418000000000001 -0.14529999999999998 53
-11.773399999999999 -0.7944 2.0723 151
-6.1523 -0.3936 -1.0801 170
-12.5 -0.7993000000000001 0.14550000000000002 33
-6.203099999999999 -0.3967 -0.9414 119
-12.4922 -0.7988 0.4353 193
-6.25 -0.3997 -0.8003 217
-12.4844 -0.7983 0.7251000000000001 81
-6.5273 -0.4177 -0.6831 248
-12.4922 -0.7993000000000001 1.0186 205
-12.4844 -0.7983 -1.0186 240
-12.476600000000001 -0.7979 1.3096 8
-12.476600000000001 -0.7983 -0.7251000000000001 146
-12.468800000000002 -0.7979 1.6016 129
-12.4922 -0.7988 -0.4353 69
-12.4297 -0.7948999999999999 1.8925999999999998 31
-12.476600000000001 -0.7979 -0.14529999999999998 183
-12.25 -0.7837000000000001 2.1582 182
-6.1562 -0.37229999999999996 -1.0801 36
-12.468800000000002 -0.7539 0.1451 124
-6.199199999999999 -0.375 -0.9409000000000001 81
-12.4922 -0.7554000000000001 0.4353 150
-6.25 -0.3779 -0.7998000000000001 0
-12.4844 -0.7548999999999999 0.7251000000000001 104
-6.5586 -0.39649999999999996 -0.6859999999999999 40
-12.476600000000001 -0.7544 1.0176 28
-12.4844 -0.7548999999999999 -1.0176 45
-12.4922 -0.7554000000000001 1.3105000000000002 222
-12.476600000000001 -0.7544 -0.7245999999999999 91
-12.460899999999999 -0.7534000000000001 1.6006 229
-12.476600000000001 -0.7544 -0.43479999999999996 35
-12.4453 -0.7529 1.8955000000000002 228
-12.4844 -0.7548999999999999 -0.1454 119
-10.2031 -0.6167 1.7938999999999998 180
-6.175800000000001 -0.3538 -1.083 213
-12.4844 -0.7158 0.1454 24
-6.207000000000001 -0.3557 -0.9414 180
-12.4844 -0.7153 0.43479999999999996 62
-6.2422 -0.3577 -0.7983 74
-12.4922 -0.7158 0.7256 187
-6.5859000000000005 -0.3774 -0.6890000000000001 99
-12.476600000000001 -0.7148 1.0166 254
-12.468800000000002 -0.7148 -1.0166 108
-12.5 -0.7162999999999999 1.3115 72
-12.476600000000001 -0.7153 -0.7245999999999999 82
-12.468800000000002 -0.7148 1.6016 41
-12.468800000000002 -0.7148 -0.4343 10
-12.468800000000002 -0.7148 1.8984 91
-12.476600000000001 -0.7148 -0.14529999999999998 251
-10.2109 -0.585 1.7959 208
-6.1836 -0.3337 -1.085 29
-12.4922 -0.6743000000000001 0.1454 190
-6.2148 -0.3354 -0.9423999999999999 189
-12.476600000000001 -0.6733 0.4346 176
-6.234400000000001 -0.3367 -0.7979 164
-12.4922 -0.6743000000000001 0.7251000000000001 169
-6.6328 -0.3582 -0.6938 178
-12.4844 -0.6743000000000001 1.0176 217
-12.460899999999999 -0.6729 -1.0156 234
-12.4844 -0.6743000000000001 1.3096 174
-12.4844 -0.6738 -0.7245999999999999 238
-12.476600000000001 -0.6733 1.6016 200
-12.4844 -0.6738 -0.43479999999999996 77
-12.4531 -0.6724 1.8955000000000002 97
-12.476600000000001 -0.6733 -0.1451 234
-12.3906 -0.6689 2.1816 249
-6.171900000000001 -0.30829999999999996 -1.082 63
-12.5 -0.6245 0.1454 245
-6.2265999999999995 -0.311 -0.9443 137
-12.476600000000001 -0.623 0.4343 135
-6.2422 -0.3118 -0.7983 131
-12.4844 -0.6235 0.7245999999999999 238
-6.6797 -0.3337 -0.6981999999999999 177
-12.4844 -0.624 1.0176 78
-12.468800000000002 -0.623 -1.0156 34
-12.468800000000002 -0.623 1.3075999999999999 78
-12.476600000000001 -0.623 -0.7241 32
-12.476600000000001 -0.6235 1.6016 130
-12.4922 -0.624 -0.4351 238
-12.468800000000002 -0.623 1.8975 108
-12.468800000000002 -0.6225999999999999 -0.145 176
-10.2422 -0.5117 1.8008000000000002 90
-6.167999999999999 -0.2854 -1.0811 22
-12.476600000000001 -0.5776 0.1451 232
-6.234400000000001 -0.28859999999999997 -0.9453 153
-12.4844 -0.5776 0.4346 164
-12.468800000000002 -0.5771000000000001 0.7236 183
-6.7109000000000005 -0.3105 -0.7017 215
-12.476600000000001 -0.5776 1.0166 38
-12.4844 -0.5776 -1.0166 28
-12.4844 -0.5781000000000001 1.3096 37
-12.460899999999999 -0.5767 -0.7231000000000001 238
-12.468800000000002 -0.5771000000000001 1.6006 246
-12.4922 -0.5781000000000001 -0.43479999999999996 22
-12.468800000000002 -0.5771000000000001 1.8965 1
-12.476600000000001 -0.5776 -0.1451 127
-12.3594 -0.5722999999999999 2.1738 81
-6.1836 -0.26780000000000004 -1.084 233
-12.460899999999999 -0.54 0.145 141
-6.2265999999999995 -0.2698 -0.9438 229
-12.4844 -0.541 0.4346 248
-6.3398 -0.2747 -0.8109999999999999 255
-12.4844 -0.5405 0.7245999999999999 155
-6.730499999999999 -0.2915 -0.7031000000000001 103
-12.476600000000001 -0.5405 1.0166 217
-12.4844 -0.541 -1.0176 74
-12.4844 -0.541 1.3096 199
-12.468800000000002 -0.54 -0.7236 52
-12.460899999999999 -0.5396 1.5986000000000002 123
-12.4844 -0.5405 -0.4346 179
-12.476600000000001 -0.5405 1.8984 143
-12.4844 -0.5405 -0.14529999999999998 104
-12.3594 -0.5352 2.1738 50
-6.1953 -0.24780000000000002 -1.0859 232
-12.476600000000001 -0.4988 0.1451 83
-6.230499999999999 -0.2491 -0.9443 219
-12.468800000000002 -0.4988 0.4341 40
-6.3711 -0.25489999999999996 -0.8149 57
-12.4844 -0.4993 0.7241 94
-6.7773 -0.271 -0.7084999999999999 20
-12.468800000000002 -0.4985 1.0156 9
-12.476600000000001 -0.499 -1.0166 31
-12.4922 -0.49950000000000006 1.3096 243
-12.476600000000001 -0.499 -0.7236 86
-12.468800000000002 -0.4985 1.5996000000000001 116
-12.4844 -0.4993 -0.4346 106
-12.476600000000001 -0.4988 1.8975 209
-12.4922 -0.49950000000000006 -0.14529999999999998 97
-12.3906 -0.4954 2.1777 109
-6.207000000000001 -0.2255 -1.0879 121
-12.4922 -0.4536 0.14529999999999998 254
-6.2539 -0.22719999999999999 -0.9478 61
-12.468800000000002 -0.45289999999999997 0.4338 193
-6.386699999999999 -0.23190000000000002 -0.8169 196
-12.476600000000001 -0.4531 0.7236 154
-6.8203 -0.24780000000000002 -0.7129000000000001 226
-12.476600000000001 -0.4531 1.0156 163
-12.468800000000002 -0.4526 -1.0156 233
-12.476600000000001 -0.4531 1.3075999999999999 190
-12.4844 -0.4534 -0.7241 23
-12.468800000000002 -0.45289999999999997 1.5996000000000001 186
-12.4844 -0.4536 -0.4346 216
-12.460899999999999 -0.4526 1.8944999999999999 135
-12.476600000000001 -0.45289999999999997 -0.145 119
-12.3828 -0.4497 2.1777 138
-6.203099999999999 -0.2036 -1.0869 64
-12.4922 -0.40990000000000004 0.14529999999999998 84
-6.261699999999999 -0.20559999999999998 -0.9487000000000001 32
-12.468800000000002 -0.4092 0.4338 97
-6.355499999999999 -0.2086 -0.8125 226
-12.476600000000001 -0.4097 0.7236 186
-6.9023 -0.2266 -0.7212000000000001 172
-12.476600000000001 -0.4094 1.0156 22
-12.476600000000001 -0.4094 -1.0156 161
-12.476600000000001 -0.4094 1.3075999999999999 49
-12.468800000000002 -0.4094 -0.7231000000000001 126
-12.476600000000001 -0.4094 1.5996000000000001 224
-12.4922 -0.4102 -0.43479999999999996 107
-12.476600000000001 -0.4094 1.8965 202
-12.4531 -0.4089 -0.1449 5
-10.0234 -0.3289 1.7607 237
-6.207000000000001 -0.18100000000000002 -1.0879 68
-12.4844 -0.364 0.1451 44
-6.2773 -0.18309999999999998 -0.9512 16
-12.476600000000001 -0.3638 0.4338 222
-6.4336 -0.18760000000000002 -0.8228 10
-12.468800000000002 -0.3635 0.7231000000000001 121
-6.9336 -0.2021 -0.7245999999999999 25
-12.4844 -0.364 1.0166 49
-12.476600000000001 -0.3638 -1.0156 93
-12.476600000000001 -0.3638 1.3075999999999999 71
-12.460899999999999 -0.36329999999999996 -0.7227 198
-12.460899999999999 -0.36329999999999996 1.5986000000000002 213
-12.5 -0.3643 -0.43479999999999996 208
-12.460899999999999 -0.36329999999999996 1.8944999999999999 90
-12.468800000000002 -0.3635 -0.1449 45
-10.0391 -0.2927 1.7637 144
-6.2148 -0.1595 -1.0889 39
-12.476600000000001 -0.32030000000000003 0.1451 156
-6.3047 -0.1617 -0.9551000000000001 221
-12.476600000000001 -0.32030000000000003 0.4341 220
-6.4648 -0.1659 -0.8267 246
-12.468800000000002 -0.3201 0.7231000000000001 218
-6.9648 -0.1787 -0.7275 74
-12.460899999999999 -0.31980000000000003 1.0146 207
-12.476600000000001 -0.32030000000000003 -1.0156 187
-12.4922 -0.3206 1.3096 196
-12.468800000000002 -0.31980000000000003 -0.7231000000000001 113
-12.460899999999999 -0.3196 1.5977000000000001 54
-12.468800000000002 -0.3201 -0.4338 159
-12.476600000000001 -0.32030000000000003 1.8975 253
-12.476600000000001 -0.32030000000000003 -0.1451 83
-12.3672 -0.31739999999999996 2.1738 193
-6.234400000000001 -0.1393 -1.0918 106
-12.476600000000001 -0.2788 0.145 59
-6.3086 -0.141 -0.9561 156
-12.468800000000002 -0.2786 0.4336 113
-6.4765999999999995 -0.1448 -0.8276 242
-12.476600000000001 -0.2788 0.7236 174
-7.0312 -0.15710000000000002 -0.7349 250
-12.468800000000002 -0.2786 1.0146 32
-12.468800000000002 -0.2786 -1.0156 196
-12.4922 -0.2791 1.3086000000000002 201
-12.468800000000002 -0.2786 -0.7231000000000001 126
-12.4453 -0.2781 1.5957 70
-12.468800000000002 -0.2786 -0.4338 200
-12.460899999999999 -0.2783 1.8936000000000002 31
-12.468800000000002 -0.2786 -0.1449 135
-12.375 -0.2764 2.1738 57
-6.261699999999999 -0.1191 -1.0967 93
-12.4844 -0.23739999999999997 0.1451 99
-6.332000000000001 -0.12050000000000001 -0.9595 208
-12.460899999999999 -0.2371 0.43329999999999996 60
-6.5039 -0.12380000000000001 -0.8315 141
-12.476600000000001 -0.23739999999999997 0.7236 221
-12.468800000000002 -0.2373 -1.3066 159
-12.460899999999999 -0.2371 1.0146 159
-12.468800000000002 -0.2372 -1.0146 136
-12.4844 -0.2375 1.3075999999999999 128
-12.468800000000002 -0.2373 -0.7231000000000001 45
-12.460899999999999 -0.2371 1.5977000000000001 219
-12.468800000000002 -0.2372 -0.4336 146
-12.4453 -0.2368 1.8916 51
-12.468800000000002 -0.2372 -0.1449 137
-12.3828 -0.23559999999999998 2.1758 183
-6.265599999999999 -0.09630000000000001 -1.0977 171
-12.4922 -0.19190000000000002 0.1451 100
-6.375 -0.09789999999999999 -0.9653 59
-12.460899999999999 -0.19140000000000001 0.43329999999999996 111
-6.5390999999999995 -0.1005 -0.8359000000000001 106
-12.468800000000002 -0.19149999999999998 0.7227 214
-12.476600000000001 -0.1917 -1.3066 57
-12.476600000000001 -0.19149999999999998 1.0156 141
-12.468800000000002 -0.19149999999999998 -1.0146 100
-12.468800000000002 -0.19149999999999998 1.3066 213
-12.468800000000002 -0.19149999999999998 -0.7227 90
-12.4531 -0.1913 1.5966999999999998 22
-12.476600000000001 -0.1917 -0.4338 115
-12.4531 -0.1913 1.8936000000000002 161
-12.4531 -0.1913 -0.1448 226
-12.3828 -0.1902 2.1758 153
-6.2890999999999995 -0.0746 -1.1016 209
-12.476600000000001 -0.1481 0.145 164
-6.390599999999999 -0.0759 -0.9678 25
-12.476600000000001 -0.1481 0.4338 109
-6.582000000000001 -0.0781 -0.8412999999999999 110
-12.468800000000002 -0.1479 0.7227 99
-12.460899999999999 -0.1479 -1.3056999999999999 46
-12.4844 -0.1482 1.0156 177
-12.468800000000002 -0.1479 -1.0146 218
-12.4844 -0.1482 1.3075999999999999 82
-12.468800000000002 -0.1479 -0.7227 246
-12.4531 -0.1478 1.5966999999999998 209
-12.4844 -0.1482 -0.4341 72
-12.460899999999999 -0.1479 1.8944999999999999 238
-12.460899999999999 -0.1479 -0.1449 242
-12.3672 -0.1469 2.1738 159
-6.3125 -0.054000000000000006 -1.1055 147
-12.468800000000002 -0.1066 0.1449 180
-6.3984000000000005 -0.0547 -0.9692000000000001 207
-12.476600000000001 -0.1067 0.4338 82
-6.6484000000000005 -0.056900000000000006 -0.8495999999999999 111
-12.460899999999999 -0.1066 0.7222 100
-12.4531 -0.1065 -1.3047 232
-12.468800000000002 -0.1066 1.0146 213
-12.468800000000002 -0.1066 -1.0146 171
-12.476600000000001 -0.10679999999999999 1.3066 163
-12.460899999999999 -0.1066 -0.7222 200
-12.4375 -0.1063 1.5937999999999999 227
-12.468800000000002 -0.1067 -0.4338 173
-12.468800000000002 -0.1066 1.8944999999999999 185
-12.468800000000002 -0.1066 -0.1449 233
-12.3672 -0.1058 2.1738 252
-6.359400000000001 -0.0333 -1.1143 216
-12.468800000000002 -0.0652 0.1449 63
-6.4336 -0.0337 -0.9745999999999999 83
-12.460899999999999 -0.0652 0.43329999999999996 138
-6.6914 -0.035 -0.8554999999999999 62
-12.476600000000001 -0.0653 0.7231000000000001 236
-12.460899999999999 -0.0652 -1.3047 229
-12.460899999999999 -0.0652 1.0137 90
-12.460899999999999 -0.0652 -1.0146 77
-12.4922 -0.0654 1.3075999999999999 167
-12.460899999999999 -0.0652 -0.7227 53
-12.4453 -0.0652 1.5957 65
-12.468800000000002 -0.0653 -0.4336 125
-12.4531 -0.0652 1.8925999999999998 0
-12.476600000000001 -0.0653 -0.145 218
-12.3594 -0.0647 2.1719 149
-6.3789 -0.01 -1.1172 134
-12.460899999999999 -0.0196 0.1449 217
-6.4648 -0.0102 -0.9790000000000001 251
-12.460899999999999 -0.0196 0.43329999999999996 9
-6.7227 -0.0106 -0.8593999999999999 252
-12.468800000000002 -0.0196 0.7227 198
-12.460899999999999 -0.0196 -1.3047 141
-12.468800000000002 -0.0196 1.0146 254
-12.460899999999999 -0.0196 -1.0137 74
-12.523399999999999 -0.0197 1.3115 61
-12.460899999999999 -0.0196 -0.7222 172
-12.460899999999999 -0.0196 1.5977000000000001 142
-12.3672 -0.0194 -0.4302 48
-12.460899999999999 -0.0196 1.8936000000000002 188
-12.4531 -0.0196 -0.1448 21
-12.3828 -0.0194 2.1758 80
-6.394500000000001 0.0123 -1.1201 85
-12.476600000000001 0.024 0.145 154
-6.5234000000000005 0.0125 -0.9883 170
-12.4453 0.0239 0.4329 56
-6.7890999999999995 0.013000000000000001 -0.8682 176
-12.5156 0.024 0.7256 167
-12.476600000000001 0.024 -1.3066 224
-12.5625 0.0241 1.0225 31
-12.460899999999999 0.0239 -1.0137 6
-12.5547 0.0241 1.3144999999999998 143
-12.460899999999999 0.0239 -0.7222 165
-12.460899999999999 0.0239 1.5977000000000001 174
-12.375 0.023799999999999998 -0.4304 165
-12.460899999999999 0.0239 1.8936000000000002 254
-12.406199999999998 0.023799999999999998 -0.1442 227
-12.3672 0.023700000000000002 2.1738 251
-6.4102 0.0347 -1.123 250
-12.5156 0.0677 0.1454 45
-6.5859000000000005 0.0356 -0.998 248
-6.8477 0.037000000000000005 -0.8755 54
-12.539100000000001 0.0678 0.7265999999999999 51
-12.4531 0.0674 -1.3047 190
-12.585899999999999 0.0681 1.0244 190
-12.468800000000002 0.0674 -1.0146 226
-12.625 0.0683 1.3222999999999998 22
-12.4453 0.0674 -0.7217 190
-12.4531 0.0674 1.5966999999999998 233
-12.375 0.067 -0.4304 121
-12.460899999999999 0.0674 1.8944999999999999 9
-12.4922 0.0676 -0.14529999999999998 179
-12.3594 0.0668 2.1719 22
-6.4688 0.0576 -1.1328 238
-12.5469 0.1117 0.1458 233
-6.6562 0.0592 -1.0088 55
-12.585899999999999 0.11199999999999999 0.43770000000000003 223
-6.9375 0.0617 -0.8867 238
-12.648399999999999 0.1125 0.7329000000000001 20
-12.4531 0.1108 -1.3047 177
-12.75 0.11349999999999999 1.0381 134
-12.460899999999999 0.1109 -1.0137 22
-12.773399999999999 0.1137 1.3378999999999999 237
-12.460899999999999 0.1109 -0.7222 13
-12.4453 0.1108 1.5957 197
-12.3672 0.1101 -0.4302 197
-12.4531 0.1108 1.8925999999999998 73
-12.523399999999999 0.1115 -0.14550000000000002 130
-12.3594 0.11 2.1719 95
-6.5547 0.0812 -1.1484 37
-12.601600000000001 0.1561 0.1465 93
-6.734400000000001 0.08349999999999999 -1.0205 200
-12.664100000000001 0.157 0.4404 108
-11.210899999999999 0.1389 -1.4365 105
-12.6875 0.1572 0.7354 199
-12.4531 0.15439999999999998 -1.3047 45
-12.75 0.158 1.0381 161
-12.460899999999999 0.15439999999999998 -1.0146 64
-12.781199999999998 0.1583 1.3388999999999998 193
-12.460899999999999 0.15439999999999998 -0.7222 20
-12.4453 0.1543 1.5957 107
-12.351600000000001 0.1531 -0.42969999999999997 131
-12.4531 0.1543 1.8925999999999998 160
-12.4453 0.1543 -0.1447 106
-12.3672 0.1532 2.1738 225
-12.601600000000001 0.20010000000000003 0.1465 67
-6.886699999999999 0.1094 -1.0439 214
-12.5781 0.1997 0.43729999999999997 129
-11.1953 0.1777 -1.4346 248
-12.75 0.2025 0.7393000000000001 218
-12.460899999999999 0.1979 -1.3047 78
-12.7578 0.2026 1.0391 106
-12.4453 0.19760000000000003 -1.0127 189
-12.7578 0.2026 1.3359 242
-12.4531 0.1979 -0.7222 218
-12.4531 0.1978 1.5966999999999998 49
-12.3594 0.1963 -0.4299 131
-12.4375 0.1975 1.8906 171
-12.3828 0.1968 -0.1439 156
-12.3672 0.19640000000000002 2.1738 144
-6.921900000000001 0.1328 -1.2129 253
-12.648399999999999 0.2429 0.1471 76
-12.6797 0.2434 0.4409 61
-11.1719 0.2145 -1.4316 113
-12.75 0.24480000000000002 0.7393000000000001 71
-12.460899999999999 0.23929999999999998 -1.3047 204
-12.773399999999999 0.2452 1.04 103
-12.460899999999999 0.23929999999999998 -1.0146 245
-12.75 0.24489999999999998 1.3359 83
-12.4453 0.2389 -0.7212000000000001 30
-12.4531 0.2391 1.5966999999999998 230
-12.375 0.2377 -0.4304 101
-12.4453 0.239 1.8916 185
-12.398399999999999 0.23800000000000002 -0.14400000000000002 12
-12.3594 0.2373 2.1719 76
-12.656199999999998 0.2852 0.1472 91
-12.6797 0.2854 0.4412 115
-11.164100000000001 0.2515 -1.4306999999999999 173
-12.7422 0.2869 0.7387999999999999 251
-12.4531 0.2805 -1.3047 137
-12.7656 0.2876 1.04 83
-12.460899999999999 0.2805 -1.0146 34
-12.75 0.2871 1.3359 210
-12.4453 0.2803 -0.7212000000000001 40
-12.4531 0.2805 1.5966999999999998 188
-12.375 0.2786 -0.4304 200
-12.460899999999999 0.2808 1.8944999999999999 219
-12.398399999999999 0.2793 -0.1442 230
-12.3672 0.2783 2.1738 207
-12.6406 0.3311 0.147 107
-9.5234 0.2494 -1.4463 75
-12.5078 0.3274 0.4351 89
-11.148399999999999 0.292 -1.4287 202
-12.7344 0.3335 0.7383 248
-12.4375 0.3257 -1.3027000000000002 16
-12.7656 0.3342 1.04 210
-12.4531 0.3259 -1.0137 78
-12.7578 0.33399999999999996 1.3369 2
-12.4453 0.3259 -0.7217 71
-12.4375 0.3257 1.5947 16
-12.3828 0.32420000000000004 -0.4307 153
-12.460899999999999 0.3262 1.8936000000000002 86
-12.3828 0.32420000000000004 -0.1439 89
-12.351600000000001 0.3235 2.1719 205
-12.625 0.37479999999999997 0.1469 75
-9.5156 0.2825 -1.4453 234
-12.664100000000001 0.376 0.4407 170
-11.1328 0.33030000000000004 -1.4268 126
