# .PCD v0.7 - Point Cloud Data file format
VERSION 0.7
FIELDS x y z intensity
SIZE 4 4 4 4
TYPE F F F F
COUNT 1 1 1 1
WIDTH 1306
HEIGHT 1
VIEWPOINT 0 0 0 1 0 0 0
POINTS 1306
DATA ascii
-12.3672 2.3984 -0.7304999999999999 171
-12.3828 2.4004 1.6172 71
-12.3906 2.4004 -0.4387 215
-12.375 2.3984 1.915 207
-12.3672 2.3965 -0.1464 31
-12.2969 2.3828 2.2012 219
-12.3672 2.4395 0.1465 64
-9.0625 1.7881 -1.4022999999999999 164
-12.375 2.4414 0.4385 23
-10.5 2.0723 -1.3711000000000002 74
-12.375 2.4414 0.731 251
-12.3828 2.4414 -1.3213 28
-12.3906 2.4453 1.0283 153
-12.3828 2.4434 -1.0273 228
-12.3906 2.4434 1.3222999999999998 67
-12.3672 2.4395 -0.7304999999999999 104
-12.375 2.4414 1.6172 155
-12.406199999999998 2.4473 -0.4397 85
-12.3906 2.4453 1.9188999999999998 36
-12.3672 2.4395 -0.1465 129
-12.281199999999998 2.4219 2.1992 117
-12.3672 2.4844 0.1466 58
-9.0391 1.8163999999999998 -1.3994 229
-12.3828 2.4883 0.43920000000000003 102
-10.4922 2.1094 -1.3721 99
-12.3828 2.4883 0.7323999999999999 146
-12.375 2.4863 -1.3222999999999998 21
-12.3906 2.4902 1.0293 211
-12.375 2.4863 -1.0273 123
-12.3906 2.4902 1.3241999999999998 141
-12.375 2.4863 -0.7319 1
-12.3672 2.4844 1.6172 121
-12.3828 2.4863 -0.43920000000000003 251
-12.3828 2.4883 1.9188999999999998 96
-12.375 2.4863 -0.1467 113
-12.273399999999999 2.4668 2.2012 106
-12.3828 2.5293 0.1469 64
-9.0312 1.8457 -1.3994 119
-12.375 2.5293 0.43920000000000003 244
-10.476600000000001 2.1406 -1.3691 11
-12.3906 2.5332 0.7334 48
-12.375 2.5293 -1.3222999999999998 84
-12.375 2.5293 1.0283 74
-12.375 2.5293 -1.0283 157
-12.398399999999999 2.5332 1.3252000000000002 143
-12.375 2.5293 -0.7323999999999999 183
-12.3594 2.5273 1.6172 62
-12.3828 2.5312 -0.4395 114
-12.3672 2.5273 1.9180000000000001 84
-12.375 2.5273 -0.1467 143
-12.281199999999998 2.5098 2.2031 12
-12.3828 2.5801 0.147 240
-9.0156 1.8788999999999998 -1.3975 32
-12.3594 2.5762 0.43920000000000003 35
-10.4453 2.1758 -1.3672 148
-12.3906 2.582 0.7339 153
-12.3672 2.5781 -1.3232 242
-12.3672 2.5762 1.0283 84
-12.3594 2.5762 -1.0283 0
-12.3828 2.5801 1.3252000000000002 129
-12.3672 2.5781 -0.7323999999999999 190
-12.375 2.5781 1.6200999999999999 77
-12.3828 2.5801 -0.4399 41
-12.375 2.5781 1.9209 154
-12.3672 2.5762 -0.1469 245
-12.289100000000001 2.5605 2.2051 216
-12.398399999999999 2.6289 0.14730000000000001 58
-8.9922 1.9072 -1.3955000000000002 70
-12.3672 2.6211 0.4397 206
-10.4219 2.209 -1.3652000000000002 141
-12.3828 2.625 0.7334 6
-12.375 2.623 -1.3252000000000002 217
-12.375 2.623 1.0293 87
-12.375 2.623 -1.0293 158
-12.3906 2.627 1.3271000000000002 2
-12.3672 2.6211 -0.7329000000000001 217
-12.375 2.623 1.6221 3
-12.3828 2.625 -0.44020000000000004 209
-12.3672 2.623 1.9219 230
-12.3594 2.6191000000000004 -0.1469 137
-12.281199999999998 2.6035000000000004 2.207 71
-12.3672 2.6660000000000004 0.147 109
-8.9922 1.9394999999999998 -1.3965 255
-12.3672 2.668 0.44020000000000004 121
-10.414100000000001 2.2461 -1.3652000000000002 109
-12.3672 2.6660000000000004 0.7334 134
-12.3672 2.6660000000000004 -1.3252000000000002 31
-12.3828 2.6719 1.0312000000000001 187
-12.375 2.668 -1.0303 178
-12.3828 2.6699 1.3271000000000002 18
-12.3594 2.6660000000000004 -0.7329000000000001 63
-12.3594 2.6660000000000004 1.6211000000000002 31
-12.375 2.6699 -0.4404 120
-12.3828 2.6699 1.9247999999999998 248
-12.3594 2.6660000000000004 -0.147 38
-12.273399999999999 2.6464999999999996 2.207 85
-12.351600000000001 2.7089999999999996 0.147 213
-8.9609 1.9647999999999999 -1.3916 214
-12.3672 2.7129000000000003 0.4404 216
-10.406199999999998 2.2832 -1.3652000000000002 183
-12.3594 2.7108999999999996 0.7334 71
-12.351600000000001 2.7089999999999996 -1.3241999999999998 212
-12.375 2.7129000000000003 1.0312000000000001 238
-12.3828 2.7168 -1.0322 254
-12.3828 2.7148000000000003 1.3281 235
-12.3594 2.7108999999999996 -0.7339 27
-12.3594 2.7108999999999996 1.6221 3
-12.375 2.7148000000000003 -0.4407 236
-12.3828 2.7148000000000003 1.9268 179
-12.375 2.7129000000000003 -0.1472 146
-12.273399999999999 2.6914 2.209 113
-12.3672 2.7539 0.1472 122
-8.9375 1.9912 -1.3896000000000002 91
-12.3672 2.7558999999999996 0.4407 123
-10.398399999999999 2.3164 -1.3652000000000002 223
-12.375 2.7558999999999996 0.7349 134
-12.3594 2.7539 -1.3262 88
-12.3594 2.7539 1.0312000000000001 9
-12.3594 2.7539 -1.0303 60
-12.398399999999999 2.7617000000000003 1.3311000000000002 78
-12.3672 2.7558999999999996 -0.7343999999999999 197
-12.351600000000001 2.752 1.6221 106
-12.3672 2.7558999999999996 -0.4407 29
-12.3672 2.7558999999999996 1.9258000000000002 158
-12.375 2.7577999999999996 -0.14730000000000001 172
-12.281199999999998 2.7363 2.2109 188
-12.3672 2.7988 0.14730000000000001 66
-8.9375 2.0234 -1.3906 196
-12.3594 2.7969 0.4407 137
-10.3828 2.3496 -1.3633000000000002 62
-12.3828 2.8007999999999997 0.7358 184
-12.375 2.7988 -1.3291 22
-12.3672 2.7988 1.0322 114
-12.351600000000001 2.7949 -1.0312000000000001 24
-12.3828 2.8026999999999997 1.3300999999999998 197
-12.3672 2.7988 -0.7354 174
-12.3672 2.7988 1.625 77
-12.375 2.7988 -0.4412 118
-12.3594 2.7969 1.9268 173
-12.3594 2.7969 -0.14730000000000001 134
-12.281199999999998 2.7793 2.2129 151
-12.375 2.8476999999999997 0.1476 39
-8.9297 2.0547 -1.3906 48
-12.3594 2.8457 0.4412 87
-10.3594 2.3848 -1.3622999999999998 170
-12.375 2.8476999999999997 0.7358 73
-12.3828 2.8495999999999997 -1.3311000000000002 9
-12.375 2.8476999999999997 1.0332 37
-12.3594 2.8438 -1.0322 155
-12.3594 2.8438 1.3281 65
-12.3594 2.8457 -0.7354 208
-12.375 2.8476999999999997 1.6279 183
-12.3672 2.8457 -0.4414 6
-12.3594 2.8438 1.9277000000000002 110
-12.3594 2.8438 -0.1475 170
-12.281199999999998 2.8262 2.2148 108
-12.3594 2.8887 0.1475 184
-8.9141 2.084 -1.3887 14
-12.3672 2.8906 0.44170000000000004 163
-10.343800000000002 2.4199 -1.3613 169
-12.351600000000001 2.8887 0.7354 107
-12.3672 2.8906 -1.3300999999999998 47
-12.375 2.8926 1.0342 106
-12.351600000000001 2.8887 -1.0332 75
-12.375 2.8926 1.3311000000000002 172
-12.343800000000002 2.8867000000000003 -0.7354 194
-12.351600000000001 2.8867000000000003 1.626 145
-12.375 2.8926 -0.44189999999999996 96
-12.375 2.8945 1.9316 37
-12.3672 2.8906 -0.1476 11
-12.2656 2.8672000000000004 2.2129 76
-12.351600000000001 2.9336 0.1476 209
-8.8906 2.1113 -1.3877000000000002 235
-12.3594 2.9355 0.44189999999999996 40
-10.351600000000001 2.459 -1.3633000000000002 199
-12.3672 2.9375 0.7368000000000001 250
-12.3672 2.9355 -1.3311000000000002 36
-12.3672 2.9375 1.0342 85
-12.3594 2.9355 -1.0342 229
-12.3672 2.9375 1.3311000000000002 135
-12.351600000000001 2.9336 -0.7358 68
-12.343800000000002 2.9316000000000004 1.6269999999999998 5
-12.3594 2.9355 -0.44170000000000004 144
-12.3672 2.9375 1.9325999999999999 130
-12.3594 2.9355 -0.1477 220
-12.2578 2.9120999999999997 2.2148 204
-12.3594 2.9805 0.1477 79
-8.8828 2.1426 -1.3866999999999998 127
-12.351600000000001 2.9785000000000004 0.44189999999999996 40
-10.335899999999999 2.4922 -1.3613 32
-12.3594 2.9824 0.7373000000000001 81
-12.3672 2.9824 -1.3319999999999999 241
-12.351600000000001 2.9785000000000004 1.0342 82
-12.3594 2.9805 -1.0352 108
-12.3828 2.9863 1.334 3
-12.3672 2.9824 -0.7373000000000001 70
-12.351600000000001 2.9785000000000004 1.6288999999999998 227
-12.351600000000001 2.9785000000000004 -0.44189999999999996 134
-12.3594 2.9824 1.9325999999999999 202
-12.351600000000001 2.9785000000000004 -0.1477 117
-12.281199999999998 2.9629000000000003 2.2207 48
-12.3672 3.0254000000000003 0.1479 232
-8.8594 2.168 -1.3838 97
-12.335899999999999 3.0195 0.44189999999999996 78
-10.351600000000001 2.5332 -1.3652000000000002 80
-12.3672 3.0254000000000003 0.7378 224
-12.3672 3.0254000000000003 -1.334 214
-12.351600000000001 3.0214999999999996 1.0352 231
-12.351600000000001 3.0214999999999996 -1.0352 96
-12.3672 3.0273000000000003 1.334 18
-12.3594 3.0233999999999996 -0.7378 83
-12.351600000000001 3.0214999999999996 1.6299000000000001 152
-12.3594 3.0233999999999996 -0.4424 175
-12.343800000000002 3.0214999999999996 1.9316 35
-12.343800000000002 3.0214999999999996 -0.1477 221
-12.2656 3.002 2.2207 7
-12.375 3.0702999999999996 0.1482 109
-8.8594 2.1992 -1.3857 31
-12.351600000000001 3.0664 0.4429 71
-10.3203 2.5625 -1.3622999999999998 102
-12.3594 3.0683999999999996 0.7383 79
-12.3672 3.0702999999999996 -1.335 116
-12.3828 3.0723000000000003 1.0381 211
-12.343800000000002 3.0645 -1.0352 148
-12.3594 3.0664 1.334 143
-12.343800000000002 3.0625 -0.7373000000000001 212
-12.351600000000001 3.0664 1.6318000000000001 138
-12.3672 3.0702999999999996 -0.4434 179
-12.3594 3.0683999999999996 1.9355000000000002 161
-12.335899999999999 3.0625 -0.1478 38
-12.2578 3.043 2.2207 209
-12.3594 3.1191000000000004 0.1482 52
-8.8516 2.2324 -1.3857 76
-12.3594 3.1172000000000004 0.4434 156
-10.3203 2.6035000000000004 -1.3633000000000002 220
-12.343800000000002 3.1132999999999997 0.7378 88
-12.351600000000001 3.1172000000000004 -1.334 20
-12.375 3.1211 1.0391 16
-12.351600000000001 3.1151999999999997 -1.0371 109
-12.3672 3.1191000000000004 1.3359 109
-12.335899999999999 3.1132999999999997 -0.7378 205
-12.351600000000001 3.1172000000000004 1.6328 240
-12.3828 3.125 -0.4443 111
-12.3594 3.1191000000000004 1.9375 127
-12.3594 3.1172000000000004 -0.1481 61
-12.25 3.0898000000000003 2.2207 135
-12.343800000000002 3.1601999999999997 0.1481 185
-8.8203 2.2578 -1.3818000000000001 159
-12.3594 3.1641000000000004 0.4436 116
-10.3125 2.6387 -1.3633000000000002 142
-12.343800000000002 3.1601999999999997 0.7387999999999999 51
-12.343800000000002 3.1582 -1.334 120
-12.3594 3.1641000000000004 1.0391 124
-12.351600000000001 3.1620999999999997 -1.0381 116
-12.375 3.168 1.3378999999999999 141
-12.343800000000002 3.1601999999999997 -0.7387999999999999 53
-12.343800000000002 3.1601999999999997 1.6328 62
-12.3672 3.1660000000000004 -0.44409999999999994 20
-12.3594 3.1641000000000004 1.9394999999999998 86
-12.343800000000002 3.1601999999999997 -0.1481 197
-12.2578 3.1387 2.2246 131
-12.3594 3.207 0.1484 164
-8.8125 2.2871 -1.3809 68
-12.343800000000002 3.2031 0.4434 210
-10.289100000000001 2.6699 -1.3622999999999998 130
-12.351600000000001 3.207 0.7402 119
-12.343800000000002 3.2031 -1.3359 146
-12.343800000000002 3.2051 1.0381 136
-12.343800000000002 3.2051 -1.0381 197
-12.375 3.2108999999999996 1.3388999999999998 234
-12.343800000000002 3.2051 -0.7393000000000001 170
-12.343800000000002 3.2031 1.6347999999999998 35
-12.3594 3.207 -0.44409999999999994 246
-12.351600000000001 3.2051 1.9394999999999998 159
-12.3672 3.2089999999999996 -0.1484 212
-12.281199999999998 3.1875 2.2305 238
-12.343800000000002 3.248 0.1484 22
-8.8125 2.3184 -1.3828 86
-12.343800000000002 3.248 0.44380000000000003 89
-10.273399999999999 2.7031 -1.3613 107
-12.3594 3.25 0.7406999999999999 11
-12.343800000000002 3.2461 -1.3369 175
-12.351600000000001 3.25 1.04 20
-12.335899999999999 3.2461 -1.0381 97
-12.3594 3.252 1.3388999999999998 41
-12.343800000000002 3.248 -0.7402 184
-12.351600000000001 3.25 1.6377000000000002 6
-12.3672 3.252 -0.4446 18
-12.335899999999999 3.2461 1.9394999999999998 76
-12.3594 3.25 -0.14859999999999998 46
-12.2656 3.2266000000000004 2.2285 158
-12.3594 3.2988 0.1487 136
-8.7969 2.3496 -1.3818000000000001 167
-12.343800000000002 3.2949 0.4443 220
-10.2344 2.7324 -1.3574000000000002 183
-12.351600000000001 3.2988 0.7412000000000001 4
-12.3047 3.2851999999999997 -1.334 217
-12.343800000000002 3.2949 1.04 25
-12.351600000000001 3.2969 -1.041 193
-12.3594 3.3007999999999997 1.3397999999999999 96
-12.343800000000002 3.2949 -0.7406999999999999 151
-12.351600000000001 3.2988 1.6387 72
-12.375 3.3047000000000004 -0.4456 160
-12.343800000000002 3.2949 1.9413999999999998 229
-12.351600000000001 3.2988 -0.14859999999999998 113
-12.2578 3.2714999999999996 2.2285 90
-12.343800000000002 3.3418 0.1487 173
-8.7812 2.3789 -1.3809 9
-12.343800000000002 3.3418 0.4448 223
-10.2188 2.7676 -1.3563999999999998 5
-12.335899999999999 3.3398000000000003 0.7406999999999999 147
-12.3047 3.3301 -1.335 39
-12.3594 3.3476999999999997 1.043 72
-12.343800000000002 3.3438 -1.041 17
-12.3594 3.3476999999999997 1.3418 120
-12.335899999999999 3.3398000000000003 -0.7412000000000001 179
-12.343800000000002 3.3418 1.6396000000000002 14
-12.375 3.3516000000000004 -0.446 175
-12.3594 3.3457 1.9453 186
-12.343800000000002 3.3418 -0.1487 73
-12.2578 3.3183999999999996 2.2324 91
-12.335899999999999 3.3867000000000003 0.1487 187
-8.75 2.4023 -1.3769999999999998 178
-12.343800000000002 3.3887 0.44530000000000003 207
-10.2344 2.8086 -1.3594 49
-12.335899999999999 3.3867000000000003 0.7417 162
-12.273399999999999 3.3691000000000004 -1.3330000000000002 195
-12.343800000000002 3.3887 1.042 72
-12.3594 3.3926 -1.043 86
-12.3672 3.3945 1.3428 70
-12.343800000000002 3.3867000000000003 -0.7417 66
-12.335899999999999 3.3867000000000003 1.6406 117
-12.375 3.3964999999999996 -0.44630000000000003 212
-12.351600000000001 3.3906 1.9463 31
-12.343800000000002 3.3887 -0.14880000000000002 157
-12.2578 3.3651999999999997 2.2344 73
-12.343800000000002 3.4355 0.1489 95
-8.75 2.4355 -1.3788999999999998 111
-12.335899999999999 3.4336 0.44530000000000003 168
-10.2031 2.8379000000000003 -1.3563999999999998 222
-12.351600000000001 3.4375 0.7432 33
-12.25 3.4082 -1.3319999999999999 2
-12.335899999999999 3.4316000000000004 1.042 180
-12.343800000000002 3.4336 -1.043 188
-12.3672 3.4414 1.3447 241
-12.351600000000001 3.4375 -0.7432 201
-12.343800000000002 3.4355 1.6425999999999998 100
-12.343800000000002 3.4355 -0.4458 206
-12.351600000000001 3.4355 1.9482 112
-12.343800000000002 3.4336 -0.1489 54
-12.2656 3.4120999999999997 2.2363 133
-12.351600000000001 3.4805 0.1492 93
-8.7734 2.4727 -1.3838 24
-12.335899999999999 3.4766000000000004 0.4458 194
-10.1797 2.8691000000000004 -1.3555000000000001 249
-12.351600000000001 3.4824 0.7441 178
-12.25 3.4531 -1.3330000000000002 37
-12.351600000000001 3.4805 1.0439 205
-12.335899999999999 3.4766000000000004 -1.0439 42
-12.351600000000001 3.4824 1.3447 99
-12.343800000000002 3.4805 -0.7437 12
-12.335899999999999 3.4766000000000004 1.6436000000000002 156
-12.3672 3.4863 -0.447 125
-12.335899999999999 3.4766000000000004 1.9472999999999998 85
-12.335899999999999 3.4766000000000004 -0.1489 100
-12.2578 3.4531 2.2383 151
-12.3594 3.5273000000000003 0.1494 44
-8.7344 2.4922 -1.3788999999999998 189
-12.343800000000002 3.5233999999999996 0.4465 38
-10.1719 2.9023000000000003 -1.3544999999999998 23
-12.343800000000002 3.5233999999999996 0.7445999999999999 21
-12.25 3.4961 -1.334 202
-12.3594 3.5273000000000003 1.0459 216
-12.335899999999999 3.5214999999999996 -1.0449 57
-12.343800000000002 3.5233999999999996 1.3447 163
-12.343800000000002 3.5233999999999996 -0.7445999999999999 136
-12.343800000000002 3.5233999999999996 1.6465 89
-12.3672 3.5293 -0.4473 213
-12.3594 3.5273000000000003 1.9531 54
-12.3281 3.5195 -0.149 178
-12.2578 3.5 2.2402 174
-12.3281 3.5683999999999996 0.1492 200
-8.7344 2.5273 -1.3799000000000001 203
-12.343800000000002 3.5723000000000003 0.4468 144
-10.1719 2.9433999999999996 -1.3563999999999998 150
-12.335899999999999 3.5702999999999996 0.7445999999999999 137
-12.210899999999999 3.5351999999999997 -1.3319999999999999 70
-12.343800000000002 3.5723000000000003 1.0459 45
-12.351600000000001 3.5742000000000003 -1.0469 97
-12.3594 3.5762 1.3477000000000001 227
-12.335899999999999 3.5702999999999996 -0.7445999999999999 6
-12.3594 3.5781 -0.44780000000000003 91
-12.781199999999998 3.6992000000000003 2.0215 246
-12.343800000000002 3.5723000000000003 -0.1493 212
-12.2422 3.543 2.2402 196
-12.343800000000002 3.6191000000000004 0.1495 237
-8.7031 2.5527 -1.3769999999999998 246
-12.351600000000001 3.6211 0.44780000000000003 119
-10.1562 2.9785000000000004 -1.3563999999999998 136
-12.3281 3.6132999999999997 0.7445999999999999 20
-12.1875 3.5723000000000003 -1.3300999999999998 13
-12.351600000000001 3.6211 1.0479 4
-12.351600000000001 3.6211 -1.0479 16
-19.0781 5.5938 2.084 19
-12.335899999999999 3.6151999999999997 -0.7451000000000001 219
-12.351600000000001 3.6211 -0.44780000000000003 212
-12.8047 3.7539 2.0273 251
-12.335899999999999 3.6172000000000004 -0.1494 43
-12.25 3.5918 2.2441 168
-12.414100000000001 3.6855 0.1506 203
-8.6719 2.5742000000000003 -1.3730000000000002 251
-10.1562 3.0137 -1.3574000000000002 87
-12.1719 3.6113 -1.3300999999999998 184
-12.335899999999999 3.6601999999999997 -1.0479 107
-19.2969 5.7265999999999995 2.1113 99
-12.351600000000001 3.6660000000000004 -0.7471 17
-12.4219 3.6875 -0.4507 155
-17.9688 5.332000000000001 2.8516000000000004 5
-19.3125 5.734400000000001 3.5469 70
-8.6641 2.6035000000000004 -1.3730000000000002 229
-10.1328 3.0449 -1.3555000000000001 144
-12.1797 3.6582 -1.3319999999999999 214
-12.6094 3.7870999999999997 -1.0713 85
-19.1562 5.7539 2.0977 191
-17.9375 5.390599999999999 2.8495999999999997 26
-28.9219 8.6875 -0.35229999999999995 187
-19.2969 5.792999999999999 3.5449 127
-8.6562 2.6367000000000003 -1.3730000000000002 21
-10.125 3.0839999999999996 -1.3555000000000001 52
-12.1406 3.6973000000000003 -1.3291 75
-14.875 4.5312 -1.2666 251
-19.0 5.7852 2.082 77
-19.75 6.015599999999999 -1.1992 137
-17.9062 5.453099999999999 2.8476999999999997 54
-28.8906 8.8047 -0.35229999999999995 7
-19.3438 5.894500000000001 3.5586 63
-8.6484 2.6660000000000004 -1.3730000000000002 147
-10.1016 3.1151999999999997 -1.3544999999999998 205
-12.1172 3.7382999999999997 -1.3281 66
-14.875 4.5859 -1.2676 107
-19.0469 5.875 2.0898 21
-19.625 6.050800000000001 -1.1924 197
-18.0 5.550800000000001 2.8651999999999997 122
-19.375 5.9765999999999995 3.5683999999999996 43
-8.6172 2.6895 -1.3691 227
-10.1016 3.1523000000000003 -1.3555000000000001 46
-12.093800000000002 3.7754000000000003 -1.3271000000000002 181
-14.851600000000001 4.6367 -1.2666 106
-19.0938 5.9609000000000005 2.0977 131
-19.5469 6.1015999999999995 -1.1885 106
-17.9844 5.6172 2.8672000000000004 201
-28.8594 9.0078 -0.3525 171
-19.3281 6.0352 3.5625 26
-8.5938 2.7168 -1.3681999999999999 110
-10.1016 3.1914 -1.3563999999999998 239
-23.3281 7.375 1.4209 94
-12.101600000000001 3.8242000000000003 -1.3291 129
-14.8203 4.6836 -1.2656 109
-19.0938 6.0352 2.0996 39
-19.4688 6.1523 -1.1845999999999999 35
-18.0938 5.7188 2.4355 100
-18.0 5.6914 2.873 129
-19.3125 6.105499999999999 3.5645 132
-8.6016 2.748 -1.3700999999999999 169
-23.375 7.4688 0.8554999999999999 109
-10.0703 3.2188 -1.3544999999999998 9
-23.3438 7.457000000000001 1.4228999999999998 116
-12.093800000000002 3.8632999999999997 -1.3291 133
-14.726600000000001 4.707 -1.2588 47
-19.375 6.1914 -1.1806999999999999 206
-18.375 5.8711 2.4766 67
-23.4844 7.5039 -0.8593999999999999 167
-17.9688 5.7422 2.8711 163
-19.4062 6.199199999999999 3.5839999999999996 246
-8.5938 2.7773000000000003 -1.3700999999999999 255
-23.3594 7.550800000000001 0.8554999999999999 206
-10.0547 3.248 -1.3535 121
-23.3438 7.546900000000001 1.4247999999999998 90
-12.0781 3.9023000000000003 -1.3291 106
-14.7422 4.7656 -1.2617 166
-19.3906 6.265599999999999 -1.1826 232
-18.0625 5.8398 2.4375 87
-23.3906 7.5586 -0.8564 29
-17.9062 5.7890999999999995 2.8632999999999997 172
-23.3906 7.5586 -0.2866 72
-19.5469 6.3203 3.6151999999999997 158
-8.5859 2.8105 -1.3711000000000002 42
-10.0391 3.2891000000000004 -1.3535 132
-23.3438 7.640599999999999 1.4258000000000002 143
-12.0469 3.9452999999999996 -1.3281 123
-14.710899999999999 4.8164 -1.2607 85
-19.3125 6.324199999999999 -1.1797 101
-18.0 5.894500000000001 2.4316 231
-16.8594 5.519500000000001 2.6992000000000003 191
-19.3438 6.332000000000001 3.582 36
-8.5547 2.8358999999999996 -1.3681999999999999 61
-10.0391 3.3262 -1.3544999999999998 34
-23.3594 7.738300000000001 1.4287 170
-12.0469 3.9901999999999997 -1.3291 59
-14.6797 4.8633 -1.2588 198
-19.5312 6.4688 2.1582 233
-19.2656 6.3828 -1.1777 201
-18.0469 5.980499999999999 2.4414 20
-16.7969 5.5664 2.6933999999999996 246
-17.5469 5.8164 3.252 182
-93.25 31.2656 1.1494 126
-8.5469 2.8632999999999997 -1.3672 219
-10.0078 3.3555 -1.3525 5
-12.0703 4.0469 -1.334 55
-14.625 4.9023 -1.2568000000000001 235
-19.5469 6.550800000000001 2.1621 217
-19.2188 6.4414 -1.1768 207
-17.9844 6.0312 2.4355 138
-16.7656 5.6211 2.6895 199
-16.7969 5.6289 3.1172000000000004 63
-8.5312 2.8945 -1.3672 111
-9.9922 3.3887 -1.3525 5
-12.0547 4.0859 -1.3330000000000002 95
-14.593800000000002 4.9492 -1.2549 145
-19.6094 6.6484000000000005 2.1719 48
-19.1719 6.5 -1.1748 219
-18.0625 6.1289 2.4492 184
-16.7656 5.6875 2.6933999999999996 86
-16.8281 5.707000000000001 3.125 35
-8.5312 2.9257999999999997 -1.3681999999999999 159
-9.9688 3.418 -1.3496000000000001 0
-12.0547 4.1328 -1.335 38
-14.5781 5.0 -1.2549 167
-19.5781 6.7148 2.1699 141
-19.0625 6.5390999999999995 -1.1699 230
-17.2031 5.9023 2.334 35
-16.7969 5.761699999999999 2.7012 255
-16.7188 5.734400000000001 3.1094 194
-8.5234 2.9551 -1.3681999999999999 160
-9.9688 3.4589999999999996 -1.3525 12
-12.031199999999998 4.1758 -1.334 54
-14.5547 5.0508 -1.2549 86
-19.5156 6.769500000000001 2.166 78
-18.9219 6.5625 -1.1631 175
-17.2969 6.0 2.3496 11
-21.9062 7.6015999999999995 -0.8081 188
-21.8906 7.5938 -0.27 161
-16.6875 5.7890999999999995 3.1074 164
-8.5 2.9805 -1.3672 235
-9.9531 3.4901999999999997 -1.3516 194
-12.023399999999999 4.2148 -1.334 189
-14.523399999999999 5.0898 -1.2529000000000001 90
-19.5 6.8359000000000005 2.168 80
-18.9375 6.636699999999999 -1.165 69
-17.3438 6.082000000000001 2.3594 53
-17.7969 6.238300000000001 2.8691000000000004 55
-90.5 32.0625 1.1220999999999999 79
-8.4922 3.0077999999999996 -1.3672 73
-9.9453 3.5233999999999996 -1.3516 192
-12.023399999999999 4.2617 -1.3359 207
-14.476600000000001 5.1289 -1.251 32
-19.5 6.9102 2.1699 248
-19.5 6.9102 -1.2012 195
-18.1875 6.4453 2.4766 118
-17.7344 6.2812 2.8613 98
-16.7812 5.9453 3.1327999999999996 102
-8.4609 3.0312 -1.3643 245
-9.9141 3.5526999999999997 -1.3496000000000001 47
-12.031199999999998 4.3086 -1.3388999999999998 54
-14.4453 5.175800000000001 -1.249 145
-20.125 7.2109000000000005 2.2422 45
-19.5 6.984400000000001 -1.2021 249
-17.7188 6.3477 2.416 245
-17.7031 6.3438 2.8613 151
-16.8906 6.0547 3.1582 60
-8.4609 3.0625 -1.3652000000000002 254
-9.9219 3.5918 -1.3525 121
-12.031199999999998 4.3555 -1.3397999999999999 150
-14.406199999999998 5.2148 -1.2470999999999999 241
-17.6406 6.3828 1.9668 201
-19.375 7.011699999999999 -1.1963 208
-19.6719 7.1211 2.6855 162
-19.25 6.9648 3.1132999999999997 119
-17.0312 6.1640999999999995 3.1855 58
-8.4297 3.0879000000000003 -1.3633000000000002 42
-9.8906 3.6211 -1.3486000000000002 57
-12.0156 4.3984 -1.3397999999999999 96
-14.3594 5.2578 -1.2451 0
-17.6406 6.457000000000001 1.9697 179
-19.2656 7.0547 -1.1914 231
-19.6562 7.1953 2.6875 5
-19.0312 6.9688 3.0839999999999996 160
-17.0156 6.230499999999999 3.1875 204
-8.4062 3.1113 -1.3603999999999998 3
-9.8906 3.6601999999999997 -1.3506 132
-12.0156 4.4492 -1.3418 135
-14.3125 5.296900000000001 -1.2431999999999999 105
-19.2812 7.1328 -1.1934 94
-19.5156 7.2265999999999995 2.6719 202
-18.7812 6.953099999999999 3.0488 89
-23.0938 8.5469 -0.2871 29
-17.7188 6.5586 3.3242000000000003 7
-8.3828 3.1348000000000003 -1.3574000000000002 123
-9.8828 3.6973000000000003 -1.3525 41
-12.0156 4.4922 -1.3437999999999999 22
-8.7109 3.2577999999999996 0.7559 183
-14.2969 5.3477 -1.2431999999999999 148
-8.7422 3.2714999999999996 0.9765999999999999 165
-19.3281 7.230499999999999 -1.1973 193
-8.75 3.2714999999999996 1.1963 126
-18.6406 6.9727 3.0293 127
-23.0625 8.625 -0.2871 120
-8.375 3.1660000000000004 -1.3584 164
-8.7188 3.2969 -1.1943000000000001 13
-8.7422 3.3066000000000004 -0.978 244
-8.7031 3.2910000000000004 0.7563 110
-14.2422 5.3828 -1.2402 17
-8.6797 3.2812 0.9706999999999999 76
-19.2812 7.2890999999999995 -1.1963 39
-8.6484 3.2695 1.1845999999999999 80
-23.1094 8.7344 -0.28809999999999997 22
-8.5938 3.25 1.6122999999999998 140
-8.3672 3.1973000000000003 -1.3594 188
-69.6875 26.6094 2.6016000000000004 228
-8.6562 3.3066000000000004 -1.1865 170
-8.6328 3.2969 0.5347 40
-8.6719 3.3145 -0.9712000000000001 4
-8.6328 3.2988 0.7515000000000001 165
-14.2031 5.425800000000001 -1.2383 40
-8.625 3.2969 0.9662999999999999 196
-19.2344 7.3477 -1.1953 239
-8.5859 3.2812 1.1768 187
-21.9219 8.375 -0.8173999999999999 229
-8.6172 3.293 1.4003999999999999 160
-8.6484 3.3026999999999997 -0.1074 113
-8.5703 3.2754000000000003 1.6103999999999998 1
-8.6562 3.3418 0.1076 228
-8.3594 3.2266000000000004 -1.3594 0
-8.5703 3.3086 -1.1758 24
-8.5859 3.3164 0.5332 165
-8.5625 3.3047000000000004 -0.96 226
-8.6016 3.3202999999999996 0.7495 24
-14.226600000000001 5.4922 -1.2422 36
-8.5859 3.3145 0.9629000000000001 115
-8.6406 3.3358999999999996 -0.5361 141
-8.5703 3.3105 1.1768 201
-8.6641 3.3457 -0.3225 215
-8.6172 3.3281 1.4022999999999999 130
-8.625 3.3281 -0.1072 66
-8.5625 3.3047000000000004 1.6103999999999998 142
-8.6172 3.3613 0.1072 181
-8.3281 3.248 -1.3563999999999998 246
-8.5859 3.3495999999999997 0.3201 231
-8.5391 3.3301 -1.1729 32
-8.5781 3.3457 0.5332 134
-8.5312 3.3281 -0.9575 188
-8.5859 3.3495999999999997 0.7490000000000001 243
-8.6328 3.3672000000000004 -0.7534000000000001 19
-8.6016 3.3535000000000004 0.9653 132
-8.6016 3.3574 -0.5347 55
-8.5625 3.3418 1.1768 145
-8.6016 3.3555 -0.3206 201
-8.5859 3.3476999999999997 -0.1069 141
-8.5781 3.3476999999999997 1.6162 147
-8.5938 3.3867000000000003 0.10710000000000001 178
-8.3047 3.2733999999999996 -1.3555000000000001 11
-8.5703 3.3789 0.3201 151
-8.4922 3.3476999999999997 -1.1689 146
-8.5859 3.3827999999999996 0.5342 241
-8.5078 3.3516000000000004 -0.9561 0
-8.5781 3.3789 0.7490000000000001 21
-8.5938 3.3867000000000003 -0.7505 40
-8.6328 3.4023000000000003 0.9706999999999999 23
-8.5859 3.3827999999999996 -0.5342 99
-8.5859 3.3827999999999996 1.1816 90
-8.5859 3.3827999999999996 -0.32030000000000003 168
-18.5 7.2890999999999995 3.0254000000000003 82
-8.5781 3.3808999999999996 -0.1069 221
-17.6562 6.957000000000001 3.3379000000000003 88
-8.5703 3.4120999999999997 0.1069 178
-8.2812 3.2988 -1.3525 9
-8.5547 3.4101999999999997 0.31980000000000003 179
-8.4766 3.377 -1.1689 222
-8.5938 3.4219 0.5356000000000001 50
-8.5078 3.3906 -0.9584999999999999 195
-8.6328 3.4375 0.7548999999999999 34
-8.5703 3.4120999999999997 -0.7495 1
-8.5781 3.418 -0.5347 115
-19.6719 7.832000000000001 2.7168 9
-8.5703 3.4141000000000004 -0.32030000000000003 46
-19.0 7.5703 3.1132999999999997 98
-8.5625 3.4120999999999997 -0.1069 47
-17.5781 7.0 3.3281 13
-8.6016 3.4608999999999996 0.1075 57
-8.2812 3.332 -1.3544999999999998 47
-17.875 7.1914 0.6709 55
-8.4844 3.4120999999999997 -1.1709 148
-17.4062 7.0078 1.0889 21
-8.5156 3.4276999999999997 -0.9604 81
-8.5625 3.4452999999999996 -0.7505 113
-8.5703 3.4492000000000003 -0.5347 194
-18.4062 7.4023 2.5449 11
-8.5938 3.4589999999999996 -0.3218 226
-18.9688 7.6328 3.1113 32
-8.5703 3.4492000000000003 -0.10710000000000001 148
-16.6406 6.699199999999999 3.1562 118
-17.8594 7.2578 0.22460000000000002 64
-8.2656 3.3594 -1.3544999999999998 255
-17.8281 7.2461 0.6704000000000001 43
-8.4922 3.4492000000000003 -1.1729 107
-17.4062 7.074199999999999 1.0908 232
-8.5156 3.4589999999999996 -0.9614 239
-8.5859 3.4882999999999997 -0.7534000000000001 195
-8.5781 3.4844 -0.5356000000000001 195
-8.875 3.6055 1.2266 163
-17.9219 7.2812 -0.6738 226
-17.9062 7.2734000000000005 -0.22510000000000002 77
-16.6719 6.7734000000000005 3.1660000000000004 7
-17.8906 7.3359000000000005 0.22519999999999998 124
-8.25 3.3848000000000003 -1.3535 225
-17.8438 7.3203 0.6718999999999999 146
-8.4922 3.4824 -1.1748 136
-17.7969 7.296900000000001 1.1162 147
-8.5 3.4863 -0.9609000000000001 81
-8.9531 3.6719 0.7866 209
-13.9375 5.7148 -1.2266 118
-8.7734 3.5976999999999997 0.9917 12
-17.875 7.332000000000001 -1.1211 15
-8.7656 3.5957 1.2139 179
-17.9219 7.3477 -0.6743000000000001 75
-17.8906 7.3359000000000005 -0.22519999999999998 121
-16.7031 6.8515999999999995 3.1757999999999997 62
-8.2344 3.4120999999999997 -1.3525 19
-17.9062 7.417999999999999 0.6753 232
-8.4922 3.5156 -1.1768 39
-17.8906 7.4102 1.124 125
-8.5 3.5214999999999996 -0.9623999999999999 54
-13.9219 5.765599999999999 -1.2266 101
-8.7266 3.6151999999999997 0.9883 149
-17.9062 7.417999999999999 -1.125 241
-8.7578 3.627 1.2139 6
-20.0625 8.3125 -0.7563 192
-18.5469 7.6797 3.0526999999999997 152
-16.5938 6.875 3.1601999999999997 176
-8.2266 3.4395 -1.3525 132
-17.9688 7.511699999999999 0.6781999999999999 31
-8.4922 3.5526999999999997 -1.1787 147
-17.4375 7.292999999999999 1.0977 10
-8.5312 3.5664 -0.9668000000000001 26
-17.9062 7.488300000000001 1.5819999999999999 227
-13.8672 5.796900000000001 -1.2236 168
-8.7188 3.6445 0.9883 237
-18.9375 7.917999999999999 -1.1924 255
-8.7656 3.6641000000000004 1.2158 167
-19.7969 8.2812 -0.7476 90
-17.3438 7.25 2.8594 129
-16.5625 6.925800000000001 3.1582 199
-8.2031 3.4648000000000003 -1.3516 231
-8.5156 3.5976999999999997 -1.1836 20
-17.3125 7.3125 1.0908 235
-11.781199999999998 4.9766 -1.3397999999999999 135
-17.9688 7.5938 1.5897999999999999 115
-13.8281 5.8398 -1.2227 77
-8.7031 3.6757999999999997 0.9883 181
-18.875 7.9688 -1.1895 117
-8.7812 3.7089999999999996 1.2207 250
-19.7031 8.3281 -0.7456 243
-19.9531 8.4297 3.2949 254
-19.5469 8.2578 -0.24719999999999998 57
-16.5156 6.9765999999999995 3.1543 10
-8.1875 3.4922000000000004 -1.3506 42
-9.6484 4.1133 -1.3437999999999999 56
-17.875 7.625 1.1279000000000001 242
-11.7578 5.0156 -1.3388999999999998 33
-68.4375 29.2031 6.078099999999999 118
-13.8203 5.894500000000001 -1.2236 136
-8.7109 3.7148000000000003 0.9906999999999999 141
-18.6875 7.9727 -1.1797 137
-8.7344 3.7266000000000004 1.2158 211
-19.9375 8.5078 3.2988 152
-17.9219 7.644500000000001 3.4276999999999997 9
-8.1797 3.5233999999999996 -1.3516 33
-68.75 29.5938 2.6113 51
-9.6328 4.1484 -1.3437999999999999 44
-68.5625 29.5156 4.3398 53
-11.7031 5.043 -1.335 63
-13.781199999999998 5.9336 -1.2217 12
-8.7266 3.7577999999999996 0.9937 7
-18.5781 8.0 -1.1738 104
-8.6953 3.7441000000000004 1.2119 139
-19.9375 8.5859 3.3047000000000004 241
-17.2188 7.417999999999999 3.2988 117
-8.1641 3.5507999999999997 -1.3516 150
-56.4375 24.5469 2.1465 79
-9.6094 4.1797 -1.3428 141
-66.25 28.7969 4.1992 158
-11.6953 5.0859 -1.3359 120
-13.7344 5.9727 -1.2197 5
-18.4844 8.0312 -1.1699 131
-16.875 7.3398 2.3633 149
-19.0156 8.2734 -0.7227 3
-19.8438 8.625 3.293 226
-19.4688 8.4609 3.7344 184
-8.1484 3.5781 -1.3516 32
-9.5781 4.2031 -1.3397999999999999 200
-65.875 28.9062 4.1836 90
-11.664100000000001 5.1211 -1.335 209
-13.6875 6.0078 -1.2168 68
-18.3906 8.0703 -1.166 139
-16.8125 7.3828 2.3574 220
-18.8594 8.2734 -0.7173 186
-19.7969 8.6875 3.2891000000000004 17
-18.7969 8.25 -0.23929999999999998 145
-19.4688 8.5469 3.7422000000000004 233
-8.1406 3.6074 -1.3516 47
-56.4375 25.0156 2.1543 0
-9.5625 4.2344 -1.3397999999999999 165
-65.125 28.875 4.1445 253
-11.656199999999998 5.1640999999999995 -1.335 168
-13.664100000000001 6.0547 -1.2168 203
-18.25 8.0859 -1.1582 78
-16.7812 7.4375 2.3555 103
-18.7344 8.3047 -0.7139 201
-19.7344 8.7422 3.2851999999999997 51
-18.7188 8.2891 -0.23850000000000002 244
-19.7031 8.7266 3.793 201
-8.125 3.6367000000000003 -1.3516 181
-56.4688 25.2656 2.1582 163
-9.5469 4.2695 -1.3397999999999999 56
-64.5 28.8438 4.1055 79
-11.593800000000002 5.1875 -1.3300999999999998 76
-13.625 6.0938 -1.2158 25
-19.4531 8.7031 -1.2373 125
-16.8125 7.519500000000001 2.3633 242
-18.5781 8.3125 -0.7090000000000001 125
-18.7344 8.375 -0.239 115
-17.0625 7.636699999999999 3.2891000000000004 7
-18.8125 8.4922 0.24050000000000002 137
-8.1016 3.6582 -1.3486000000000002 164
-56.5 25.5 2.1621 75
-9.5156 4.2969 -1.3378999999999999 167
-63.7188 28.7812 4.0664 11
-11.5703 5.2265999999999995 -1.3300999999999998 132
-13.6094 6.144500000000001 -1.2158 20
-16.9062 7.636699999999999 1.9453 199
-18.3594 8.2891 -1.1689 191
-16.75 7.5664 2.3594 45
-18.7188 8.4531 -0.23929999999999998 51
-19.5 8.8047 3.7656 157
-18.7969 8.5703 0.2407 130
-8.0859 3.6855 -1.3486000000000002 39
-56.5 25.75 2.166 101
-9.4922 4.3242 -1.3369 227
-63.6562 29.0156 4.0703 21
-11.5625 5.269500000000001 -1.3311000000000002 100
-13.5547 6.175800000000001 -1.2129 138
-16.8438 7.6797 1.9413999999999998 195
-18.3125 8.3438 -1.168 104
-16.6094 7.5703 2.3438 180
-18.7188 8.5312 -0.2397 47
-19.5156 8.8984 3.7754000000000003 86
-18.7656 8.6328 0.2407 174
-8.0938 3.7207 -1.3516 99
-9.4531 4.3477 -1.3330000000000002 34
-63.7188 29.2969 4.0781 68
-11.5156 5.296900000000001 -1.3281 204
-13.5078 6.2148 -1.2109 98
-16.75 7.703099999999999 1.9336000000000002 89
-16.6094 7.640599999999999 2.3477 70
-17.5469 8.0703 2.9395 236
-18.7031 8.6094 -0.24 249
-19.5312 8.9766 3.7812 29
-18.7656 8.7031 0.24109999999999998 251
-8.0859 3.75 -1.3525 191
-9.4531 4.3828 -1.334 75
-63.2812 29.3438 4.0547 162
-13.460899999999999 6.2422 -1.208 166
-17.375 8.0547 2.0078 69
-16.625 7.7109000000000005 2.3516 83
-17.5156 8.125 2.9375 150
-18.7031 8.6719 -0.2401 252
-19.5 9.0469 3.7832 105
-18.7812 8.7891 0.2416 127
-8.0859 3.7832 -1.3555000000000001 122
-9.4297 4.4102 -1.334 93
-62.7188 29.3438 4.0273 17
-10.5703 4.9453 -1.2217 187
-13.4453 6.2890999999999995 -1.209 185
-17.2344 8.0625 1.9950999999999999 21
-18.0156 8.4297 -1.1553 69
-17.6562 8.2578 -0.6787000000000001 49
-17.4844 8.1797 2.9375 238
-18.7031 8.75 -0.24059999999999998 112
-17.9219 8.3828 3.4805 241
-18.7812 8.875 0.2421 173
-8.0859 3.8164 -1.3563999999999998 168
-62.5312 29.5312 2.4121 193
-9.4141 4.4453 -1.3330000000000002 71
-62.0938 29.3281 3.9922000000000004 123
-13.4219 6.3398 -1.209 70
-17.25 8.1406 2.0 202
-17.5 8.2656 -0.6738 193
-17.5938 8.3125 2.9608999999999996 224
-18.7812 8.8672 -0.2419 106
-17.9844 8.4922 3.498 240
-18.8125 8.9609 0.24280000000000002 28
-8.0781 3.8495999999999997 -1.3584 30
-69.5625 33.1562 2.6875 233
-9.3906 4.4766 -1.3330000000000002 185
-10.5703 5.0352 -1.2256 34
-10.710899999999999 5.1055 -0.9653 160
-17.2969 8.2422 2.0078 128
-18.875 8.9922 -1.2139 57
-17.3906 8.2891 -0.6709 196
-17.5625 8.3672 2.9589999999999996 224
-18.75 8.9375 -0.2419 223
-17.5 8.3359 3.4101999999999997 230
-18.75 9.0156 0.24239999999999998 36
-8.0781 3.8848000000000003 -1.3603999999999998 91
-9.375 4.5078 -1.3319999999999999 193
-10.585899999999999 5.0898 -1.2305 64
-10.6719 5.1289 -0.9634 244
-17.2656 8.3047 2.0098 21
-18.8125 9.0469 -1.2119 64
-17.2344 8.2812 -0.6659999999999999 250
-18.4375 8.8672 3.1132999999999997 211
-17.4844 8.4062 3.4120999999999997 204
-18.8125 9.125 0.24350000000000002 135
-8.0703 3.9160000000000004 -1.3613 205
-9.3516 4.5391 -1.3319999999999999 191
-60.4375 29.3125 3.9043 29
-10.375 5.0352 -1.207 143
-10.5547 5.1211 -0.9551000000000001 116
-18.7812 9.1094 -1.2119 201
-18.5 8.9766 3.1289 133
-17.5312 8.5078 3.4297000000000004 150
-8.0859 3.9551 -1.3662 224
-9.3281 4.5625 -1.3300999999999998 134
-10.406199999999998 5.0898 -1.2129 91
-10.5547 5.1640999999999995 -0.9561 234
-18.4062 9.0078 3.1191000000000004 188
-17.3594 8.4922 3.3983999999999996 24
-8.0781 3.9863 -1.3672 122
-9.3125 4.5938 -1.3300999999999998 140
-10.476600000000001 5.167999999999999 -1.2236 167
-13.3281 6.574199999999999 -1.21 38
-58.875 29.0469 6.894500000000001 220
-10.375 5.1211 -0.6704000000000001 139
-17.3906 8.5859 3.4141000000000004 202
-8.0547 4.0117 -1.3662 197
-9.2891 4.6289 -1.3300999999999998 133
-10.601600000000001 5.2812 -0.9639 210
-58.4062 29.0938 6.8515999999999995 116
-10.3672 5.1640999999999995 -0.6714 104
-10.539100000000001 5.25 -0.1368 198
-18.8438 9.3906 3.7051 10
-8.0781 4.0625 -1.3721 136
-9.2578 4.6523 -1.3271000000000002 218
-10.414100000000001 5.234400000000001 -1.2207 84
-10.460899999999999 5.2539 -0.9526 89
-57.7812 29.0312 6.7890999999999995 177
-10.3594 5.207000000000001 -0.6718999999999999 43
-10.7031 5.375 -0.4163 132
-10.5 5.2734000000000005 -0.1365 45
-18.8438 9.4688 3.7108999999999996 253
-8.0703 4.0859 -1.3721 110
-57.7188 29.25 2.2578 102
-9.2344 4.6797 -1.3262 33
-10.343800000000002 5.238300000000001 -1.2139 139
-57.2812 29.0156 6.7461 216
-10.585899999999999 5.363300000000001 -0.4128 252
-10.4922 5.3164 -0.1367 116
-18.7656 9.5156 3.7031 56
-8.0703 4.1211 -1.375 167
-9.2266 4.7109 -1.3271000000000002 154
-57.2812 29.25 3.7382999999999997 62
-10.3281 5.2734000000000005 -1.2139 144
-57.2812 29.2656 6.7539 224
-10.406199999999998 5.3164 -0.6772 175
-10.539100000000001 5.386699999999999 -0.41159999999999997 28
-10.4922 5.363300000000001 -0.13699999999999998 74
-18.7188 9.5625 3.6992000000000003 136
-18.7969 9.6953 0.2465 136
-8.0703 4.1562 -1.3769999999999998 211
-57.2188 29.5 2.2461 148
-9.2031 4.7422 -1.3262 249
-45.25 23.3281 2.9589999999999996 35
-10.351600000000001 5.3359000000000005 -1.2197 70
-55.75 28.7344 6.5859000000000005 182
-10.3828 5.3515999999999995 -0.6768000000000001 228
-55.4688 28.5938 8.0234 140
-10.460899999999999 5.390599999999999 -0.4092 152
-10.4922 5.4062 -0.1371 23
-8.0625 4.1914 -1.3788999999999998 83
-57.2188 29.75 2.25 73
-9.1797 4.7734 -1.3262 245
-57.2812 29.7812 3.7539 72
-10.335899999999999 5.375 -1.2197 243
-13.9297 7.2422 1.2783 132
-13.9844 7.269500000000001 1.6513999999999998 30
-10.335899999999999 5.375 -0.6753 101
-55.1875 28.7031 7.9961 57
-10.375 5.394500000000001 -0.4065 98
-55.5938 28.9062 9.5469 42
-17.0625 8.8672 -0.22390000000000002 125
-8.0859 4.2383 -1.3847999999999998 72
-57.1562 29.9688 2.252 237
-9.1953 4.8203 -1.3300999999999998 113
-10.3281 5.4140999999999995 -1.2207 76
-13.9375 7.3086 1.2822 218
-10.3672 5.4336 -0.6781999999999999 184
-54.9062 28.7812 7.9688 200
-10.3281 5.4140999999999995 -0.4053 52
-55.2812 28.9844 9.5078 93
-17.0469 8.9375 -0.2242 26
-8.0781 4.2695 -1.3866999999999998 61
-9.1797 4.8555 -1.3311000000000002 26
-44.375 23.4688 2.918 189
-10.351600000000001 5.4765999999999995 -1.2266 188
-13.9453 7.375 1.2852000000000001 112
-10.3594 5.4765999999999995 -0.6792 144
-54.8125 28.9844 7.9688 89
-10.335899999999999 5.4648 -0.4065 188
-55.2188 29.2031 9.5156 217
-55.3125 29.25 11.023399999999999 76
-8.0781 4.3086 -1.3896000000000002 252
-9.1953 4.9023 -1.335 181
-10.414100000000001 5.5547 -1.2354 153
-13.9531 7.4414 1.2881 27
-13.0469 6.957000000000001 -1.2041 11
-10.335899999999999 5.515599999999999 -0.6792 187
-54.6562 29.1562 7.9648 222
-10.398399999999999 5.542999999999999 -0.4097 68
-55.0 29.3281 9.5 160
-12.914100000000001 6.886699999999999 -0.1703 57
-55.0625 29.375 11.0 48
-8.0938 4.3555 -1.3955000000000002 60
-54.125 29.1094 2.1445 116
-9.2031 4.9492 -1.3388999999999998 44
-10.398399999999999 5.5938 -1.2363 167
-13.9453 7.5 1.2891 115
-10.4844 5.636699999999999 -0.9688 129
-13.9531 7.5039 1.6611000000000002 32
-10.3828 5.5859000000000005 -0.6831 188
-54.5938 29.3594 7.9688 168
-54.8438 29.4844 9.4922 112
-12.8672 6.917999999999999 -0.1699 221
-55.0 29.5781 11.0 163
-8.0859 4.3867 -1.3965 215
-53.8438 29.1875 2.1367 207
-9.1953 4.9844 -1.3397999999999999 141
-10.7344 5.8164 -1.2783 161
-13.9297 7.550800000000001 1.291 244
-12.9219 7.0039 -1.1963 76
-13.9531 7.5625 1.6631 48
-54.5 29.5469 7.9688 62
-54.8125 29.7031 9.5 4
-17.0938 9.2656 -0.22640000000000002 25
-55.0312 29.8281 11.031199999999998 86
-8.0859 4.418 -1.3994 130
-9.2031 5.0273 -1.3437999999999999 132
-13.960899999999999 7.625 0.9229 231
-10.7578 5.875 -1.2832 173
-13.9453 7.6172 1.2938999999999998 165
-12.8672 7.0273 -1.1934 53
-13.9453 7.6211 1.666 124
-54.4375 29.75 7.9727 234
-54.875 29.9688 9.5234 66
-13.0 7.1015999999999995 -0.1724 212
-13.9922 7.7109000000000005 0.1859 216
-8.1094 4.4688 -1.4053 72
-13.968800000000002 7.699199999999999 0.5552 35
-9.1875 5.0625 -1.3437999999999999 42
-13.9453 7.6875 0.9238 52
-10.914100000000001 6.015599999999999 -1.3056999999999999 191
-13.9531 7.6875 1.2978999999999998 121
-12.8047 7.0586 -1.1904000000000001 154
-13.9453 7.6836 1.6688999999999998 16
-54.4062 29.9844 7.988300000000001 161
-13.226600000000001 7.2890999999999995 -0.1757 205
-8.1094 4.5078 -1.4082 244
-52.4062 29.125 2.0918 32
-9.2031 5.1133 -1.3486000000000002 68
-13.9375 7.7461 0.9253 9
-10.414100000000001 5.7890999999999995 -1.248 232
-13.9531 7.7539 1.3008000000000002 96
-12.8125 7.1172 -1.1934 205
-13.9531 7.7539 1.6728999999999998 137
-12.7422 7.078099999999999 -0.8452 100
-13.906199999999998 7.7265999999999995 2.041 94
-12.7422 7.078099999999999 -0.5073 222
-13.1719 7.3203 -0.1753 38
-8.1172 4.5469 -1.4121000000000001 78
-9.2266 5.167999999999999 -1.3544999999999998 195
-13.9453 7.8125 0.9272 4
-10.406199999999998 5.832000000000001 -1.249 213
-13.9453 7.8125 1.3018 230
-12.781199999999998 7.1602 -1.1934 255
-13.9531 7.8203 1.6768 35
-12.726600000000001 7.1289 -0.8462000000000001 8
-13.875 7.7734000000000005 2.041 115
-12.7344 7.1328 -0.5078 73
-13.101600000000001 7.3398 -0.1747 204
-8.1094 4.5781 -1.4131 87
-51.4375 29.0469 2.0605 116
-9.2422 5.2227 -1.3603999999999998 27
-13.9531 7.8828 0.9297 250
-10.4297 5.890599999999999 -1.2539 28
-13.9375 7.875 1.3037 127
-12.75 7.203099999999999 -1.1924 129
-13.960899999999999 7.8828 1.6806999999999999 14
-12.7422 7.1953 -0.8486 21
-12.75 7.199199999999999 -0.5093 229
-12.7344 7.1953 -0.1702 205
-8.125 4.6289 -1.4199000000000002 236
-9.2344 5.2578 -1.3613 3
-13.9453 7.9414 0.9307 21
-10.906199999999998 6.207000000000001 -1.3144999999999998 119
-13.9375 7.9375 1.3066 48
-12.75 7.261699999999999 -1.1943000000000001 40
-13.9531 7.9453 1.6836000000000002 51
-12.7422 7.2539 -0.8506 2
-12.789100000000001 7.2812 -0.5122 242
-12.656199999999998 7.207000000000001 -0.16940000000000002 142
-8.1562 4.6836 -1.4277000000000002 95
-50.6875 29.1094 2.0391 176
-9.2344 5.3047 -1.3652000000000002 231
-10.898399999999999 6.2539 -1.3154 180
-12.75 7.3203 -1.1973 78
-13.9219 7.9922 1.6825999999999999 103
-12.7344 7.3086 -0.8515999999999999 231
-12.281199999999998 7.046900000000001 1.8154 180
-12.7578 7.324199999999999 -0.5122 20
-12.6797 7.2773 -0.17 255
-12.2422 7.0312 2.4824 226
-8.1719 4.7305 -1.4336000000000002 192
-50.1562 29.0312 2.0215 88
-9.25 5.355499999999999 -1.3691 18
-10.8672 6.2890999999999995 -1.3154 175
-12.75 7.375 -1.1992 72
-12.773399999999999 7.390599999999999 -0.856 50
-12.2031 7.0625 1.8075999999999999 103
-12.75 7.3789 -0.5127 153
-12.6953 7.3477 -0.1707 1
-11.781199999999998 6.8164 2.3926 233
-8.1641 4.7617 -1.4346 3
-12.2031 7.1211 0.4917 219
-9.25 5.394500000000001 -1.3721 152
-12.2422 7.140599999999999 0.8218000000000001 49
-10.843800000000002 6.324199999999999 -1.3144999999999998 147
-12.7422 7.4336 -1.2012 229
-12.1875 7.109400000000001 1.8086000000000002 226
-22.25 12.976600000000001 -0.8975 97
-12.7344 7.4297 -0.17149999999999999 139
-11.835899999999999 6.9062 2.4102 213
-12.226600000000001 7.1914 0.165 6
-8.1719 4.8047 -1.4385 17
-12.2031 7.1797 0.4927 6
-9.2578 5.4453 -1.376 6
-12.210899999999999 7.1797 0.8212999999999999 72
-10.8203 6.3672 -1.3154 229
-12.2578 7.207000000000001 -1.1582 135
-12.210899999999999 7.1836 -0.8218000000000001 115
-12.2969 7.230499999999999 -0.4961 8
-11.789100000000001 6.9336 2.0801 110
-12.2344 7.1914 -0.165 101
-11.7656 6.917999999999999 2.3984 28
-12.1953 7.230499999999999 0.1649 135
-8.1875 4.8516 -1.4443000000000001 165
-12.1719 7.2188 0.4924 202
-9.2344 5.4727 -1.375 178
-10.7969 6.4023 -1.3154 228
-12.1797 7.2188 -1.1523 195
-40.5312 24.0312 4.9492 3
-12.1719 7.2148 -0.8203 38
-12.1953 7.2265999999999995 -0.4932 28
-12.1953 7.230499999999999 -0.1649 231
-8.1719 4.8828 -1.4453 76
-56.1875 33.5625 2.2832 31
-9.2266 5.5078 -1.3769999999999998 138
-10.789100000000001 6.4414 -1.3154 249
-12.1406 7.2539 -1.1514 37
-40.25 24.0469 4.9258 11
-12.1406 7.25 -0.8203 12
-12.210899999999999 7.292999999999999 -0.4949 58
-42.2188 25.2188 -0.5742 214
-8.1641 4.9102 -1.4463 54
-42.5938 25.6406 1.7344 120
-9.2188 5.546900000000001 -1.3779 212
-47.625 28.6719 3.2324 23
-10.7656 6.480499999999999 -1.3163999999999998 42
-11.843800000000002 7.1289 1.126 0
-12.156199999999998 7.3164 -1.1553 31
-40.0938 24.125 4.9141 164
-12.1328 7.300800000000001 -0.8208 99
-21.875 13.164100000000001 -0.8896 104
-8.1328 4.9375 -1.4443000000000001 155
-9.2031 5.5859000000000005 -1.3788999999999998 62
-42.625 25.8594 2.8983999999999996 180
-10.726600000000001 6.5078 -1.3135 25
-11.8203 7.171900000000001 1.126 126
-12.273399999999999 7.4453 -1.1689 193
-39.5625 24.0156 4.8594 243
-16.8438 10.2188 -1.1436 19
-21.8125 13.2344 -0.8892 183
-11.8203 7.171900000000001 2.1016 29
-11.8281 7.1797 2.4316 102
-8.0938 4.9531 -1.4404 83
-47.6875 29.1719 1.9502000000000002 165
-9.2031 5.6289 -1.3828 190
-46.7812 28.6094 3.1895 161
-10.710899999999999 6.550800000000001 -1.3154 116
-12.476600000000001 7.6328 -1.1914 78
-39.3125 24.0469 4.8398 226
-16.7812 10.2656 -1.1416 142
-21.7656 13.3125 -0.8892 225
-11.789100000000001 7.207000000000001 2.0996 241
-11.789100000000001 7.2109000000000005 2.4297 198
-8.0859 4.9805 -1.4413999999999998 78
-47.6875 29.3906 1.9541 37
-9.1953 5.667999999999999 -1.3838 187
-46.3438 28.5781 3.1660000000000004 139
-10.6953 6.5938 -1.3163999999999998 71
-11.875 7.3203 1.1357 191
-12.4219 7.6562 -1.1885 5
-39.5938 24.3906 4.8828 36
-16.7188 10.3047 -1.1406 170
-21.6719 13.3594 -0.8872 225
-41.7188 25.7031 -0.5722999999999999 124
-11.718800000000002 7.2265999999999995 2.4199 158
-8.0625 5.0078 -1.4413999999999998 169
-47.6875 29.625 1.959 9
-9.1797 5.703099999999999 -1.3847999999999998 57
-45.9375 28.5469 3.1445 141
-10.6719 6.6289 -1.3154 197
-11.914100000000001 7.4023 1.1416 193
-12.3906 7.699199999999999 -1.1885 72
-41.5312 25.8125 5.136699999999999 104
-16.6406 10.335899999999999 -1.1377 245
-21.5938 13.414100000000001 -0.8856999999999999 212
-36.5938 22.7344 -0.5029 156
-11.6406 7.234400000000001 2.4102 135
-8.0469 5.0391 -1.4413999999999998 200
-41.4375 25.9375 1.7050999999999998 92
-9.1797 5.7461 -1.3877000000000002 27
-42.75 26.7656 2.9316000000000004 214
-10.648399999999999 6.667999999999999 -1.3154 99
-39.9688 25.0156 3.8476999999999997 78
-12.3672 7.7461 -1.1885 37
-41.4062 25.9219 5.1289 222
-16.5781 10.3828 -1.1357 78
-21.4844 13.4531 -0.8837999999999999 37
-11.601600000000001 7.261699999999999 2.4062 162
-8.0234 5.0625 -1.4394999999999998 212
-41.25 26.0156 1.7012 193
-9.1719 5.7852 -1.3887 31
-42.5 26.8281 2.9219 251
-10.6094 6.6953 -1.3144999999999998 169
-39.5312 24.9531 3.8145 27
-12.343800000000002 7.7890999999999995 -1.1885 63
-40.6875 25.6719 5.0508 216
-16.5156 10.4219 -1.1338 152
-21.4062 13.5 -0.8818 30
-8.0078 5.0898 -1.4404 230
-9.1641 5.824199999999999 -1.3906 32
-39.1875 24.9219 2.6992000000000003 114
-10.6094 6.7461 -1.3174000000000001 218
-39.3438 25.0156 3.8047000000000004 30
-12.3125 7.828099999999999 -1.1875 79
-16.4531 10.468800000000002 -1.1318000000000001 189
-41.875 26.6406 6.3789 192
-21.3438 13.5703 -0.8813 91
-35.75 22.7188 -0.49439999999999995 219
-7.980499999999999 5.1133 -1.4394999999999998 201
-9.1484 5.859400000000001 -1.3916 217
-38.9375 24.9531 2.6895 11
-10.601600000000001 6.7890999999999995 -1.3184 180
-39.125 25.0781 3.793 60
-12.2578 7.855499999999999 -1.1855 173
-40.6562 26.0625 5.0703 58
-16.375 10.4922 -1.1289 154
-41.7812 26.7656 6.375 31
-21.2344 13.601600000000001 -0.8789 193
-7.9688 5.144500000000001 -1.4394999999999998 80
-44.6875 28.8594 1.8555000000000001 40
-9.1406 5.9023 -1.3936000000000002 196
-39.0 25.1875 2.6992000000000003 53
-10.5703 6.828099999999999 -1.3184 57
-38.9688 25.1562 3.7851999999999997 118
-12.226600000000001 7.894500000000001 -1.1845999999999999 81
-40.3125 26.0312 5.0391 120
-16.3125 10.531199999999998 -1.127 221
-40.3438 26.0469 6.171900000000001 234
-21.2188 13.6953 -0.8798999999999999 121
-7.9648 5.1836 -1.4424000000000001 152
-44.4062 28.9062 1.8486000000000002 191
-9.1406 5.9453 -1.3975 200
-38.9375 25.3281 2.6992000000000003 72
-10.5469 6.859400000000001 -1.3174000000000001 82
-38.8125 25.2656 3.7793 217
-12.2031 7.9414 -1.1855 209
-40.0938 26.0938 5.0234 73
-16.2656 10.585899999999999 -1.126 230
-40.25 26.2031 6.175800000000001 253
-21.0781 13.718800000000002 -0.8765000000000001 254
-44.0938 28.8906 1.8397999999999999 82
-9.1406 5.988300000000001 -1.4003999999999999 146
-44.0 28.8125 3.0566000000000004 146
-10.523399999999999 6.894500000000001 -1.3174000000000001 133
-39.0938 25.6094 3.8145 124
-12.1406 7.953099999999999 -1.1816 102
