# .PCD v0.7 - Point Cloud Data file format
VERSION 0.7
FIELDS x y z intensity
SIZE 4 4 4 4
TYPE F F F F
COUNT 1 1 1 1
WIDTH 1225
HEIGHT 1
VIEWPOINT 0 0 0 1 0 0 0
POINTS 1225
DATA ascii
-12.5 -1.1992 1.0225 181
-12.4922 -1.1982 1.3144999999999998 220
-12.335899999999999 -1.1836 1.5878999999999999 83
-12.1094 -1.1611 1.8486000000000002 108
-11.7344 -1.126 2.0723 125
-2.9452999999999996 -0.2727 -0.5142 210
-2.9961 -0.2773 -0.4524 229
-3.1973000000000003 -0.2959 0.1103 159
-12.4844 -1.1562000000000001 0.7271 8
-12.5 -1.1572 1.0215 14
-12.5 -1.1572 1.3154 123
-12.468800000000002 -1.1543 1.6044999999999998 72
-12.1797 -1.1279000000000001 1.8584 191
-11.718800000000002 -1.085 2.0684 118
-2.9473000000000003 -0.26289999999999997 -0.5142 30
-2.9844 -0.2664 -0.45020000000000004 222
-3.1933999999999996 -0.2849 0.11019999999999999 17
-12.5 -1.1162 0.7275 202
-12.4844 -1.1143 1.0205 81
-12.5078 -1.1162 1.3154 248
-12.476600000000001 -1.1133 1.6055000000000001 40
-12.335899999999999 -1.1016 1.8818000000000001 201
-11.7344 -1.0479 2.0703 179
-2.9512 -0.25239999999999996 -0.5151 204
-2.998 -0.2566 -0.4524 176
-3.1952999999999996 -0.2732 0.11019999999999999 2
-12.5 -1.0693000000000001 0.7271 196
-12.5 -1.0693000000000001 1.0215 177
-12.4922 -1.0684 1.3125 101
-12.476600000000001 -1.0674 1.6055000000000001 124
-12.3281 -1.0547 1.8809 20
-11.75 -1.0059 2.0723 184
-2.9452999999999996 -0.2416 -0.5136999999999999 7
-2.9922000000000004 -0.24539999999999998 -0.4512 157
-3.1914 -0.26170000000000004 0.11 73
-12.460899999999999 -1.0225 0.7245999999999999 126
-12.4453 -1.0215 1.0166 20
-12.4297 -1.0205 1.3066 244
-12.4453 -1.0205 1.6006 183
-12.335899999999999 -1.0117 1.8809 175
-11.726600000000001 -0.9623999999999999 2.0684 23
-2.9336 -0.23079999999999998 -0.5112 102
-2.9922000000000004 -0.23550000000000001 -0.4512 133
-3.1992000000000003 -0.252 0.1103 228
-12.4531 -0.98 0.7241 19
-12.4844 -0.9823999999999999 1.0195 118
-12.4922 -0.9829000000000001 1.3125 97
-12.468800000000002 -0.9814 1.6035 91
-12.335899999999999 -0.9706999999999999 1.8799000000000001 205
-11.710899999999999 -0.9218999999999999 2.0645 173
-2.9375 -0.2214 -0.5122 167
-2.9805 -0.22460000000000002 -0.4495 82
-3.1933999999999996 -0.24059999999999998 0.11 93
-12.4844 -0.9409000000000001 0.7256 22
-12.4844 -0.9409000000000001 1.0195 59
-12.5 -0.9423999999999999 1.3135 197
-12.460899999999999 -0.9395 1.6025 11
-12.335899999999999 -0.9297 1.8799000000000001 176
-11.7422 -0.8848 2.0684 152
-2.9473000000000003 -0.2112 -0.5136999999999999 138
-2.9766000000000004 -0.2133 -0.4485 214
-3.2012 -0.22949999999999998 0.1103 94
-12.4922 -0.8955 0.7261 192
-12.476600000000001 -0.8945000000000001 1.0186 194
-12.5078 -0.8965000000000001 1.3135 146
-12.468800000000002 -0.894 1.6025 2
-12.335899999999999 -0.8843000000000001 1.8799000000000001 168
-11.7344 -0.8408 2.0664 180
-2.9473000000000003 -0.2009 -0.5136999999999999 28
-2.9863 -0.2036 -0.45 102
-3.1952999999999996 -0.21780000000000002 0.11 167
-12.4922 -0.8521 0.7261 110
-12.4844 -0.8511 1.0186 42
-12.5 -0.8521 1.3125 118
-12.4844 -0.8511 1.6035 150
-12.4219 -0.8467 1.8916 141
-11.7344 -0.7998000000000001 2.0664 226
-2.9355 -0.1893 -0.5112 147
-2.9882999999999997 -0.19269999999999998 -0.45020000000000004 90
-3.1875 -0.20559999999999998 0.1097 54
-12.4844 -0.8051999999999999 0.7256 238
-12.4922 -0.8057 1.0186 203
-12.4844 -0.8051999999999999 1.3096 173
-12.4844 -0.8047 1.6035 87
-12.4453 -0.8022 1.8944999999999999 67
-12.1953 -0.7861 2.1465 186
-2.9336 -0.1788 -0.5107 194
-2.9961 -0.1827 -0.4512 40
-3.1992000000000003 -0.19519999999999998 0.11019999999999999 229
-12.476600000000001 -0.7612000000000001 0.7245999999999999 3
-12.4922 -0.7617 1.0186 137
-12.4844 -0.7612000000000001 1.3096 202
-12.468800000000002 -0.7606999999999999 1.6016 225
-12.4531 -0.7593000000000001 1.8955000000000002 113
-12.375 -0.7548999999999999 2.1797 222
-2.9316000000000004 -0.1691 -0.5103 191
-2.9745999999999997 -0.17149999999999999 -0.44780000000000003 132
-3.1973000000000003 -0.1843 0.11 208
-12.4844 -0.7197 0.7245999999999999 19
-12.4844 -0.7197 1.0176 157
-12.5 -0.7206999999999999 1.3115 112
-12.468800000000002 -0.7188 1.6006 36
-12.476600000000001 -0.7192000000000001 1.8984 159
-10.1875 -0.5874 1.7919999999999998 23
-2.9492000000000003 -0.1603 -0.5136999999999999 88
-2.9766000000000004 -0.1617 -0.4482 250
-3.1914 -0.17329999999999998 0.10980000000000001 187
-12.4844 -0.6781999999999999 0.7251000000000001 13
-12.468800000000002 -0.6777 1.0166 194
-12.5 -0.6792 1.3105000000000002 214
-12.476600000000001 -0.6777 1.6016 254
-12.476600000000001 -0.6777 1.8984 63
-10.25 -0.5566 1.8018 159
-2.9608999999999996 -0.15 -0.5151 182
-2.9745999999999997 -0.1506 -0.4475 187
-3.1776999999999997 -0.161 0.1093 130
-12.4844 -0.6323 0.7245999999999999 7
-12.476600000000001 -0.6323 1.0166 203
-12.4844 -0.6323 1.3096 225
-12.476600000000001 -0.6318 1.6016 49
-12.460899999999999 -0.6313 1.8965 81
-10.25 -0.519 1.8027000000000002 60
-2.9433999999999996 -0.1388 -0.5122 168
-2.9863 -0.1409 -0.4495 249
-3.1776999999999997 -0.1499 0.1093 28
-12.4844 -0.5889 0.7245999999999999 55
-12.4844 -0.5889 1.0176 163
-12.4922 -0.5889 1.3096 3
-12.4844 -0.5889 1.6025 231
-12.460899999999999 -0.5874 1.8955000000000002 239
-12.375 -0.5835 2.1777 74
-2.9199 -0.1285 -0.5078 200
-2.9961 -0.1318 -0.4509 28
-3.2148000000000003 -0.14150000000000001 0.1106 248
-12.468800000000002 -0.5488000000000001 0.7236 122
-12.4844 -0.5493 1.0176 101
-12.5 -0.5503 1.3105000000000002 191
-12.476600000000001 -0.5488000000000001 1.6006 153
-12.476600000000001 -0.5493 1.8984 17
-12.3594 -0.5439 2.1738 52
-2.9355 -0.11939999999999999 -0.5107 168
-2.9766000000000004 -0.12119999999999999 -0.44780000000000003 162
-3.1973000000000003 -0.1301 0.1099 152
-12.476600000000001 -0.5078 0.7236 55
-12.468800000000002 -0.5073 1.0156 202
-12.4844 -0.5078 1.3086000000000002 106
-12.468800000000002 -0.5073 1.5996000000000001 88
-12.4844 -0.5078 1.8984 158
-12.3672 -0.5034000000000001 2.1758 206
-2.9452999999999996 -0.10800000000000001 -0.5122 66
-2.9668 -0.10880000000000001 -0.44630000000000003 134
-3.1738 -0.1164 0.1091 163
-12.476600000000001 -0.4575 0.7236 247
-12.460899999999999 -0.457 1.0146 57
-12.4922 -0.45799999999999996 1.3096 51
-12.468800000000002 -0.4573 1.5996000000000001 248
-12.476600000000001 -0.4575 1.8975 226
-12.375 -0.4536 2.1758 80
-2.9452999999999996 -0.09720000000000001 -0.5122 231
-2.9863 -0.09849999999999999 -0.449 132
-3.1816000000000004 -0.105 0.1094 239
-12.4922 -0.4121 0.7245999999999999 230
-12.468800000000002 -0.4114 1.0156 220
-12.468800000000002 -0.41159999999999997 1.3066 19
-12.476600000000001 -0.41159999999999997 1.5996000000000001 45
-12.460899999999999 -0.4111 1.8944999999999999 144
-12.375 -0.4082 2.1758 96
-2.9375 -0.0882 -0.5107 26
-2.9863 -0.0897 -0.449 209
-3.1738 -0.0953 0.1091 36
-12.468800000000002 -0.37450000000000006 0.7231000000000001 171
-12.476600000000001 -0.37479999999999997 1.0156 134
-12.476600000000001 -0.37479999999999997 1.3075999999999999 4
-12.468800000000002 -0.37450000000000006 1.5996000000000001 216
-12.468800000000002 -0.37450000000000006 1.8955000000000002 113
-10.0312 -0.3013 1.7616999999999998 142
-2.9257999999999997 -0.0781 -0.5088 204
-2.9785000000000004 -0.0795 -0.44780000000000003 23
-3.1836 -0.085 0.1094 181
-12.460899999999999 -0.33299999999999996 0.7227 141
-12.468800000000002 -0.33299999999999996 1.0156 248
-12.476600000000001 -0.3333 1.3066 224
-12.460899999999999 -0.33299999999999996 1.5986000000000002 1
-12.468800000000002 -0.33299999999999996 1.8955000000000002 31
-12.3594 -0.3301 2.1738 36
-2.9297000000000004 -0.0675 -0.5093 9
-2.9824 -0.0687 -0.4485 82
-3.1875 -0.07339999999999999 0.1096 40
-12.476600000000001 -0.2874 0.7231000000000001 103
-12.468800000000002 -0.2874 1.0146 201
-12.476600000000001 -0.2876 1.3066 46
-12.460899999999999 -0.2871 1.5977000000000001 239
-12.468800000000002 -0.2874 1.8944999999999999 123
-12.3594 -0.2849 2.1738 6
-2.9452999999999996 -0.0576 -0.5122 173
-2.9668 -0.057999999999999996 -0.446 111
-3.1914 -0.062400000000000004 0.1097 13
-12.476600000000001 -0.2439 0.7236 233
-12.468800000000002 -0.2438 1.0156 148
-12.4922 -0.2441 1.3086000000000002 161
-12.460899999999999 -0.2437 1.5977000000000001 228
-12.460899999999999 -0.2437 1.8944999999999999 137
-12.375 -0.2421 2.1758 229
-2.9375 -0.0472 -0.5107 121
-2.9785000000000004 -0.0479 -0.44780000000000003 147
-3.1641000000000004 -0.0508 0.10869999999999999 37
-12.4844 -0.2004 0.7236 88
-12.476600000000001 -0.2003 1.0156 147
-12.4922 -0.2006 1.3086000000000002 148
-12.460899999999999 -0.2002 1.5977000000000001 153
-12.4453 -0.2 1.8916 196
-12.3906 -0.19899999999999998 2.1777 72
-2.9257999999999997 -0.0368 -0.5088 159
-2.9707 -0.0374 -0.4465 248
-3.1836 -0.04 0.1094 163
-12.468800000000002 -0.1567 0.7231000000000001 217
-12.4844 -0.15689999999999998 1.0156 236
-12.468800000000002 -0.1566 1.3056999999999999 37
-12.460899999999999 -0.1566 1.5977000000000001 61
-12.4531 -0.1565 1.8936000000000002 24
-12.375 -0.1555 2.1758 232
-2.9219 -0.027000000000000003 -0.5078 250
-2.9824 -0.0276 -0.4485 178
-3.1914 -0.029500000000000002 0.1097 46
-12.460899999999999 -0.1152 0.7222 38
-12.468800000000002 -0.1153 1.0146 180
-12.468800000000002 -0.1153 1.3056999999999999 195
-12.4453 -0.1151 1.5957 45
-12.460899999999999 -0.1153 1.8936000000000002 77
-12.3594 -0.1144 2.1719 125
-2.9316000000000004 -0.0174 -0.5093 117
-2.9805 -0.0177 -0.44780000000000003 41
-3.1797000000000004 -0.0189 0.1093 50
-12.468800000000002 -0.07400000000000001 0.7231000000000001 168
-12.476600000000001 -0.07400000000000001 1.0156 173
-12.468800000000002 -0.07400000000000001 1.3066 130
-12.4453 -0.0739 1.5957 5
-12.460899999999999 -0.07400000000000001 1.8944999999999999 218
-12.3672 -0.07339999999999999 2.1738 190
-2.9316000000000004 -0.0066 -0.5093 101
-2.9648000000000003 -0.0067 -0.4458 219
-3.1719 -0.0072 0.10890000000000001 251
-12.460899999999999 -0.028300000000000002 0.7227 25
-12.468800000000002 -0.028300000000000002 1.0146 188
-12.5156 -0.028399999999999998 1.3105000000000002 57
-12.4453 -0.0282 1.5957 29
-12.460899999999999 -0.028300000000000002 1.8936000000000002 60
-12.375 -0.0281 2.1738 59
-2.9395 0.0036 -0.5107 169
-2.9805 0.0036 -0.44780000000000003 9
-3.168 0.0039000000000000003 0.10880000000000001 237
-12.5156 0.015300000000000001 0.7256 168
-12.5469 0.015300000000000001 1.0215 16
-12.5625 0.015300000000000001 1.3154 110
-12.4531 0.0152 1.5966999999999998 2
-12.4453 0.0152 1.8916 254
-12.375 0.0151 2.1738 251
-2.9276999999999997 0.0138 -0.5088 250
-2.9726999999999997 0.013999999999999999 -0.447 191
-3.1855 0.015 0.1094 64
-12.5469 0.0591 0.7275 253
-12.5781 0.0593 1.0244 27
-12.585899999999999 0.0593 1.3184 72
-12.460899999999999 0.0587 1.5977000000000001 153
-12.4531 0.0587 1.8925999999999998 210
-12.3672 0.0583 2.1738 5
-2.9219 0.024 -0.5078 109
-2.9785000000000004 0.024399999999999998 -0.44780000000000003 122
-3.1776999999999997 0.026099999999999998 0.1092 180
-12.585899999999999 0.1033 0.7295 93
-12.718800000000002 0.10439999999999999 1.0352 193
-12.75 0.10460000000000001 1.3359 195
-12.4531 0.10210000000000001 1.5957 112
-12.4531 0.10220000000000001 1.8925999999999998 115
-12.351600000000001 0.1013 2.1699 251
-2.9257999999999997 0.0342 -0.5088 218
-2.9766000000000004 0.0348 -0.4475 126
-3.1875 0.0373 0.1096 251
-12.718800000000002 0.14880000000000002 0.7378 200
-12.7578 0.1492 1.0391 2
-12.773399999999999 0.1494 1.3378999999999999 116
-12.4453 0.14550000000000002 1.5957 46
-12.468800000000002 0.1458 1.8944999999999999 75
-12.3594 0.1445 2.1719 100
-2.9297000000000004 0.044500000000000005 -0.5093 73
-2.9668 0.0451 -0.446 249
-3.1776999999999997 0.0482 0.1092 91
-12.75 0.1936 0.7393000000000001 45
-12.7578 0.1937 1.0391 141
-12.7656 0.1938 1.3369 255
-12.4531 0.1891 1.5957 100
-12.4531 0.1891 1.8925999999999998 100
-12.3672 0.1877 2.1738 254
-2.9375 0.054900000000000004 -0.5107 232
-2.9726999999999997 0.0555 -0.447 179
-3.168 0.0592 0.10880000000000001 58
-12.7578 0.23829999999999998 0.7397 143
-12.7656 0.23850000000000002 1.04 249
-12.7656 0.2384 1.3378999999999999 226
-12.460899999999999 0.2327 1.5977000000000001 60
-12.4453 0.2324 1.8916 102
-12.375 0.23120000000000002 2.1758 197
-2.9219 0.06480000000000001 -0.5078 253
-2.9745999999999997 0.066 -0.4473 94
-3.1699 0.0703 0.10890000000000001 100
-12.75 0.2827 0.7393000000000001 89
-12.7656 0.28300000000000003 1.0391 62
-12.75 0.2827 1.3359 28
-12.468800000000002 0.2764 1.5986000000000002 193
-12.4531 0.2761 1.8925999999999998 124
-12.351600000000001 0.2737 2.1699 204
-2.9141000000000004 0.07429999999999999 -0.5068 175
-2.9785000000000004 0.0759 -0.44780000000000003 145
-3.1836 0.08109999999999999 0.1094 209
-12.7344 0.3245 0.7383 112
-12.773399999999999 0.3257 1.04 91
-12.7578 0.32520000000000004 1.3369 249
-12.4531 0.31739999999999996 1.5966999999999998 82
-12.4531 0.31739999999999996 1.8936000000000002 128
-12.351600000000001 0.31489999999999996 2.1719 40
-2.9238 0.0842 -0.5083 124
-2.9766000000000004 0.0858 -0.4475 158
-3.1855 0.0917 0.1094 214
-12.7344 0.3669 0.7387999999999999 207
-12.75 0.36719999999999997 1.0381 83
-12.773399999999999 0.3679 1.3388999999999998 15
-12.4375 0.35840000000000005 1.5957 43
-12.460899999999999 0.3591 1.8944999999999999 163
-12.343800000000002 0.3555 2.1699 90
-2.9395 0.0955 -0.5112 250
-2.9589999999999996 0.09609999999999999 -0.4448 182
-3.1757999999999997 0.10310000000000001 0.1092 97
-12.75 0.41409999999999997 0.7397 39
-12.7578 0.4143 1.0391 126
-12.7656 0.4146 1.3378999999999999 217
-12.4375 0.40380000000000005 1.5947 173
-12.4375 0.40409999999999996 1.8916 91
-12.351600000000001 0.4011 2.1719 72
-2.9414 0.1058 -0.5112 46
-2.9668 0.10679999999999999 -0.44630000000000003 40
-3.1757999999999997 0.1143 0.1092 191
-12.6953 0.45649999999999996 0.7363 112
-12.75 0.4585 1.0381 24
-12.75 0.4585 1.3359 214
-12.4453 0.44780000000000003 1.5966999999999998 119
-12.4453 0.44780000000000003 1.8925999999999998 35
-12.3672 0.4448 2.1758 78
-2.9238 0.11539999999999999 -0.5088 207
-2.9766000000000004 0.1175 -0.44780000000000003 23
-3.1641000000000004 0.1249 0.10880000000000001 238
-12.7656 0.5039 1.04 92
-12.7422 0.5029 1.3359 77
-12.4531 0.4915 1.5977000000000001 235
-12.4453 0.49119999999999997 1.8925999999999998 197
-12.351600000000001 0.4875 2.1719 163
-2.9160000000000004 0.1252 -0.5073 199
-2.9785000000000004 0.12789999999999999 -0.4482 253
-3.1952999999999996 0.13720000000000002 0.1099 46
-3.1348000000000003 0.1346 -0.3982 44
-12.726600000000001 0.5468999999999999 0.7383 144
-12.75 0.5478999999999999 1.0391 60
-12.7578 0.5478999999999999 1.3369 21
-12.4453 0.5347 1.5966999999999998 16
-12.460899999999999 0.5352 1.8955000000000002 132
-12.343800000000002 0.5303 2.1719 9
-2.9238 0.1359 -0.5088 255
-2.9688 0.1379 -0.4465 57
-3.1719 0.14730000000000001 0.1091 36
-12.7422 0.5918 0.7393000000000001 2
-12.7422 0.5922999999999999 1.0381 201
-12.75 0.5922999999999999 1.3369 94
-12.4375 0.5776 1.5957 100
-12.4453 0.5781000000000001 1.8936000000000002 167
-12.343800000000002 0.5732 2.1699 16
-2.9336 0.1465 -0.5103 136
-2.9648000000000003 0.1481 -0.446 148
-3.1620999999999997 0.158 0.10880000000000001 3
-12.718800000000002 0.6357 0.7383 253
-12.7422 0.6362 1.0381 233
-12.7578 0.6372 1.3378999999999999 211
-12.4297 0.6211 1.5957 83
-12.4297 0.6211 1.8916 231
-12.351600000000001 0.6172 2.1738 39
-2.9355 0.157 -0.5112 175
-2.9668 0.15869999999999998 -0.4465 172
-3.1797000000000004 0.1699 0.1094 237
-12.7422 0.6812 0.7397 52
-12.7344 0.6807 1.0381 125
-12.7422 0.6812 1.3369 32
-12.4453 0.6655 1.5977000000000001 85
-12.4297 0.6640999999999999 1.8906 44
-12.3594 0.6606000000000001 2.1738 132
-2.9238 0.16649999999999998 -0.5088 120
-2.9805 0.1698 -0.4487 163
-3.1797000000000004 0.18100000000000002 0.1094 45
-12.7344 0.7251000000000001 0.7393000000000001 98
-12.75 0.7265999999999999 1.04 243
-12.726600000000001 0.7251000000000001 1.335 159
-12.4531 0.7090000000000001 1.5986000000000002 61
-12.4297 0.708 1.8925999999999998 82
-12.343800000000002 0.7031000000000001 2.1738 16
-2.9238 0.17679999999999998 -0.5088 46
-2.9863 0.1805 -0.4497 122
-3.1757999999999997 0.192 0.1093 251
-12.664100000000001 0.7656000000000001 0.7354 2
-12.7578 0.7715000000000001 1.04 161
-12.7578 0.7709999999999999 1.3388999999999998 251
-12.4375 0.752 1.5977000000000001 2
-12.4375 0.752 1.8936000000000002 70
-12.343800000000002 0.7465999999999999 2.1738 220
-2.9219 0.187 -0.5088 48
-2.9648000000000003 0.18969999999999998 -0.4465 10
-3.1757999999999997 0.20309999999999997 0.1093 220
-12.726600000000001 0.8140000000000001 0.7393000000000001 141
-12.7422 0.8149 1.0391 185
-12.718800000000002 0.8134999999999999 1.335 193
-12.4375 0.7954000000000001 1.5977000000000001 25
-12.4375 0.7954000000000001 1.8936000000000002 140
-12.343800000000002 0.7896 2.1738 158
-2.9297000000000004 0.1978 -0.5103 197
-2.957 0.19949999999999998 -0.44530000000000003 56
-3.1776999999999997 0.2144 0.1094 153
-12.7031 0.8573999999999999 0.7383 206
-12.5781 0.8486 1.0264 119
-12.5469 0.8467 1.3174000000000001 141
-12.4375 0.8393999999999999 1.5986000000000002 223
-12.4375 0.8389 1.8936000000000002 169
-12.351600000000001 0.8334999999999999 2.1758 204
-2.9336 0.20829999999999999 -0.5112 123
-2.9648000000000003 0.2104 -0.4465 0
-3.1719 0.22510000000000002 0.1093 50
-12.531199999999998 0.8892 0.728 156
-12.523399999999999 0.8892 1.0225 131
-12.523399999999999 0.8892 1.3154 157
-12.460899999999999 0.8843000000000001 1.6016 211
-12.4297 0.8823000000000001 1.8936000000000002 81
-12.351600000000001 0.8765000000000001 2.1758 33
-2.9199 0.217 -0.5088 242
-2.9726999999999997 0.22089999999999999 -0.4482 241
-3.1641000000000004 0.2351 0.10890000000000001 86
-12.5078 0.9292 0.7271 117
-12.5156 0.9301999999999999 1.0215 210
-12.5156 0.9297 1.3144999999999998 89
-12.460899999999999 0.9262999999999999 1.6025 215
-12.4219 0.9233 1.8936000000000002 114
-12.335899999999999 0.917 2.1738 196
-2.9199 0.2267 -0.5088 1
-2.9707 0.23070000000000002 -0.44780000000000003 180
-3.1776999999999997 0.2468 0.1096 37
-12.4922 0.9702 0.7265999999999999 25
-12.5078 0.9712000000000001 1.0215 221
-12.5078 0.9712000000000001 1.3135 227
-12.468800000000002 0.9678 1.6025 225
-12.4297 0.9653 1.8944999999999999 56
-12.335899999999999 0.9575 2.1738 122
-2.9141000000000004 0.2369 -0.5078 169
-2.9648000000000003 0.2412 -0.4473 208
-3.1895 0.2595 0.1099 20
-12.5078 1.0176 0.7275 94
-12.5078 1.0176 1.0215 84
-12.523399999999999 1.0186 1.3163999999999998 202
-12.460899999999999 1.0137 1.6025 3
-12.4375 1.0117 1.8955000000000002 35
-12.343800000000002 1.0039 2.1758 28
-2.9238 0.2482 -0.5103 73
-2.9668 0.25170000000000003 -0.4475 21
-3.1719 0.2693 0.1094 143
-12.4844 1.0595999999999999 0.7265999999999999 24
-12.5 1.0605 1.0215 89
-12.531199999999998 1.0635 1.3174000000000001 181
-12.460899999999999 1.0576 1.6035 251
-12.4219 1.0537 1.8944999999999999 119
-12.335899999999999 1.0469 2.1758 173
-2.9238 0.2583 -0.5103 139
-2.9589999999999996 0.2615 -0.44630000000000003 249
-3.1601999999999997 0.2793 0.10890000000000001 197
-12.5156 1.1055 0.728 255
-12.531199999999998 1.1074 1.0244 148
-12.6875 1.1211 1.334 57
-12.476600000000001 1.1025 1.6055000000000001 46
-12.414100000000001 1.0967 1.8944999999999999 49
-12.343800000000002 1.0908 2.1777 71
-2.9141000000000004 0.26780000000000004 -0.5088 120
-2.9726999999999997 0.2732 -0.4487 103
-3.1660000000000004 0.29100000000000004 0.1093 52
-12.539100000000001 1.1523 0.73 75
-12.7344 1.1709 1.041 241
-12.7344 1.1699 1.3388999999999998 176
-12.468800000000002 1.1455 1.6055000000000001 69
-12.414100000000001 1.1406 1.8944999999999999 63
-12.3281 1.1328 2.1758 242
-2.9141000000000004 0.2781 -0.5088 212
-2.9745999999999997 0.2837 -0.449 36
-3.1504000000000003 0.3005 0.10869999999999999 231
-12.5 1.1924 0.728 58
-12.7422 1.2158 1.042 241
-12.726600000000001 1.2139 1.3388999999999998 181
-12.468800000000002 1.1895 1.6055000000000001 185
-12.4297 1.1855 1.8975 187
-12.3281 1.1758 2.1758 25
-2.9120999999999997 0.28809999999999997 -0.5088 194
-2.9589999999999996 0.2927 -0.447 99
-3.1719 0.314 0.1096 58
-12.4844 1.2354 0.7275 17
-12.7344 1.2598 1.041 4
-12.7344 1.2598 1.3397999999999999 209
-12.460899999999999 1.2324 1.6044999999999998 52
-12.4219 1.2295 1.8975 26
-12.3203 1.2187999999999999 2.1758 117
-2.9219 0.2993 -0.5103 55
-2.9551 0.30269999999999997 -0.44630000000000003 212
-3.168 0.3245 0.1094 190
-12.5078 1.2812000000000001 0.7290000000000001 166
-12.718800000000002 1.3027000000000002 1.041 171
-12.7344 1.3047 1.3408000000000002 14
-12.468800000000002 1.2773 1.6063999999999998 163
-12.4219 1.2725 1.8975 29
-12.3281 1.2627 2.1777 37
-2.9219 0.3098 -0.5107 62
-2.9648000000000003 0.31420000000000003 -0.4482 217
-3.1620999999999997 0.33520000000000005 0.1093 27
-12.5156 1.3262 0.7295 147
-12.718800000000002 1.3477000000000001 1.041 2
-12.726600000000001 1.3486000000000002 1.3397999999999999 10
-12.468800000000002 1.3213 1.6074000000000002 63
-12.414100000000001 1.3154 1.8965 83
-12.335899999999999 1.3075999999999999 2.1797 203
-2.918 0.3196 -0.5103 239
-2.9785000000000004 0.3262 -0.45020000000000004 96
-3.1738 0.34740000000000004 0.1097 251
-12.4297 1.3613 0.7245999999999999 164
-12.726600000000001 1.3936000000000002 1.042 67
-12.726600000000001 1.3936000000000002 1.3408000000000002 200
-12.476600000000001 1.3662 1.6094 56
-12.414100000000001 1.3594 1.8975 31
-12.3125 1.3486000000000002 2.1777 83
-2.9120999999999997 0.3293 -0.5093 47
-2.9726999999999997 0.33590000000000003 -0.4497 218
-3.168 0.3582 0.1096 46
-12.4922 1.4121000000000001 0.7290000000000001 136
-12.718800000000002 1.4385 1.042 91
-12.718800000000002 1.4385 1.3408000000000002 192
-12.460899999999999 1.4082 1.6074000000000002 235
-12.4219 1.4043 1.8994 172
-12.3125 1.3916 2.1777 211
-2.9160000000000004 0.3389 -0.5103 138
-2.9707 0.3455 -0.4497 111
-3.1836 0.3699 0.1101 45
-12.5 1.4531 0.7295 130
-12.7344 1.4794999999999998 1.043 213
-12.726600000000001 1.4794999999999998 1.3428 164
-12.468800000000002 1.4491999999999998 1.6094 125
-12.4297 1.4443000000000001 1.9013999999999998 92
-12.3203 1.4325999999999999 2.1797 183
-2.9199 0.34909999999999997 -0.5112 51
-2.9629000000000003 0.3542 -0.4485 242
-3.1776999999999997 0.3801 0.1099 196
-12.4922 1.4941 0.7295 253
-12.6797 1.5166 1.0391 36
-12.726600000000001 1.5225 1.3428 191
-12.468800000000002 1.4912 1.6094 155
-12.414100000000001 1.4844 1.9003999999999999 161
-12.3203 1.4736000000000002 2.1816 206
-2.9238 0.36060000000000003 -0.5122 43
-3.3007999999999997 0.40700000000000003 0.038 142
-2.9668 0.366 -0.4495 58
-3.168 0.3906 0.1097 178
-3.1151999999999997 0.384 -0.3982 187
-12.4844 1.5391 0.7290000000000001 223
-12.710899999999999 1.5674000000000001 1.043 209
-12.718800000000002 1.5684 1.3418 211
-12.4844 1.54 1.6122999999999998 226
-12.414100000000001 1.5312000000000001 1.9003999999999999 172
-3.168 0.3906 -0.0364 208
-12.3047 1.5175999999999998 2.1797 215
-2.918 0.3701 -0.5112 120
-2.9726999999999997 0.3772 -0.45039999999999997 85
-3.1699 0.4023 0.10980000000000001 24
-12.531199999999998 1.5897999999999999 0.7323999999999999 36
-12.718800000000002 1.6133000000000002 1.0439 72
-12.710899999999999 1.6133000000000002 1.3428 94
-12.4844 1.584 1.6133000000000002 240
-3.1348000000000003 0.39770000000000005 -0.10859999999999999 192
-12.414100000000001 1.5741999999999998 1.9013999999999998 32
-3.1113 0.3945 -0.0358 188
-12.3281 1.5635 2.1836 179
-2.9120999999999997 0.3796 -0.5103 141
-2.9745999999999997 0.38789999999999997 -0.4509 127
-3.1816000000000004 0.41479999999999995 0.11019999999999999 33
-3.1094 0.40549999999999997 -0.3979 207
-12.539100000000001 1.6347999999999998 0.7329000000000001 155
-3.125 0.4075 -0.3267 83
-12.718800000000002 1.6591999999999998 1.0439 31
-3.0410000000000004 0.39649999999999996 -0.24670000000000003 62
-12.710899999999999 1.6582 1.3428 221
-3.0586 0.39890000000000003 -0.17679999999999998 65
-12.4844 1.6279 1.6133000000000002 114
-3.1660000000000004 0.4128 -0.1097 218
-12.414100000000001 1.6191 1.9022999999999999 47
-3.1641000000000004 0.4128 -0.0364 83
-12.3047 1.6044999999999998 2.1816 226
-2.9004000000000003 0.3887 -0.5088 167
-2.9629000000000003 0.397 -0.4495 214
-3.1875 0.42700000000000005 0.1105 198
-2.998 0.40159999999999996 -0.3835 126
-12.3906 1.6602000000000001 0.7251000000000001 245
-3.0156 0.40409999999999996 -0.3152 195
-12.7031 1.7012 1.043 45
-3.0351999999999997 0.4065 -0.2465 212
-12.718800000000002 1.7041 1.3437999999999999 9
-3.0898000000000003 0.4138 -0.17859999999999998 12
-12.468800000000002 1.6699000000000002 1.6122999999999998 84
-3.0645 0.4106 -0.10619999999999999 66
-12.4219 1.6641 1.9043 243
-3.1641000000000004 0.4238 -0.0364 159
-12.3125 1.6494 2.1836 168
-2.918 0.40159999999999996 -0.5117 51
-2.9589999999999996 0.4075 -0.449 198
-3.1855 0.4387 0.1105 160
-2.9824 0.4106 -0.3818 12
-12.585899999999999 1.7334 0.7368000000000001 144
-3.0117000000000003 0.4146 -0.31489999999999996 87
-12.7031 1.749 1.0439 156
-3.0214999999999996 0.41600000000000004 -0.2455 251
-12.718800000000002 1.751 1.3447 185
-3.0801 0.4241 -0.1782 182
-12.476600000000001 1.7187999999999999 1.6152000000000002 197
-3.1035000000000004 0.42719999999999997 -0.1076 139
-12.406199999999998 1.7080000000000002 1.9022999999999999 96
-3.1620999999999997 0.4353 -0.0364 104
-12.3125 1.6963 2.1855 242
-2.9297000000000004 0.4138 -0.5142 181
-2.9668 0.4189 -0.45020000000000004 150
-3.1582 0.44630000000000003 0.1096 102
-2.9785000000000004 0.4207 -0.38130000000000003 64
-12.6094 1.7812000000000001 0.7383 174
-3.0273000000000003 0.4275 -0.31670000000000004 60
-12.710899999999999 1.7959 1.0449 147
-3.0117000000000003 0.4255 -0.24480000000000002 40
-12.710899999999999 1.7949000000000002 1.3447 197
-3.0664 0.43310000000000004 -0.1775 246
-12.468800000000002 1.7616999999999998 1.6152000000000002 227
-3.1601999999999997 0.4465 -0.1097 80
-12.3906 1.751 1.9022999999999999 247
-3.2324 0.45649999999999996 -0.0373 184
-12.3203 1.7402000000000002 2.1855 74
-2.9160000000000004 0.4224 -0.5122 2
-2.9648000000000003 0.4292 -0.45020000000000004 173
-3.1504000000000003 0.45630000000000004 0.1094 176
-2.9668 0.42969999999999997 -0.3801 7
-12.5781 1.8213 0.7368000000000001 145
-3.0351999999999997 0.4397 -0.3179 233
-12.585899999999999 1.8222999999999998 1.0352 90
-3.0214999999999996 0.43770000000000003 -0.2457 240
-12.710899999999999 1.8408000000000002 1.3457 192
-3.0723000000000003 0.4451 -0.17800000000000002 0
-12.476600000000001 1.8066 1.6162 131
-3.1348000000000003 0.45409999999999995 -0.10880000000000001 244
-12.398399999999999 1.7949000000000002 1.9033000000000002 90
-3.1582 0.4575 -0.0364 171
-12.3047 1.7822 2.1855 78
-2.8945 0.42969999999999997 -0.5088 190
-2.9745999999999997 0.4414 -0.4521 159
-3.1660000000000004 0.4697 0.1099 147
-2.9785000000000004 0.44189999999999996 -0.3818 63
-12.5547 1.8633000000000002 0.7358 15
-3.0176 0.44780000000000003 -0.31620000000000004 169
-12.664100000000001 1.8788999999999998 1.042 37
-3.0214999999999996 0.4482 -0.2457 96
-12.523399999999999 1.8584 1.3262 203
-3.043 0.4517 -0.17629999999999998 164
-12.476600000000001 1.8506 1.6162 252
-3.1582 0.4685 -0.1097 252
-12.398399999999999 1.8397999999999999 1.9043 66
-3.1211 0.4631 -0.036000000000000004 218
-12.2969 1.8252000000000002 2.1855 27
-2.9101999999999997 0.4421 -0.5112 11
-2.9726999999999997 0.4517 -0.4521 177
-3.1719 0.4819 0.11019999999999999 130
-2.9863 0.4539 -0.3831 91
-12.5078 1.9013999999999998 0.7334 207
-3.0195 0.45899999999999996 -0.3164 56
-12.5078 1.9003999999999999 1.0293 75
-3.0273000000000003 0.46 -0.2465 145
-12.4844 1.8975 1.3232 167
-3.0858999999999996 0.46880000000000005 -0.1788 241
-12.4531 1.8925999999999998 1.6152000000000002 85
-3.0995999999999997 0.47119999999999995 -0.10769999999999999 237
-12.406199999999998 1.8847999999999998 1.9062000000000001 157
-3.1562 0.47950000000000004 -0.0364 99
-12.3047 1.8691 2.1875 60
-2.9160000000000004 0.4534 -0.5127 176
-2.9512 0.45899999999999996 -0.449 80
-3.1816000000000004 0.4949 0.1107 147
-2.9901999999999997 0.46509999999999996 -0.38380000000000003 59
-12.4922 1.9434 0.7329000000000001 91
-3.0156 0.469 -0.31620000000000004 178
-12.468800000000002 1.9385 1.0273 121
-3.0176 0.4692 -0.2457 191
-12.4844 1.9424000000000001 1.3241999999999998 160
-3.0566000000000004 0.4753 -0.1772 179
-12.414100000000001 1.9306999999999999 1.6103999999999998 166
-3.1074 0.4832 -0.10800000000000001 139
-12.3906 1.9277000000000002 1.9062000000000001 128
-3.1543 0.4905 -0.0364 109
-12.3047 1.9131 2.1875 235
-2.9219 0.4639 -0.5142 95
-2.9688 0.47119999999999995 -0.4517 171
-3.1367000000000003 0.498 0.1091 24
-2.9863 0.4739 -0.3833 47
-12.4375 1.9746000000000001 0.73 219
-3.0410000000000004 0.4827 -0.3191 27
-12.3906 1.9668 1.0215 83
-3.0156 0.4788 -0.2457 157
-12.414100000000001 1.9697 1.3163999999999998 24
-3.0702999999999996 0.48729999999999996 -0.1782 37
-12.398399999999999 1.9678 1.6094 139
-3.252 0.5161 -0.11320000000000001 127
-12.3906 1.9668 1.9062000000000001 95
-3.2226999999999997 0.5117 -0.0373 213
-12.3203 1.9561000000000002 2.1914 109
-2.9082 0.4717 -0.5122 187
-2.9922000000000004 0.4851 -0.4556 186
-3.1582 0.5122 0.1099 110
-2.9901999999999997 0.4849 -0.384 241
-12.3906 2.0098 0.728 63
-3.0098000000000003 0.488 -0.3159 72
-12.398399999999999 2.0098 1.0225 90
-3.0370999999999997 0.4927 -0.2477 238
-12.406199999999998 2.0117 1.3163999999999998 255
-3.0254000000000003 0.4905 -0.1757 203
-12.3906 2.0078 1.6094 78
-12.3906 2.0098 1.9072 31
-3.1504000000000003 0.5107 -0.0364 220
-12.3047 1.9941 2.1895 91
-2.9238 0.4851 -0.5151 137
-2.9766000000000004 0.4939 -0.4536 103
-3.1445 0.522 0.1096 96
-2.9844 0.4951 -0.3835 63
-12.3828 2.0547 0.7275 245
-3.0214999999999996 0.5015 -0.31739999999999996 88
-12.406199999999998 2.0586 1.0234 171
-3.0410000000000004 0.5044 -0.248 125
-12.398399999999999 2.0566 1.3163999999999998 158
-3.0858999999999996 0.5122 -0.1793 47
-12.3906 2.0547 1.6103999999999998 125
-3.168 0.5259 -0.1104 10
-12.398399999999999 2.0566 1.9091999999999998 226
-3.1855 0.5288 -0.0369 96
-12.289100000000001 2.0391 2.1895 56
-2.9043 0.4924 -0.5122 110
-2.957 0.5015 -0.4509 223
-3.1836 0.5396 0.1109 211
-2.9882999999999997 0.5063 -0.3843 112
-12.3828 2.0996 0.728 41
-3.0233999999999996 0.5127 -0.3179 37
-12.3906 2.0996 1.0234 35
-3.0351999999999997 0.5142 -0.2477 91
-12.414100000000001 2.1035 1.3184 119
-3.0839999999999996 0.5229 -0.1793 65
-12.375 2.0977 1.6094 224
-3.1191000000000004 0.5288 -0.10869999999999999 207
-12.3906 2.0996 1.9091999999999998 51
-3.1445 0.5332 -0.0364 155
-12.2969 2.084 2.1914 12
-2.9101999999999997 0.5044 -0.5136999999999999 10
-2.9551 0.5122 -0.4509 82
-3.1719 0.5498 0.1107 236
-2.9745999999999997 0.5156000000000001 -0.38280000000000003 140
-12.398399999999999 2.1484 0.7295 160
-3.0332 0.5259 -0.3191 149
-12.3906 2.1465 1.0234 215
-3.0176 0.5229 -0.2465 32
-12.406199999999998 2.1504 1.3193000000000001 148
-3.0976999999999997 0.5371 -0.18030000000000002 103
-12.3828 2.1465 1.6113 128
-3.1641000000000004 0.5483 -0.1104 68
-12.3828 2.1465 1.9102000000000001 27
-3.1426 0.5444 -0.0364 86
-12.3047 2.1328 2.1953 243
-2.918 0.5161 -0.5151 50
-2.957 0.5229 -0.4514 226
-3.1660000000000004 0.5600999999999999 0.1105 142
-2.9707 0.5254 -0.3826 23
-12.398399999999999 2.1934 0.73 91
-3.043 0.5386 -0.32030000000000003 45
-12.3906 2.1914 1.0244 252
-3.0233999999999996 0.5347 -0.24710000000000001 111
-12.406199999999998 2.1934 1.3193000000000001 118
-3.0957 0.5478999999999999 -0.18030000000000002 179
-12.3906 2.1914 1.6122999999999998 212
-3.2422000000000004 0.5732 -0.11320000000000001 55
-12.375 2.1895 1.9102000000000001 48
-3.1797000000000004 0.5625 -0.0369 179
-12.2969 2.1738 2.1934 249
-2.9043 0.5234000000000001 -0.5127 91
-2.9629000000000003 0.5342 -0.4526 160
-3.1620999999999997 0.5703 0.1104 232
-2.9805 0.5376 -0.384 80
-12.3906 2.2324 0.7295 149
-3.0293 0.5464 -0.3191 88
-12.406199999999998 2.2363 1.0264 111
-3.0137 0.5435 -0.2465 64
-12.3906 2.2344 1.3184 165
-3.0957 0.5581 -0.18030000000000002 142
-12.398399999999999 2.2344 1.6152000000000002 120
-3.1406 0.5664 -0.1097 249
-12.375 2.2324 1.9111000000000002 211
-12.289100000000001 2.2168 2.1953 141
-2.8983999999999996 0.5322 -0.5122 53
-2.9608999999999996 0.5439 -0.4526 236
-3.1797000000000004 0.584 0.11109999999999999 59
-2.9863 0.5488000000000001 -0.38530000000000003 149
-12.375 2.2734 0.7295 180
-3.0214999999999996 0.5547 -0.3181 52
-12.414100000000001 2.2793 1.0273 30
-3.0233999999999996 0.5552 -0.24739999999999998 134
-12.3906 2.2773 1.3193000000000001 166
-3.0938 0.5684 -0.18030000000000002 36
-12.3828 2.2754 1.6143 96
-12.3906 2.2754 1.9141 110
-12.289100000000001 2.2578 2.1953 5
-2.9004000000000003 0.5439 -0.5127 233
-2.9707 0.5571 -0.4546 49
-3.168 0.5942000000000001 0.1108 109
-2.9922000000000004 0.561 -0.3862 227
-12.3828 2.3223 0.7304999999999999 29
-3.002 0.563 -0.3164 65
-12.375 2.3203 1.0254 4
-3.1308999999999996 0.5869 -0.2566 113
-12.406199999999998 2.3262 1.3213 184
-12.375 2.3203 1.6143 161
-12.3906 2.3242 1.916 36
-12.2969 2.3066 2.1992 42
-2.9101999999999997 0.5562 -0.5151 51
-2.9608999999999996 0.5659000000000001 -0.4534 45
-3.1699 0.606 0.1109 115
-2.9882999999999997 0.5713 -0.386 221
-12.398399999999999 2.3691 0.7314 113
-12.375 2.3652 1.0254 94
-4.2031 0.8031999999999999 -0.3457 230
-12.406199999999998 2.3711 1.3232 74
-12.375 2.3652 1.6152000000000002 185
-12.375 2.3652 1.915 92
-12.3125 2.3535 2.2031 172
-2.9199 0.5688 -0.5171 216
-2.9629000000000003 0.5776 -0.4539 197
-3.1406 0.6123 0.1099 247
-3.2129000000000003 0.626 -0.4155 127
-12.398399999999999 2.416 0.7319 127
-12.3828 2.4121 1.0264 253
-4.1875 0.8159000000000001 -0.3447 8
-12.398399999999999 2.418 1.3232 58
-12.3828 2.4121 1.6172 4
-12.3672 2.4102 1.915 169
-12.2969 2.3965 2.2012 8
-2.9101999999999997 0.5776 -0.5156000000000001 98
-2.9648000000000003 0.5889 -0.4546 242
-3.1543 0.6265 0.1105 120
-3.2733999999999996 0.6498999999999999 -0.4236 162
-12.3828 2.459 0.7319 228
-12.3828 2.459 1.0273 172
-4.2539 0.8447 -0.3506 71
-12.375 2.457 1.3213 55
-12.3828 2.459 1.6181999999999999 132
-12.3672 2.4551 1.916 107
-12.289100000000001 2.4395 2.2012 2
-2.9004000000000003 0.5864 -0.5142 25
-2.9707 0.6006 -0.4556 109
-3.1406 0.6347999999999999 0.1101 86
-12.375 2.502 0.7319 247
-12.3828 2.5039 1.0283 75
-4.2109 0.8515999999999999 -0.34740000000000004 188
-12.3828 2.5039 1.3232 189
-12.375 2.502 1.6181999999999999 221
-12.3828 2.502 1.9188999999999998 74
-12.281199999999998 2.4824 2.2012 141
-2.9062 0.5981000000000001 -0.5156000000000001 110
-2.957 0.6084 -0.4539 237
-3.1738 0.6533 0.11130000000000001 235
-12.375 2.5469 0.7323999999999999 23
-12.375 2.5469 1.0283 187
-4.25 0.8745 -0.3506 120
-12.3828 2.5488 1.3241999999999998 73
-12.3672 2.5449 1.6181999999999999 96
-12.3828 2.5488 1.9209 115
-12.281199999999998 2.5273 2.2031 212
-2.9120999999999997 0.6089 -0.5171 133
-2.9512 0.6172 -0.4534 172
-3.1641000000000004 0.6616 0.11109999999999999 170
-12.3906 2.5898000000000003 0.7339 174
-12.375 2.5879000000000003 1.0293 220
-4.2461 0.8876999999999999 -0.3506 65
-12.3906 2.5918 1.3262 164
-12.3672 2.5858999999999996 1.6200999999999999 243
-12.375 2.5879000000000003 1.9219 4
-12.289100000000001 2.5702999999999996 2.207 215
-2.9120999999999997 0.6191 -0.5176 41
-2.957 0.6284000000000001 -0.4546 165
-3.1464999999999996 0.6685 0.1105 203
-12.3828 2.6308999999999996 0.7339 34
-12.375 2.6289 1.0293 238
-12.3828 2.6308999999999996 1.3262 194
-12.3828 2.6308999999999996 1.6221 249
-12.3594 2.627 1.9209 164
-12.289100000000001 2.6132999999999997 2.209 23
-2.9023000000000003 0.6284000000000001 -0.5161 175
-2.9629000000000003 0.6411 -0.4556 82
-3.1738 0.687 0.1116 168
-12.375 2.6776999999999997 0.7339 156
-12.3828 2.6797000000000004 1.0312000000000001 215
-12.3828 2.6797000000000004 1.3271000000000002 68
-12.375 2.6776999999999997 1.6230000000000002 144
-12.375 2.6776999999999997 1.9238 242
-12.281199999999998 2.6582 2.207 5
-2.8867000000000003 0.6353 -0.5136999999999999 43
-2.9726999999999997 0.6537999999999999 -0.4575 254
-3.1601999999999997 0.6953 0.1112 4
-12.3672 2.7207 0.7339 220
-12.3828 2.7245999999999997 1.0322 74
-12.3828 2.7245999999999997 1.3281 98
-12.3594 2.7207 1.6221 47
-12.375 2.7226999999999997 1.9258000000000002 221
-12.273399999999999 2.6992000000000003 2.207 107
-2.8964999999999996 0.6484000000000001 -0.5161 25
-3.2461 0.7265999999999999 0.038 121
-2.957 0.6620999999999999 -0.4556 61
-3.1620999999999997 0.708 0.11130000000000001 78
-12.3672 2.7695 0.7349 8
-12.375 2.7714999999999996 1.0322 140
-12.3828 2.7733999999999996 1.3291 82
-12.351600000000001 2.7656 1.6230000000000002 173
-12.375 2.7714999999999996 1.9268 53
-12.281199999999998 2.75 2.2109 184
-2.9141000000000004 0.6631 -0.5195000000000001 190
-3.2422000000000004 0.7378 0.038 4
-2.9473000000000003 0.6709 -0.4546 119
-3.1757999999999997 0.7227 0.1119 229
-12.375 2.8164 0.7354 199
-12.351600000000001 2.8105 1.0312000000000001 197
-12.3828 2.8183999999999996 1.3300999999999998 159
-12.351600000000001 2.8105 1.624 110
-12.375 2.8164 1.9287 48
-12.281199999999998 2.7949 2.2129 65
-2.9160000000000004 0.6733 -0.52 149
-3.2401999999999997 0.7484999999999999 0.038 126
-2.9531 0.6820999999999999 -0.4556 110
-3.1641000000000004 0.731 0.1116 54
-12.3828 2.8613 0.7368000000000001 28
-12.3672 2.8574 1.0332 15
-12.3828 2.8613 1.3311000000000002 121
-12.3672 2.8574 1.6269999999999998 200
-12.3594 2.8555 1.9277000000000002 127
-12.289100000000001 2.8379000000000003 2.2168 253
-2.9043 0.6812 -0.5186 14
-3.2382999999999997 0.7593000000000001 0.038 133
-2.9648000000000003 0.6953 -0.4578 44
-3.1483999999999996 0.7383 0.11109999999999999 162
-12.3672 2.9004000000000003 0.7363 255
-12.3672 2.9004000000000003 1.0342 144
-12.3672 2.9023000000000003 1.3311000000000002 52
-12.3672 2.9004000000000003 1.6288999999999998 54
-12.3672 2.9004000000000003 1.9306999999999999 253
-12.2656 2.877 2.2148 152
-2.9004000000000003 0.6919 -0.5186 112
-3.1797000000000004 0.7587999999999999 0.0373 177
-2.9589999999999996 0.7061 -0.4575 68
-3.1601999999999997 0.7539 0.1116 10
-12.351600000000001 2.9473000000000003 0.7363 76
-12.375 2.9531 1.0361 242
-12.3672 2.9512 1.3319999999999999 3
-12.3594 2.9492000000000003 1.6288999999999998 72
-12.3672 2.9492000000000003 1.9316 178
-12.2656 2.9257999999999997 2.2168 7
-2.8983999999999996 0.7021 -0.5186 53
-3.1464999999999996 0.7622 0.037000000000000005 247
-2.9512 0.7153 -0.45649999999999996 59
-3.1699 0.7681 0.1121 206
-12.3594 2.9941000000000004 0.7373000000000001 202
-12.3672 2.9961 1.0352 35
-12.375 2.998 1.3330000000000002 132
-12.343800000000002 2.9901999999999997 1.6279 30
-12.3594 2.9941000000000004 1.9325999999999999 193
-12.2578 2.9688 2.2168 73
-2.9101999999999997 0.7153 -0.521 55
-3.168 0.7787999999999999 0.037200000000000004 85
-2.9512 0.7256 -0.4568 102
-3.1601999999999997 0.7768999999999999 0.1118 187
-12.3594 3.0391000000000004 0.7378 166
-12.343800000000002 3.0351999999999997 1.0352 176
-12.3672 3.0410000000000004 1.334 224
-12.343800000000002 3.0351999999999997 1.6299000000000001 68
-12.3594 3.0370999999999997 1.9346 230
-12.2656 3.0156 2.2207 17
-2.9120999999999997 0.7261 -0.522 205
-3.1562 0.7870999999999999 0.0371 3
-2.9512 0.7358 -0.4573 153
-3.1464999999999996 0.7842 0.1114 4
-12.3672 3.082 0.7387999999999999 125
-12.351600000000001 3.0801 1.0361 121
-12.3594 3.0801 1.334 160
-12.351600000000001 3.0801 1.6318000000000001 141
-12.351600000000001 3.0801 1.9346 131
-12.289100000000001 3.0625 2.2246 114
-2.9062 0.7354 -0.521 189
-3.1464999999999996 0.7964 0.037000000000000005 116
-2.9551 0.748 -0.4585 59
-3.1660000000000004 0.8012999999999999 0.11220000000000001 190
-12.351600000000001 3.125 0.7383 180
-12.375 3.1308999999999996 1.0391 207
-12.351600000000001 3.125 1.335 155
-12.351600000000001 3.125 1.6338 36
-12.3594 3.127 1.9375 145
-12.273399999999999 3.1055 2.2246 219
-2.8983999999999996 0.7437 -0.52 14
-3.125 0.8018000000000001 0.0368 86
-2.9473000000000003 0.7563 -0.4575 220
-3.1582 0.8101 0.1121 67
-12.351600000000001 3.168 0.7393000000000001 37
-12.3672 3.1719 1.0391 194
-12.3672 3.1738 1.3378999999999999 202
-12.343800000000002 3.1660000000000004 1.6338 254
-12.3594 3.1699 1.9394999999999998 9
-12.25 3.1426 2.2227 108
-2.9004000000000003 0.7559 -0.521 93
-3.1211 0.813 0.0368 152
-2.9492000000000003 0.7681 -0.45799999999999996 82
-3.1738 0.8267 0.1127 189
-12.351600000000001 3.2168 0.7402 180
-12.351600000000001 3.2188 1.0391 250
-12.3672 3.2207 1.3388999999999998 104
-12.343800000000002 3.2148000000000003 1.6347999999999998 148
-12.3594 3.2188 1.9413999999999998 180
-12.2656 3.1952999999999996 2.2266 159
-2.9101999999999997 0.7686 -0.5234000000000001 167
-3.1308999999999996 0.8271 0.037000000000000005 172
-2.9433999999999996 0.7778 -0.4578 108
-3.1875 0.8418000000000001 0.1133 26
-12.351600000000001 3.2637 0.7406999999999999 72
-12.351600000000001 3.2637 1.04 231
-12.3672 3.2676 1.3397999999999999 41
-12.335899999999999 3.2598000000000003 1.6366999999999998 182
-12.343800000000002 3.2617000000000003 1.9404 94
-12.2656 3.2422000000000004 2.2305 121
-2.9141000000000004 0.7807999999999999 -0.5244 122
-3.1387 0.8412999999999999 0.0371 10
-2.9473000000000003 0.7896 -0.4587 119
-3.2148000000000003 0.8613 0.1144 101
-12.351600000000001 3.3105 0.7417 65
-12.351600000000001 3.3086 1.041 26
-12.375 3.3164 1.3418 122
-12.343800000000002 3.3086 1.6387 70
-12.343800000000002 3.3066000000000004 1.9413999999999998 77
-12.2656 3.2870999999999997 2.2324 50
-2.8964999999999996 0.7870999999999999 -0.522 170
-3.1523000000000003 0.8564 0.0373 42
-2.9512 0.8018000000000001 -0.46 122
-12.343800000000002 3.3555 0.4451 177
-12.351600000000001 3.3555 0.7417 17
-12.3672 3.3594 1.043 219
-12.351600000000001 3.3555 1.3397999999999999 60
-12.3594 3.3594 1.6425999999999998 209
-12.335899999999999 3.3516000000000004 1.9434 104
-12.2656 3.332 2.2324 88
-2.8964999999999996 0.7979 -0.5225 180
-3.1836 0.877 0.0377 68
-2.9473000000000003 0.8115000000000001 -0.4597 92
-12.351600000000001 3.4023000000000003 0.4456 254
-12.335899999999999 3.3983999999999996 0.7417 206
-12.351600000000001 3.4023000000000003 1.043 176
-12.351600000000001 3.4023000000000003 1.3428 221
-12.343800000000002 3.4004000000000003 1.6416 67
-12.3594 3.4043 1.9482 225
-12.2422 3.373 2.2324 236
-2.8983999999999996 0.8096 -0.5234000000000001 225
-3.1483999999999996 0.8794 0.0373 87
-2.9473000000000003 0.8231999999999999 -0.46020000000000005 38
-12.343800000000002 3.4452999999999996 0.4458 14
-12.335899999999999 3.4433999999999996 0.7426999999999999 132
-12.343800000000002 3.4473000000000003 1.043 6
-12.3594 3.4512 1.3447 176
-12.3281 3.4433999999999996 1.6416 29
-12.3594 3.4492000000000003 1.9502000000000002 251
-12.25 3.4219 2.2363 216
-2.9062 0.8223 -0.5249 9
-3.1582 0.8936 0.0375 220
-2.9395 0.8315 -0.4592 232
-12.335899999999999 3.4901999999999997 0.4458 65
-12.351600000000001 3.4941000000000004 0.7441 173
-12.335899999999999 3.4901999999999997 1.0439 226
-12.375 3.502 1.3466999999999998 68
-12.343800000000002 3.4922000000000004 1.6444999999999999 185
-12.351600000000001 3.4941000000000004 1.9502000000000002 148
-12.25 3.4668 2.2383 2
-2.9023000000000003 0.8320000000000001 -0.5249 89
-3.1776999999999997 0.9111 0.0378 87
-2.9473000000000003 0.8452 -0.4612 41
-12.335899999999999 3.5370999999999997 0.44630000000000003 143
-12.351600000000001 3.543 0.7451000000000001 67
-12.343800000000002 3.5410000000000004 1.0459 95
-12.351600000000001 3.543 1.3457 64
-12.343800000000002 3.5410000000000004 1.6465 157
-12.4453 3.5683999999999996 1.9678 71
-12.2656 3.5176 2.2422 140
-2.8926 0.8398 -0.5234000000000001 167
-3.1523000000000003 0.915 0.0375 168
-2.9551 0.8579000000000001 -0.46259999999999996 183
-12.335899999999999 3.582 0.4468 113
-12.343800000000002 3.5839999999999996 0.7451000000000001 6
-12.343800000000002 3.5839999999999996 1.0469 32
-18.9688 5.5078 2.0723 45
-12.789100000000001 3.7129000000000003 2.0234 105
-12.2578 3.5586 2.2422 76
-2.8887 0.8491 -0.5234000000000001 56
-3.1327999999999996 0.9209 0.0373 91
-2.9531 0.8682 -0.4629 92
-12.351600000000001 3.6308999999999996 0.44780000000000003 168
-19.1094 5.6172 2.0898 126
-12.8203 3.7676 2.0312 54
-12.2656 3.6055 2.248 34
-2.9004000000000003 0.8643000000000001 -0.5264 1
-3.123 0.9301999999999999 0.037200000000000004 163
-2.9492000000000003 0.8784000000000001 -0.46259999999999996 1
-19.2969 5.75 2.1113 253
-17.9531 5.3477 2.8495999999999997 249
-19.2656 5.738300000000001 3.5370999999999997 232
-2.9023000000000003 0.8755 -0.5268999999999999 244
-3.1308999999999996 0.9443 0.0373 213
-2.9355 0.8856999999999999 -0.4612 196
-19.2969 5.824199999999999 2.1133 94
-17.9375 5.4140999999999995 2.8516000000000004 214
-19.2969 5.8203 3.5469 131
-2.9062 0.8881999999999999 -0.5283 224
-3.123 0.9541 0.0373 165
-2.9375 0.8979 -0.4619 162
-18.9844 5.800800000000001 2.082 88
-17.9219 5.4765999999999995 2.8516000000000004 28
-19.375 5.917999999999999 3.5645 109
-2.8964999999999996 0.8959999999999999 -0.5268999999999999 200
-3.1348000000000003 0.9697 0.0375 225
-2.9452999999999996 0.9111 -0.4636 108
-19.0625 5.8984000000000005 2.0918 14
-17.9531 5.5547 2.8594 71
-19.375 5.9922 3.5664 21
-2.8926 0.9057999999999999 -0.5268999999999999 146
-3.1132999999999997 0.9751000000000001 0.037200000000000004 64
-2.957 0.9258 -0.4658 236
-19.0781 5.9765999999999995 2.0977 65
-17.9688 5.6289 2.8651999999999997 152
-19.3125 6.050800000000001 3.5625 59
-2.8964999999999996 0.9185 -0.5283 172
-3.1151999999999997 0.9873000000000001 0.0373 241
-2.9433999999999996 0.9331 -0.4644 171
-23.3438 7.3984000000000005 1.4219 17
-19.0781 6.046900000000001 2.0996 154
-18.1562 5.7539 2.4453 3
-17.9844 5.703099999999999 2.8711 140
-19.3125 6.125 3.5664 81
-2.9023000000000003 0.9316 -0.5303 201
-3.1211 1.001 0.0374 197
-2.9316000000000004 0.9404 -0.4629 29
-23.3594 7.4922 0.8545 100
-23.3438 7.4922 1.4238 149
-18.2344 5.8515999999999995 2.457 233
-17.8906 5.7422 2.8594 5
-19.5156 6.261699999999999 3.6074 229
-2.9082 0.9443 -0.5317000000000001 6
-3.1308999999999996 1.0166 0.037599999999999995 149
-2.9355 0.9531000000000001 -0.46409999999999996 252
-23.3594 7.5859000000000005 0.856 148
-23.3594 7.5859000000000005 1.4268 237
-18.0312 5.855499999999999 2.4336 76
-17.9062 5.8164 2.8651999999999997 123
-16.8281 5.4648 3.1132999999999997 128
-2.8926 0.9506999999999999 -0.5293 43
-3.125 1.0273 0.037599999999999995 117
-2.9473000000000003 0.9682999999999999 -0.46659999999999996 155
-19.5625 6.4297 2.1602 214
-17.9844 5.9102 2.4297 80
-16.8281 5.5312 2.6952999999999996 161
-19.3281 6.3515999999999995 3.5801 174
-2.8926 0.9619 -0.5303 97
-3.1327999999999996 1.042 0.0377 252
-2.9551 0.9823999999999999 -0.4683 241
-19.5469 6.4961 2.1602 202
-18.1562 6.0390999999999995 2.457 174
-16.7969 5.582000000000001 2.6914 177
-19.3594 6.4336 3.5879000000000003 119
-2.8945 0.9731000000000001 -0.5307999999999999 68
-3.1308999999999996 1.0537 0.0378 133
-2.9433999999999996 0.9902 -0.467 209
-19.5312 6.5703 2.1621 185
-18.2031 6.1211 2.4648 78
-16.7969 5.6484000000000005 2.6952999999999996 12
-16.7656 5.636699999999999 3.1113 124
-2.9043 0.9883 -0.5337 164
-3.123 1.0625 0.0377 123
-2.9276999999999997 0.9961 -0.46509999999999996 127
-19.625 6.675800000000001 2.1738 227
-18.1719 6.1836 2.4648 228
-16.7969 5.7148 2.6992000000000003 84
-3.2108999999999996 1.0928 -0.0388 184
-16.7656 5.703099999999999 3.1151999999999997 68
-2.9043 0.9990000000000001 -0.5342 117
-3.1523000000000003 1.085 0.0381 218
-2.9395 1.0117 -0.4675 142
-19.6094 6.75 2.1758 54
-17.2344 5.9297 2.3398 50
-3.0976999999999997 1.0664 -0.0374 180
-16.7188 5.75 3.1094 96
-2.8983999999999996 1.0088 -0.5337 207
-3.1483999999999996 1.0957 0.0381 83
-2.9531 1.0283 -0.4705 153
-19.5156 6.792999999999999 2.168 1
-17.3281 6.0312 2.3555 126
-19.1875 6.6797 3.0918 135
-3.0645 1.0664 -0.037000000000000005 105
-16.7188 5.8164 3.1132999999999997 11
-2.8926 1.0176 -0.5332 236
-3.1757999999999997 1.1162 0.0385 11
-2.9512 1.0371 -0.4705 108
-19.5 6.855499999999999 2.168 214
-17.3281 6.0938 2.3574 148
-17.7656 6.2461 2.8651999999999997 149
-3.0858999999999996 1.085 -0.0374 143
