# .PCD v0.7 - Point Cloud Data file format
VERSION 0.7
FIELDS x y z intensity
SIZE 4 4 4 4
TYPE F F F F
COUNT 1 1 1 1
WIDTH 1252
HEIGHT 1
VIEWPOINT 0 0 0 1 0 0 0
POINTS 1252
DATA ascii
2.0723 -6.109400000000001 -0.9771 80
1.8447 -5.4375 0.1986 122
2.0996 -6.1914 -0.8354 183
1.8477000000000001 -5.4453 0.3318 202
1.8574000000000002 -5.4727 0.4685 30
1.8408000000000002 -5.425800000000001 -0.4644 148
1.8594 -5.480499999999999 0.6035 199
1.8408000000000002 -5.425800000000001 -0.3306 105
1.8428 -5.4336 -0.1985 21
1.8700999999999999 -5.511699999999999 0.8809 153
1.8369 -5.4140999999999995 -0.066 239
1.875 -5.5273 1.0215 134
1.9971 -5.957000000000001 -1.1006 132
1.8271000000000002 -5.449199999999999 0.0663 117
2.0391 -6.078099999999999 -0.9712000000000001 98
1.835 -5.4727 0.1997 233
2.0605 -6.144500000000001 -0.8286 51
1.8397999999999999 -5.484400000000001 0.33399999999999996 170
1.8369 -5.4765999999999995 -0.4683 125
1.8584 -5.5390999999999995 0.6093999999999999 219
1.8241999999999998 -5.4414 -0.33130000000000004 98
1.8563999999999998 -5.5352 0.7456 25
1.8300999999999998 -5.457000000000001 -0.1991 148
1.8711000000000002 -5.582000000000001 0.8911 39
1.8330000000000002 -5.4648 -0.0665 73
1.8809 -5.609400000000001 1.0361 41
1.9756 -5.957000000000001 -1.0996 186
1.8281 -5.515599999999999 0.067 207
2.0234 -6.105499999999999 -0.9741 252
1.8359 -5.5390999999999995 0.20190000000000002 4
2.0508 -6.1875 -0.833 244
1.8477000000000001 -5.574199999999999 0.3389 115
1.8486000000000002 -5.578099999999999 0.4763 95
1.8241999999999998 -5.5039 -0.4697 163
1.8643 -5.625 0.6182 8
1.8203 -5.4922 -0.3337 84
1.8613 -5.613300000000001 0.7554000000000001 30
1.8281 -5.515599999999999 -0.201 35
1.8711000000000002 -5.644500000000001 0.8998999999999999 79
1.8428 -5.5586 -0.0676 57
1.875 -5.6562 1.0439 95
1.9531 -5.957000000000001 -1.0977 74
1.835 -5.5977 0.068 253
1.9931999999999999 -6.082000000000001 -0.9692000000000001 198
1.8319999999999999 -5.5859000000000005 0.20350000000000001 172
2.0273 -6.1836 -0.8315 149
1.8447 -5.6289 0.3418 21
1.8477000000000001 -5.636699999999999 0.4807 15
1.8281 -5.578099999999999 -0.4756 61
1.8535 -5.6562 0.6211 203
1.8271000000000002 -5.574199999999999 -0.3386 87
1.8584 -5.671900000000001 0.7622 60
1.8319999999999999 -5.5859000000000005 -0.20350000000000001 236
1.8643 -5.6875 0.9062 42
1.835 -5.5977 -0.068 122
1.8788999999999998 -5.730499999999999 1.0556999999999999 82
1.9247999999999998 -5.9375 -1.0928 23
1.8300999999999998 -5.644500000000001 0.06849999999999999 132
1.9678 -6.0703 -0.9662999999999999 188
1.8311000000000002 -5.6484000000000005 0.20559999999999998 167
1.9902000000000002 -6.140599999999999 -0.8247 109
1.8447 -5.6914 0.3455 193
1.8466999999999998 -5.6953 0.4854 221
1.8281 -5.640599999999999 -0.4805 34
1.8525 -5.7148 0.627 224
1.8291 -5.644500000000001 -0.3425 231
1.8613 -5.7422 0.7709999999999999 236
1.834 -5.6562 -0.20579999999999998 17
1.8681999999999999 -5.765599999999999 0.9175 86
1.8311000000000002 -5.6484000000000005 -0.06849999999999999 108
1.875 -5.7852 1.0654000000000001 190
1.9013999999999998 -5.9453 -1.0928 224
1.8252000000000002 -5.707000000000001 0.0692 214
1.9336000000000002 -6.042999999999999 -0.9609000000000001 14
1.835 -5.734400000000001 0.20850000000000002 170
1.9736000000000002 -6.171900000000001 -0.8276 186
1.8369 -5.7422 0.3481 35
1.8486000000000002 -5.7773 0.4919 40
1.8271000000000002 -5.7109000000000005 -0.4861 254
1.8535 -5.796900000000001 0.6347999999999999 239
1.8163999999999998 -5.675800000000001 -0.344 197
1.8584 -5.8086 0.7793000000000001 0
1.8291 -5.7188 -0.2079 118
1.8672 -5.8359000000000005 0.9277 89
1.8319999999999999 -5.7265999999999995 -0.0694 159
1.8721 -5.8515999999999995 1.0762 56
1.8799000000000001 -5.949199999999999 -1.0928 52
1.8213 -5.761699999999999 0.0698 210
1.9082 -6.0390999999999995 -0.9590000000000001 43
1.834 -5.800800000000001 0.2107 31
1.9443000000000001 -6.1523 -0.8242 37
1.8378999999999999 -5.8125 0.3521 135
1.8447 -5.8359000000000005 0.4961 93
1.8262 -5.7773 -0.49119999999999997 183
1.8574000000000002 -5.875 0.6431 139
1.8193000000000001 -5.7539 -0.34840000000000004 94
1.8555000000000001 -5.8672 0.7861 140
1.8291 -5.7852 -0.2101 16
1.8700999999999999 -5.917999999999999 0.9399 157
1.8330000000000002 -5.800800000000001 -0.0703 225
1.8769999999999998 -5.9375 1.0908 95
1.8691 -5.984400000000001 -1.0977 121
1.8222999999999998 -5.832000000000001 0.0706 241
1.8975 -6.074199999999999 -0.9639 214
1.8291 -5.8515999999999995 0.21239999999999998 126
1.9238 -6.1562 -0.8242 240
1.8359 -5.875 0.3555 3
1.8388999999999998 -5.886699999999999 0.5 254
1.8311000000000002 -5.859400000000001 -0.4978 113
1.8574000000000002 -5.9453 0.6504000000000001 171
1.8203 -5.824199999999999 -0.3525 207
1.8525 -5.9297 0.7935 150
1.8222999999999998 -5.832000000000001 -0.2115 155
1.8691 -5.984400000000001 0.9497 252
1.8330000000000002 -5.8672 -0.071 47
1.8799000000000001 -6.015599999999999 1.1035 49
1.8535 -6.0 -1.1006 23
1.8241999999999998 -5.9102 0.07139999999999999 171
1.8730000000000002 -6.0664 -0.9614 61
1.8262 -5.9140999999999995 0.2144 98
1.8925999999999998 -6.1289 -0.8198000000000001 114
1.8397999999999999 -5.9609000000000005 0.3601 21
1.8428 -5.9688 0.5068 208
1.8311000000000002 -5.9297 -0.5034000000000001 166
1.8535 -6.0 0.6557999999999999 182
1.8193000000000001 -5.890599999999999 -0.35600000000000004 78
1.8603999999999998 -6.0234000000000005 0.8057 230
1.8241999999999998 -5.9102 -0.2141 233
1.8603999999999998 -6.0234000000000005 0.9551000000000001 166
1.8281 -5.917999999999999 -0.07150000000000001 195
1.875 -6.074199999999999 1.1133 114
1.8397999999999999 -6.0352 -1.1055 39
1.8222999999999998 -5.980499999999999 0.0722 169
1.8613 -6.105499999999999 -0.9668000000000001 194
1.8262 -5.9922 0.2169 237
1.8838 -6.1836 -0.8256999999999999 68
1.8359 -6.0234000000000005 0.3638 1
1.8418 -6.042999999999999 0.5127 17
1.8466999999999998 -6.0586 0.6611 171
1.8105000000000002 -5.9414 -0.3586 101
1.8555000000000001 -6.0859000000000005 0.813 26
1.8213 -5.9765999999999995 -0.2163 230
1.8643 -6.1172 0.9688 173
1.8213 -5.9765999999999995 -0.0721 25
1.8711000000000002 -6.136699999999999 1.124 254
1.8466999999999998 -6.136699999999999 -1.123 9
1.8174000000000001 -6.0390999999999995 0.0728 218
1.8535 -6.1602 -0.9741 117
1.8271000000000002 -6.0703 0.21960000000000002 85
1.8681999999999999 -6.207000000000001 -0.8286 237
1.8319999999999999 -6.0859000000000005 0.36719999999999997 172
1.8408000000000002 -6.1172 0.5181 36
1.8496000000000001 -6.144500000000001 0.6698999999999999 95
1.8086000000000002 -6.0078 -0.3625 102
1.8563999999999998 -6.167999999999999 0.8231999999999999 165
1.8193000000000001 -6.042999999999999 -0.2186 218
1.8681999999999999 -6.207000000000001 0.9819 123
1.8241999999999998 -6.0625 -0.0731 136
1.874 -6.2265999999999995 1.1396 11
1.9902000000000002 -6.6953 -1.2246 236
1.8135 -6.105499999999999 0.0735 106
1.8681999999999999 -6.2852 -0.9937 188
1.8271000000000002 -6.1484000000000005 0.2223 149
1.8594 -6.2539 -0.8340000000000001 234
1.8319999999999999 -6.1640999999999995 0.3716 232
1.8388999999999998 -6.1875 0.5234000000000001 217
1.8525 -6.234400000000001 0.6792 62
1.8105000000000002 -6.0938 -0.36719999999999997 87
1.8457 -6.2109000000000005 0.8281000000000001 29
1.8174000000000001 -6.1172 -0.22089999999999999 179
1.8633000000000002 -6.269500000000001 0.9906999999999999 47
1.8222999999999998 -6.1328 -0.0739 26
1.8700999999999999 -6.292999999999999 1.1504 182
1.9647999999999999 -6.699199999999999 -1.2236 249
1.8154 -6.1875 0.0745 70
1.9413999999999998 -6.6172 -1.0449 246
1.8203 -6.207000000000001 0.2241 63
1.8516 -6.3125 -0.8408 73
1.835 -6.2539 0.3765 182
1.8359 -6.2578 0.5293 94
1.8496000000000001 -6.3047 0.6859999999999999 98
1.8075999999999999 -6.1602 -0.37079999999999996 176
1.8330000000000002 -6.2461 0.8320000000000001 97
1.8144999999999998 -6.1836 -0.22329999999999997 139
1.8603999999999998 -6.3438 1.001 118
1.8222999999999998 -6.2109000000000005 -0.0748 78
1.8721 -6.3828 1.165 142
1.9413999999999998 -6.703099999999999 -1.2236 26
1.8163999999999998 -6.2734000000000005 0.0754 51
1.9188999999999998 -6.6289 -1.0459 99
1.8154 -6.269500000000001 0.2262 221
1.8418 -6.359400000000001 -0.8462000000000001 17
1.8311000000000002 -6.324199999999999 0.3804 162
1.8319999999999999 -6.324199999999999 0.5342 153
1.8408000000000002 -6.355499999999999 0.6909000000000001 217
1.8066 -6.238300000000001 -0.37520000000000003 54
1.8428 -6.363300000000001 0.8467 139
1.8115 -6.2539 -0.2256 197
1.8563999999999998 -6.4102 1.0117 192
1.8154 -6.269500000000001 -0.0754 47
1.8730000000000002 -6.4648 1.1797 215
1.9102000000000001 -6.6836 -1.2178 91
1.8154 -6.3515999999999995 0.0764 81
1.9003999999999999 -6.6484000000000005 -1.0479 156
1.8174000000000001 -6.355499999999999 0.2291 233
1.8378999999999999 -6.4297 -0.8545 220
1.8241999999999998 -6.3828 0.3835 21
1.8378999999999999 -6.4336 0.5429999999999999 26
1.8408000000000002 -6.4375 0.6992 107
1.8008000000000002 -6.300800000000001 -0.3787 137
1.8496000000000001 -6.4727 0.8604 136
1.8144999999999998 -6.3515999999999995 -0.2288 140
1.8563999999999998 -6.4922 1.0234 77
1.8144999999999998 -6.3477 -0.07629999999999999 145
1.8643 -6.5234000000000005 1.1895 218
1.8896000000000002 -6.699199999999999 -1.2197 235
1.8096 -6.4140999999999995 0.077 250
1.8828 -6.675800000000001 -1.0508 17
1.8154 -6.4375 0.23170000000000002 185
1.8408000000000002 -6.5273 -0.8667 120
1.8232 -6.4648 0.3882 213
1.8330000000000002 -6.5 0.5478999999999999 35
1.8408000000000002 -6.5273 0.708 184
1.7988 -6.3789 -0.38280000000000003 91
1.8466999999999998 -6.546900000000001 0.8695999999999999 50
1.8096 -6.417999999999999 -0.2311 153
1.8603999999999998 -6.5938 1.0381 49
1.8105000000000002 -6.417999999999999 -0.0771 54
1.8652000000000002 -6.613300000000001 1.2041 224
1.8672 -6.7109000000000005 -1.2207 225
1.8018 -6.4765999999999995 0.07769999999999999 203
1.8584 -6.6797 -1.0508 246
1.8125 -6.511699999999999 0.2343 203
1.8378999999999999 -6.605499999999999 -0.8765000000000001 56
1.8213 -6.546900000000001 0.3926 171
1.8262 -6.5625 0.5527000000000001 122
1.8437999999999999 -6.625 0.7182999999999999 233
1.7949000000000002 -6.449199999999999 -0.38670000000000004 76
1.8428 -6.6211 0.8784000000000001 235
1.8037 -6.484400000000001 -0.2332 7
1.8584 -6.6797 1.0508 175
1.8096 -6.5039 -0.0781 138
1.8613 -6.6914 1.2168 20
1.8457 -6.7227 -1.2217 105
1.8008000000000002 -6.5625 0.0787 168
1.8388999999999998 -6.699199999999999 -1.0527 206
1.8105000000000002 -6.5938 0.2369 242
1.8330000000000002 -6.675800000000001 -0.8853 250
1.8241999999999998 -6.644500000000001 0.3982 50
1.8262 -6.6523 0.5596 66
1.8418 -6.7109000000000005 0.7265999999999999 114
1.7959 -6.5390999999999995 -0.3918 208
1.8428 -6.7148 0.8901 239
1.8008000000000002 -6.5625 -0.23579999999999998 154
1.8506 -6.7422 1.0595999999999999 105
1.8086000000000002 -6.5898 -0.079 214
1.8633000000000002 -6.7890999999999995 1.2334 120
1.8271000000000002 -6.75 -1.2256 74
1.8018 -6.6523 0.0797 128
1.8311000000000002 -6.761699999999999 -1.0615 27
1.8047 -6.6640999999999995 0.2394 37
1.8193000000000001 -6.7188 0.4023 55
1.8222999999999998 -6.730499999999999 0.5659000000000001 88
3.6816000000000004 -13.601600000000001 -1.1475 117
1.8388999999999998 -6.7890999999999995 0.7349 79
1.7978999999999998 -6.640599999999999 -0.3975 236
1.8378999999999999 -6.7890999999999995 0.8994 85
1.7978999999999998 -6.640599999999999 -0.2384 186
1.8496000000000001 -6.832000000000001 1.0732 126
1.8066 -6.671900000000001 -0.08 196
1.8662 -6.890599999999999 1.252 226
1.8135 -6.7812 -1.2305 56
1.8008000000000002 -6.734400000000001 0.0806 41
1.8418 -6.890599999999999 -1.0811 151
1.8056999999999999 -6.7539 0.24230000000000002 19
1.8174000000000001 -6.796900000000001 0.4065 246
2.3613 -8.8281 -0.9556 60
1.8291 -6.8398 0.5747 72
3.6308999999999996 -13.5781 -1.1445 102
1.834 -6.859400000000001 0.7417 252
1.7938999999999998 -6.7109000000000005 -0.4014 2
1.8418 -6.890599999999999 0.9116 73
1.8027000000000002 -6.7422 -0.2418 122
1.8525 -6.925800000000001 1.0869 40
1.8027000000000002 -6.7422 -0.08070000000000001 122
1.8584 -6.949199999999999 1.2617 121
1.8769999999999998 -7.113300000000001 -1.29 126
1.7969 -6.8086 0.0815 129
1.9188999999999998 -7.2734000000000005 -1.1406 143
1.8066 -6.8477 0.24559999999999998 158
1.8125 -6.8711 0.4106 31
2.3242 -8.8047 -0.9526 16
1.8232 -6.9102 0.5801 224
1.8291 -6.9297 0.7490000000000001 30
1.7871000000000001 -6.7734000000000005 -0.405 248
1.8369 -6.9609000000000005 0.9209 15
1.8008000000000002 -6.824199999999999 -0.2446 9
1.8535 -7.0234000000000005 1.1016 136
1.8037 -6.8359000000000005 -0.0818 138
1.8584 -7.042999999999999 1.2773 250
1.8818000000000001 -7.238300000000001 -1.3115 72
1.7881 -6.8789 0.08220000000000001 217
1.8008000000000002 -6.925800000000001 0.2482 189
1.8115 -6.9688 0.4163 117
2.291 -8.8125 -0.9526 237
1.8193000000000001 -7.0 0.5874 6
3.6757999999999997 -14.1406 -1.1895 26
1.834 -7.0586 0.7617 21
1.7852000000000001 -6.8711 -0.4104 167
1.835 -7.0586 0.9326000000000001 243
1.7938999999999998 -6.8984000000000005 -0.24719999999999998 255
1.8506 -7.1172 1.1152 23
1.7997999999999998 -6.925800000000001 -0.0828 33
1.8594 -7.1523 1.2959 28
1.8563999999999998 -7.2461 -1.3115 179
1.7919999999999998 -6.9922 0.0836 114
1.7978999999999998 -7.019500000000001 0.25120000000000003 255
1.8144999999999998 -7.082000000000001 0.4226 248
2.2266 -8.6875 -0.9384999999999999 26
1.8184 -7.0977 0.5947 44
2.1582 -8.4219 -0.7065 14
1.8271000000000002 -7.1328 0.7695000000000001 16
1.7861000000000002 -6.9727 -0.41600000000000004 101
1.835 -7.1640999999999995 0.9458 246
1.7871000000000001 -6.9765999999999995 -0.24960000000000002 237
1.8447 -7.203099999999999 1.127 154
1.7978999999999998 -7.019500000000001 -0.08380000000000001 78
1.8603999999999998 -7.261699999999999 1.3144999999999998 119
1.7959 -7.113300000000001 0.0849 1
2.1777 -8.625 -1.3506 245
1.7969 -7.1172 0.2546 10
2.1777 -8.625 -1.1387 28
1.8096 -7.167999999999999 0.4275 199
2.123 -8.4062 -0.9067000000000001 231
1.8115 -7.175800000000001 0.6011 96
2.0918 -8.2891 -0.6943 97
1.8311000000000002 -7.25 0.7812 71
1.7822 -7.0586 -0.42090000000000005 16
1.8330000000000002 -7.261699999999999 0.9575 91
1.7852000000000001 -7.0703 -0.2529 110
1.8447 -7.3047 1.1426 177
1.7949000000000002 -7.109400000000001 -0.0848 165
1.8544999999999998 -7.3477 1.3291 245
1.7919999999999998 -7.203099999999999 0.0859 46
2.1504 -8.6406 -1.3516 221
1.7978999999999998 -7.2265999999999995 0.2583 217
2.1094 -8.4766 -1.1181999999999999 212
1.8047 -7.2578 0.4324 82
2.1016 -8.4453 -0.9102 238
1.8184 -7.3086 0.6113000000000001 57
2.0781 -8.3516 -0.6992 188
1.8241999999999998 -7.3359000000000005 0.79 114
1.7763999999999998 -7.140599999999999 -0.4253 98
1.834 -7.3711 0.9717 172
1.7871000000000001 -7.1836 -0.2566 36
1.8447 -7.4140999999999995 1.1592 46
1.7919999999999998 -7.203099999999999 -0.0859 151
1.8525 -7.4453 1.3457 116
1.79 -7.3047 0.087 24
2.1191 -8.6406 -1.3506 147
1.7969 -7.332000000000001 0.26170000000000004 4
2.0781 -8.4766 -1.1172 197
1.8047 -7.363300000000001 0.4385 88
2.1191 -8.6484 -0.9316 94
1.8135 -7.3984000000000005 0.6187 77
2.0684 -8.4375 -0.7061 28
1.8252000000000002 -7.449199999999999 0.8012999999999999 215
1.7734 -7.234400000000001 -0.4307 54
1.8281 -7.4609000000000005 0.9823999999999999 217
1.7841999999999998 -7.2812 -0.26 13
1.8418 -7.515599999999999 1.1729 150
1.7930000000000001 -7.3164 -0.0872 106
1.8496000000000001 -7.546900000000001 1.3622999999999998 76
1.7841999999999998 -7.394500000000001 0.08800000000000001 22
2.0859 -8.6406 -1.3496000000000001 60
1.7930000000000001 -7.4297 0.2651 88
2.0781 -8.6172 -1.1348 118
1.8008000000000002 -7.457000000000001 0.44380000000000003 56
2.0566 -8.5234 -0.917 161
1.8096 -7.5 0.6265 205
2.0742 -8.5938 -0.7188 51
1.8163999999999998 -7.5273 0.8090999999999999 241
1.7694999999999999 -7.332000000000001 -0.436 206
1.8271000000000002 -7.5703 0.9961 182
1.7812000000000001 -7.3828 -0.2634 198
1.8457 -7.6484000000000005 1.1934 35
1.7871000000000001 -7.4062 -0.0882 37
1.8486000000000002 -7.6602 1.3818000000000001 243
1.7822 -7.5039 0.08929999999999999 163
2.0586 -8.6719 -1.3525 214
1.7871000000000001 -7.5273 0.2683 172
2.0664 -8.7031 -1.1455 225
1.7988 -7.5703 0.45020000000000004 242
2.0488 -8.625 -0.9268000000000001 129
1.8037 -7.5938 0.6338 113
2.0703 -8.7188 -0.728 32
1.8203 -7.6640999999999995 0.8231999999999999 0
1.7675999999999998 -7.4414 -0.4424 83
1.8222999999999998 -7.671900000000001 1.0088 64
1.7744 -7.4688 -0.2664 85
1.8369 -7.734400000000001 1.2061 41
1.7891 -7.5352 -0.0897 218
1.8447 -7.765599999999999 1.4003999999999999 176
1.7763999999999998 -7.5977 0.09029999999999999 156
1.7841999999999998 -7.6289 0.2717 106
2.1035 -8.9922 -1.1826 202
1.7959 -7.6797 0.45630000000000004 240
2.0332 -8.6953 -0.9340999999999999 189
1.8066 -7.7265999999999995 0.6445000000000001 157
2.0645 -8.8281 -0.7368000000000001 52
1.8125 -7.75 0.8320000000000001 52
1.7646000000000002 -7.546900000000001 -0.4482 158
1.8222999999999998 -7.792999999999999 1.0244 167
1.7715 -7.578099999999999 -0.27 70
1.8330000000000002 -7.8398 1.2217 58
1.7772999999999999 -7.6015999999999995 -0.0904 6
1.8477000000000001 -7.9023 1.4238 232
1.7783000000000002 -7.7227 0.09179999999999999 196
1.7812000000000001 -7.734400000000001 0.2754 135
2.0645 -8.9609 -1.1768 188
1.7930000000000001 -7.7812 0.4619 63
1.8027000000000002 -7.828099999999999 0.6523 36
2.0586 -8.9375 -0.7451000000000001 177
1.8125 -7.8711 0.8442000000000001 131
1.7607 -7.6484000000000005 -0.4539 219
1.8163999999999998 -7.886699999999999 1.0352 251
1.7734 -7.699199999999999 -0.2742 226
1.8311000000000002 -7.953099999999999 1.2373 141
1.7803 -7.730499999999999 -0.0919 159
1.8428 -8.0 1.4404 205
1.7734 -7.8203 0.0928 143
1.7861000000000002 -7.875 0.28 124
1.79 -7.894500000000001 0.4683 1
2.0938 -9.2344 -0.9906999999999999 12
1.8027000000000002 -7.9453 0.6620999999999999 181
2.0605 -9.0859 -0.7573000000000001 112
1.8125 -7.9922 0.8569 117
1.7559 -7.7422 -0.4592 189
1.8184 -8.0156 1.0518 193
1.7744 -7.824199999999999 -0.2783 210
1.835 -8.0859 1.2578 132
1.7793 -7.8477 -0.0932 172
1.8428 -8.125 1.4609 79
1.7725 -7.953099999999999 0.0944 177
1.7803 -7.988300000000001 0.2839 208
1.7871000000000001 -8.0234 0.4756 183
1.7959 -8.0625 0.6709 222
2.0527 -9.2109 -0.7670999999999999 122
1.8086000000000002 -8.1172 0.8695999999999999 96
1.7568000000000001 -7.886699999999999 -0.4673 240
1.8135 -8.1406 1.0674 196
1.7666 -7.9297 -0.282 224
1.8252000000000002 -8.1953 1.2734 54
1.7744 -7.9648 -0.09449999999999999 151
1.8319999999999999 -8.2266 1.4785 190
1.7607 -8.0312 0.0953 87
1.7725 -8.0859 0.2874 249
1.7832 -8.1406 0.4819 161
1.7891 -8.1641 0.6792 142
2.0508 -9.3594 -0.7793000000000001 82
1.7988 -8.2031 0.8784000000000001 53
1.7538999999999998 -8.0078 -0.47409999999999997 232
1.8037 -8.2344 1.0791 98
1.7616999999999998 -8.0391 -0.28559999999999997 129
1.8203 -8.3047 1.29 241
1.7725 -8.0859 -0.0959 186
1.8311000000000002 -8.3594 1.501 145
1.7597999999999998 -8.1562 0.0967 48
1.7646000000000002 -8.1875 0.2905 220
1.7753999999999999 -8.2344 0.48729999999999996 246
1.7871000000000001 -8.2891 0.6884999999999999 113
3.2558999999999996 -15.093800000000002 -1.2578 188
1.7988 -8.3438 0.8920999999999999 159
1.7529 -8.125 -0.48100000000000004 222
1.8075999999999999 -8.3828 1.0977 167
1.7559 -8.1406 -0.2891 28
1.8203 -8.4453 1.3105000000000002 197
1.7637 -8.1797 -0.0969 3
1.835 -8.5078 1.5272999999999999 221
1.7627000000000002 -8.3047 0.0984 36
1.7646000000000002 -8.3125 0.2952 126
1.7772999999999999 -8.375 0.49560000000000004 132
1.7881 -8.4297 0.7001999999999999 30
3.1914 -15.039100000000001 -1.252 8
1.8047 -8.5 0.9092 93
1.751 -8.2578 -0.48829999999999996 20
1.8056999999999999 -8.5078 1.1133 222
1.7588 -8.2891 -0.2942 20
1.8193000000000001 -8.5703 1.3300999999999998 15
1.7616999999999998 -8.2969 -0.0983 120
1.8319999999999999 -8.6328 1.5488 178
1.7559 -8.4297 0.0999 195
1.7607 -8.4609 0.3 136
1.7686000000000002 -8.4922 0.502 59
1.7822 -8.5625 0.7104 39
3.0507999999999997 -14.656199999999998 -1.2187999999999999 255
1.7969 -8.6328 0.9218999999999999 61
1.7402000000000002 -8.3594 -0.4941 76
1.8008000000000002 -8.6484 1.1309 178
1.751 -8.4141 -0.2983 61
1.8154 -8.7188 1.3516 228
1.7559 -8.4375 -0.0999 21
1.8262 -8.7734 1.5722999999999998 252
1.7471 -8.5391 0.10099999999999999 51
1.7597999999999998 -8.6016 0.3049 159
1.7675999999999998 -8.6406 0.5103 114
1.79 -8.75 0.7256 255
2.9961 -14.6406 -1.2168 124
1.7930000000000001 -8.7656 0.9355 24
1.7344 -8.4766 -0.501 231
1.7988 -8.7969 1.1494 139
1.75 -8.5547 -0.3032 156
1.8125 -8.8594 1.3721 74
1.7538999999999998 -8.5781 -0.1014 48
1.8262 -8.9297 1.5996000000000001 88
1.7471 -8.6875 0.1027 162
1.7559 -8.7344 0.3093 209
1.7686000000000002 -8.7969 0.519 31
1.7637 -8.7734 0.7271 246
3.0117000000000003 -14.9844 -1.2441 165
1.7949000000000002 -8.9297 0.9526 58
1.7402000000000002 -8.6562 -0.5107 62
1.7969 -8.9375 1.167 33
1.7431999999999999 -8.6641 -0.3069 157
1.8135 -9.0156 1.3965 242
1.7529 -8.7188 -0.10300000000000001 166
1.8271000000000002 -9.0859 1.6269999999999998 167
1.7450999999999999 -8.8281 0.10439999999999999 227
1.751 -8.8594 0.3135 49
1.7675999999999998 -8.9453 0.5278 240
1.7772999999999999 -8.9922 0.7451000000000001 112
2.9336 -14.835899999999999 -1.2314 129
1.79 -9.0547 0.9658 126
1.7372999999999998 -8.7891 -0.5186 126
1.7959 -9.0859 1.1865 119
1.7393 -8.7969 -0.31129999999999997 197
1.8096 -9.1562 1.4169999999999998 24
1.749 -8.8516 -0.10460000000000001 8
1.8252000000000002 -9.2344 1.6522999999999999 49
1.7402000000000002 -8.9844 0.1061 174
1.7461000000000002 -9.0156 0.3188 207
1.7597999999999998 -9.0859 0.5356000000000001 160
1.7686000000000002 -9.1328 0.7559 156
2.8516000000000004 -14.726600000000001 -1.2217 161
1.7822 -9.2031 0.981 86
1.7216999999999998 -8.8906 -0.5239 37
1.7938999999999998 -9.2656 1.209 88
1.7383000000000002 -8.9766 -0.3176 67
1.8018 -9.3047 1.4385 181
1.7393 -8.9844 -0.1061 166
1.8154 -9.375 1.6768 4
1.7372999999999998 -9.1406 0.1079 215
1.7422 -9.1719 0.32420000000000004 165
1.751 -9.2109 0.5429999999999999 244
1.7656 -9.2891 0.7686 28
2.7733999999999996 -14.593800000000002 -1.21 11
1.7753999999999999 -9.3438 0.9951000000000001 65
1.7147999999999999 -9.0234 -0.5317000000000001 4
1.7881 -9.4062 1.2266 134
1.7313999999999998 -9.1094 -0.322 68
1.8018 -9.4766 1.4647999999999999 43
1.7363 -9.1328 -0.10779999999999999 107
1.8075999999999999 -9.5156 1.7002000000000002 83
1.7256 -9.2578 0.1093 94
1.7383000000000002 -9.3281 0.3293 85
1.749 -9.3828 0.5527000000000001 112
1.7627000000000002 -9.4531 0.7817000000000001 208
2.7226999999999997 -14.6094 -1.21 110
1.7734 -9.5078 1.0127 225
1.7168 -9.2109 -0.5425 39
1.7772999999999999 -9.5391 1.2422 228
1.7256 -9.2578 -0.32689999999999997 173
1.8047 -9.6797 1.4950999999999999 16
1.7334 -9.2969 -0.1097 214
1.8144999999999998 -9.7344 1.7383000000000002 82
1.7266 -9.4453 0.1114 139
1.7266 -9.4453 0.3335 174
1.7402000000000002 -9.5234 0.5605 102
1.7568000000000001 -9.6094 0.7944 183
2.6699 -14.601600000000001 -1.209 92
1.7715 -9.6875 1.0303 155
1.7109 -9.3594 -0.5508 246
1.7793 -9.7344 1.2676 187
1.7187999999999999 -9.4062 -0.332 33
1.8008000000000002 -9.8516 1.5205000000000002 135
1.7266 -9.4453 -0.11130000000000001 132
1.8086000000000002 -9.8906 1.7656 184
1.7266 -9.6172 0.1133 200
1.7334 -9.6562 0.3408 198
1.7461000000000002 -9.7266 0.5722999999999999 0
1.7597999999999998 -9.7969 0.8096 158
2.6719 -14.8828 -1.2314 28
1.7763999999999998 -9.8906 1.0518 100
1.7147999999999999 -9.5469 -0.562 212
1.7783000000000002 -9.9062 1.2891 108
1.7227000000000001 -9.5938 -0.3386 242
1.7969 -10.0078 1.5438999999999998 53
1.7266 -9.6172 -0.1133 49
1.8115 -10.0859 1.7997999999999998 70
1.7236000000000002 -9.7891 0.1153 21
1.7275 -9.8125 0.34590000000000004 231
1.7383000000000002 -9.8672 0.5806 92
1.7549000000000001 -9.9609 0.8228 170
2.625 -14.898399999999999 -1.2324 241
1.7753999999999999 -10.0781 1.0703 119
1.7109 -9.7188 -0.5713 62
1.7812000000000001 -10.1172 1.3154 41
1.7178 -9.75 -0.344 170
1.7997999999999998 -10.2188 1.5762 238
1.7227000000000001 -9.7812 -0.1152 214
1.8086000000000002 -10.2656 1.8300999999999998 93
1.7236000000000002 -10.0156 0.11800000000000001 158
1.7236000000000002 -10.0234 0.3533 34
1.7275 -10.0469 0.5903 28
1.7471 -10.1562 0.8384 33
2.5781 -14.9922 -1.2383 213
1.7637 -10.2578 1.0889 175
1.7002000000000002 -9.8828 -0.5811 157
1.7694999999999999 -10.289100000000001 1.3378999999999999 168
1.7138999999999998 -9.9609 -0.35109999999999997 220
1.7949000000000002 -10.4297 1.6074000000000002 241
1.7138999999999998 -9.9688 -0.1174 54
1.7969 -10.4453 1.8613 151
1.7050999999999998 -10.1328 0.1193 94
1.7119 -10.1719 0.35840000000000005 95
1.7256 -10.2578 0.6025 165
1.7431999999999999 -10.3672 0.855 111
1.7686000000000002 -10.5078 1.1152 118
1.6963 -10.0859 -0.5922999999999999 6
1.7616999999999998 -10.468800000000002 1.3603999999999998 178
1.7002000000000002 -10.1094 -0.35600000000000004 10
1.7852000000000001 -10.6094 1.6338 22
1.7080000000000002 -10.1562 -0.1195 42
1.7969 -10.6797 1.9022999999999999 31
1.7050999999999998 -10.343800000000002 0.1217 177
1.7069999999999999 -10.351600000000001 0.36469999999999997 85
1.7256 -10.468800000000002 0.6147 43
1.7431999999999999 -10.5781 0.8721 90
1.7616999999999998 -10.6875 1.1338 191
1.6924000000000001 -10.2656 -0.6025 191
1.7637 -10.7031 1.3896000000000002 66
1.6963 -10.289100000000001 -0.3625 42
1.7783000000000002 -10.789100000000001 1.6611000000000002 116
1.7069999999999999 -10.351600000000001 -0.12179999999999999 32
1.7861000000000002 -10.835899999999999 1.9287 3
1.6982 -10.531199999999998 0.12380000000000001 44
1.7021000000000002 -10.5547 0.3716 90
1.7216999999999998 -10.6797 0.6265 112
1.7305000000000001 -10.7344 0.8843000000000001 101
2.3203 -14.3906 -1.1875 150
1.7450999999999999 -10.8203 1.1475 83
1.6885 -10.468800000000002 -0.6143 139
1.7578 -10.898399999999999 1.4141 33
1.6913999999999998 -10.4844 -0.3691 59
1.7793 -11.031199999999998 1.6972999999999998 121
1.7002000000000002 -10.5469 -0.124 36
1.7997999999999998 -11.156199999999998 1.9853999999999998 166
1.6943000000000001 -10.726600000000001 0.1261 157
1.6953 -10.726600000000001 0.3774 59
1.71 -10.8203 0.6347999999999999 231
1.7383000000000002 -11.0 0.9062 141
2.2754 -14.406199999999998 -1.1875 98
1.749 -11.0625 1.1729 234
1.6885 -10.6797 -0.6265 237
1.7568000000000001 -11.1172 1.4424000000000001 80
1.6894999999999998 -10.6875 -0.3762 232
1.7852000000000001 -11.2969 1.7372999999999998 63
1.6913999999999998 -10.7031 -0.1259 25
1.8193000000000001 -11.5156 2.0488 44
1.6924000000000001 -10.9453 0.12869999999999998 202
1.7012 -11.0078 0.387 72
1.7138999999999998 -11.085899999999999 0.6498999999999999 246
1.7305000000000001 -11.1875 0.9214 32
2.2461 -14.523399999999999 -1.1963 94
1.751 -11.3281 1.2002 102
1.6816 -10.875 -0.6377 253
1.7559 -11.3594 1.4727000000000001 108
1.6865 -10.906199999999998 -0.38380000000000003 125
1.7753999999999999 -11.4844 1.7646000000000002 156
1.6924000000000001 -10.9453 -0.12869999999999998 117
1.8086000000000002 -11.6953 2.0801 198
1.6846 -11.1875 0.1315 60
1.6875 -11.210899999999999 0.39399999999999996 24
1.7031 -11.3203 0.6631 33
1.7178 -11.406199999999998 0.9390000000000001 9
2.3086 -15.335899999999999 -1.2627 77
1.7412 -11.5625 1.2246 58
1.6719 -11.1094 -0.6509 76
1.7450999999999999 -11.593800000000002 1.5029 198
1.6758000000000002 -11.1328 -0.3914 101
1.7666 -11.7422 1.8037 249
1.6855000000000002 -11.1953 -0.1315 215
1.6728999999999998 -11.398399999999999 0.1338 24
1.6758000000000002 -11.4219 0.4014 190
1.6943000000000001 -11.539100000000001 0.6758 141
1.71 -11.648399999999999 0.9584999999999999 107
1.7422 -11.8672 1.2559 144
1.665 -11.343800000000002 -0.6646 151
1.7383000000000002 -11.843800000000002 1.5341999999999998 232
1.666 -11.351600000000001 -0.3987 210
1.7588 -11.976600000000001 1.8397999999999999 104
1.6738 -11.406199999999998 -0.13390000000000002 243
1.6806999999999999 -11.6953 0.13720000000000002 78
1.6806999999999999 -11.6875 0.4106 127
1.6953 -11.7969 0.6904 100
1.7138999999999998 -11.9219 0.9804999999999999 54
2.1191 -14.7422 -1.2129 39
1.7294999999999998 -12.031199999999998 1.2725 189
1.666 -11.593800000000002 -0.6787000000000001 105
1.7334 -12.0547 1.5615 75
1.665 -11.585899999999999 -0.40700000000000003 123
1.7597999999999998 -12.2422 1.8799000000000001 67
1.6738 -11.6406 -0.1366 154
1.6728999999999998 -11.9219 0.1399 108
1.6747999999999998 -11.9375 0.4189 128
1.6885 -12.031199999999998 0.7041 6
1.7061000000000002 -12.148399999999999 0.9984999999999999 123
1.7305000000000001 -12.3281 1.3037 38
1.665 -11.8594 -0.6943 186
1.7372999999999998 -12.375 1.6025 101
1.6631 -11.851600000000001 -0.41600000000000004 201
1.6709 -11.906199999999998 -0.1396 173
1.6494 -12.085899999999999 0.1417 195
1.6669999999999998 -12.218800000000002 0.42869999999999997 142
1.6797 -12.3125 0.7202 138
1.7021000000000002 -12.476600000000001 1.0244 100
1.6475 -12.0703 -0.7065 69
1.7256 -12.6406 1.6357 26
1.6494 -12.093800000000002 -0.4243 116
1.7803 -13.0469 2.002 146
1.6602000000000001 -12.1719 -0.1427 153
1.6582 -12.476600000000001 0.43770000000000003 170
1.6738 -12.593800000000002 0.7363 136
1.6963 -12.7656 1.0479 42
1.7246000000000001 -12.976600000000001 1.3711000000000002 77
1.6366999999999998 -12.3203 -0.7202 225
1.7227000000000001 -12.960899999999999 1.6768 44
1.6444999999999999 -12.375 -0.4341 5
1.6533000000000002 -12.4375 -0.1459 118
1.6513999999999998 -12.75 0.447 155
1.6709 -12.898399999999999 0.7544 223
1.6865 -13.0156 1.0684 17
1.9131 -14.773399999999999 -1.2129 198
1.7197 -13.273399999999999 1.4022999999999999 89
1.6387 -12.648399999999999 -0.7397 120
1.7187999999999999 -13.273399999999999 1.7158000000000002 159
1.6406 -12.664100000000001 -0.44409999999999994 38
1.6475 -12.718800000000002 -0.149 153
1.6475 -13.0625 0.45799999999999996 212
1.666 -13.2031 0.772 75
1.6768 -13.289100000000001 1.0908 9
1.8984 -15.0469 -1.2354 179
1.7002000000000002 -13.476600000000001 1.4228999999999998 93
1.6318000000000001 -12.9297 -0.7559 55
1.7178 -13.6094 1.7597999999999998 48
1.6309 -12.9297 -0.4534 214
1.6436000000000002 -13.031199999999998 -0.1527 75
1.6279 -13.3125 0.156 195
1.625 -13.2969 0.4658 189
1.6503999999999999 -13.5 0.7886 33
1.6709 -13.664100000000001 1.1211 127
1.625 -13.289100000000001 -0.7764 24
1.7021000000000002 -13.9297 1.7988 129
1.6191 -13.2422 -0.46409999999999996 190
1.624 -13.281199999999998 -0.15560000000000002 230
1.6338 -13.7656 0.48219999999999996 218
1.6425999999999998 -13.835899999999999 0.8081 145
1.6680000000000001 -14.0547 1.1523 233
1.6133000000000002 -13.585899999999999 -0.7935 155
1.7069999999999999 -14.3828 1.8574000000000002 93
1.6113 -13.5703 -0.4753 13
1.6191 -13.6406 -0.1597 32
1.6006 -13.875 0.4861 240
1.6357 -14.1797 0.8281000000000001 1
1.6591999999999998 -14.3828 1.1787 18
1.6855000000000002 -14.6094 1.541 101
1.6044999999999998 -13.906199999999998 -0.812 104
1.7216999999999998 -14.9297 1.9277000000000002 182
1.6016 -13.8828 -0.4863 104
1.6143 -13.9922 -0.1638 96
1.6113 -14.3906 0.5039 238
1.6279 -14.531199999999998 0.8481000000000001 229
1.6357 -14.6094 1.1973 128
1.6016 -14.2969 -0.8345 242
1.5928 -14.226600000000001 -0.498 133
1.6063999999999998 -14.343800000000002 -0.1678 6
1.5830000000000002 -14.6406 0.5127 107
1.6143 -14.9375 0.8715999999999999 83
1.6357 -15.1328 1.2393 157
1.6738 -15.4844 1.6318000000000001 31
1.584 -14.656199999999998 -0.855 62
1.5800999999999998 -14.6172 -0.5117 193
1.5811000000000002 -14.625 -0.1711 179
1.584 -15.148399999999999 0.5297999999999999 112
1.6063999999999998 -15.3594 0.8959999999999999 96
1.5762 -15.0703 -1.2344 20
1.6611000000000002 -15.8828 1.6738 198
1.5722999999999998 -15.031199999999998 -0.8765000000000001 183
1.5674000000000001 -14.9922 -0.5244 44
1.5771000000000002 -15.0781 -0.1764 181
1.5811000000000002 -15.593800000000002 0.5454 101
1.6025 -15.8047 0.9218999999999999 143
1.6152000000000002 -15.9297 1.3047 106
1.5644999999999998 -15.4297 -0.8998999999999999 26
1.5635 -15.4219 -0.5396 197
1.5781 -15.5625 -0.182 76
1.5625 -15.9375 0.5571 102
1.5977000000000001 -16.2969 0.9497 188
1.6113 -16.4375 -1.3457 103
1.5537 -15.843800000000002 -0.9238 41
1.5566 -15.875 -0.5552 83
1.5625 -15.9375 -0.1863 254
1.5556999999999999 -16.5156 0.5776 184
1.5878999999999999 -16.8594 0.9823999999999999 21
1.6063999999999998 -17.0625 1.3955000000000002 122
1.5459 -16.4062 -1.3428 3
1.6436000000000002 -17.4531 1.8378999999999999 218
1.5352000000000001 -16.2969 -0.9501999999999999 187
1.5381 -16.3281 -0.5713 145
1.5381 -16.3281 -0.1909 24
1.5488 -17.0781 0.5972 68
1.5654 -17.2656 1.0059 81
1.5234 -16.8125 -0.9795 180
1.5194999999999999 -16.7656 -0.5859000000000001 112
1.541 -17.0 -0.19870000000000002 199
1.5312000000000001 -17.5312 -1.0215 131
1.5059 -17.25 -0.603 223
6.625 -78.875 2.7617000000000003 35
5.2539 -68.625 4.0 161
4.5469 -68.8125 4.0078 82
0.1323 -5.4140999999999995 -0.6909000000000001 80
0.1127 -5.3828 -0.687 213
0.0926 -5.3047 -0.8022 236
0.0934 -5.355499999999999 -0.6836 70
0.0726 -5.199199999999999 -0.7861 41
0.0745 -5.332000000000001 -0.6801999999999999 123
0.0538 -5.1328 -0.7764 155
0.0548 -5.234400000000001 -0.6675 102
0.0068000000000000005 -0.9673 -0.1631 146
0.0355 -5.082 -0.7686 84
0.0359 -5.1484000000000005 -0.6567000000000001 230
0.044800000000000006 -6.4140999999999995 -0.37060000000000004 163
0.0032 -0.9159999999999999 -0.15410000000000001 53
0.0177 -5.0703 -0.7666 168
0.0179 -5.1289 -0.6543000000000001 143
0.0202 -5.7734000000000005 -0.4678 41
0.022400000000000003 -6.4102 -0.3704 96
0.0 -0.8998999999999999 -0.1514 235
0.0 -5.0547 -0.7642 160
0.0 -5.1211 -0.6533 211
0.0 -5.734400000000001 -0.4646 152
-0.0029 -0.8765000000000001 -0.1471 28
-0.0168 -5.0625 -0.7656000000000001 160
-0.0168 -5.0781 -0.6479 240
-0.0187 -5.6328 -0.45649999999999996 206
-0.0059 -0.8881999999999999 -0.1492 166
-0.0335 -5.0469 -0.7631999999999999 124
-0.0338 -5.0938 -0.6494 36
-0.0375 -5.6523 -0.45799999999999996 96
-0.041299999999999996 -6.2188 -0.3591 232
-0.009300000000000001 -0.9037999999999999 -0.152 78
-0.0519 -5.0391 -0.7622 242
-0.053099999999999994 -5.1562 -0.6577 0
-0.0574 -5.574199999999999 -0.4517 241
-0.0641 -6.2227 -0.3594 36
-0.0668 -6.484400000000001 -0.22469999999999998 56
-0.0121 -0.8804000000000001 -0.1478 71
-0.0693 -5.0234 -0.7598 116
-0.077 -5.582000000000001 -0.4521 190
-0.08810000000000001 -6.386699999999999 -0.2212 243
-0.0154 -0.8804000000000001 -0.1478 68
-0.08779999999999999 -5.0273 -0.7603 177
-0.0895 -5.1328 -0.6548 22
-0.0971 -5.5664 -0.4509 147
-0.1162 -6.6602 -0.077 204
-0.0183 -0.8726 -0.1465 7
-0.1057 -5.043 -0.7626999999999999 152
-0.1058 -5.0508 -0.6445000000000001 196
-0.1164 -5.5547 -0.45020000000000004 182
-0.13269999999999998 -6.332000000000001 -0.366 43
-0.1368 -6.5312 -0.0755 22
-0.0227 -0.9351 -0.1576 86
-0.1219 -5.0273 -0.7603 110
-0.1231 -5.0742 -0.6475 237
-0.1348 -5.5547 -0.45020000000000004 152
-0.152 -6.261699999999999 -0.3618 62
-0.1605 -6.6172 -0.0765 89
-0.0258 -0.9351 -0.1576 175
-0.1381 -5.0078 -0.7573000000000001 21
-0.1405 -5.0938 -0.6498999999999999 198
-0.15259999999999999 -5.5312 -0.4482 44
-0.1761 -6.386699999999999 -0.3689 169
-0.2021 -7.328099999999999 -0.25420000000000004 74
-0.0292 -0.9351 -0.1576 212
-0.156 -4.9922 -0.7554000000000001 24
-0.1577 -5.0469 -0.644 143
-0.1729 -5.5312 -0.4482 158
-0.1979 -6.332000000000001 -0.366 3
-0.0325 -0.9351 -0.1576 198
-0.1741 -5.0078 -0.7578 76
-0.1898 -5.4609000000000005 -0.4429 240
-0.0317 -0.8286 -0.1388 135
-0.192 -5.0195 -0.7598 116
-0.1963 -5.1328 -0.6553 112
-0.2096 -5.480499999999999 -0.4443 125
-0.0354 -0.8481000000000001 -0.1423 165
-0.2781 -6.6602 0.077 8
-0.2087 -5.0 -0.7568 131
-0.215 -5.1484000000000005 -0.6572 127
-0.2263 -5.421900000000001 -0.4395 119
-0.3044 -7.296900000000001 -0.2532 240
-0.0382 -0.8481000000000001 -0.1423 171
-0.3032 -6.730499999999999 0.0779 140
-0.225 -4.9922 -0.7559 100
-0.2324 -5.1602 -0.6587000000000001 153
-0.2446 -5.4297 -0.44020000000000004 92
-0.3284 -7.2852 -0.2529 33
-0.0416 -0.8599 -0.1444 209
-0.325 -6.7148 0.07769999999999999 41
-0.2415 -4.9922 -0.7554000000000001 235
-0.26030000000000003 -5.3789 -0.4363 129
-0.3533 -7.300800000000001 -0.2534 104
-0.048799999999999996 -0.9340999999999999 -0.1576 120
-0.34840000000000004 -6.667999999999999 0.07719999999999999 77
-0.26170000000000004 -5.0078 -0.7583 35
-0.2812 -5.386699999999999 -0.43700000000000006 179
-0.3801 -7.2812 -0.2527 207
-0.053200000000000004 -0.9536 -0.161 187
-0.374 -6.7109000000000005 0.07769999999999999 81
-0.2773 -4.9766 -0.7534000000000001 110
-0.2783 -4.9961 -0.6382 255
-0.2998 -5.3789 -0.4363 56
-0.4067 -7.296900000000001 -0.2534 175
-0.0516 -0.8711 -0.1465 70
-0.3933 -6.636699999999999 0.0768 190
-0.2939 -4.9648 -0.752 190
-0.2969 -5.0117 -0.6401 86
-0.31670000000000004 -5.3438 -0.4336 155
-0.4338 -7.324199999999999 -0.2544 155
-0.057300000000000004 -0.9140999999999999 -0.15410000000000001 116
-0.4175 -6.6523 0.077 255
-0.3098 -4.9375 -0.748 209
-0.3159 -5.0352 -0.6436 242
-0.33399999999999996 -5.324199999999999 -0.4321 250
-0.45630000000000004 -7.269500000000001 -0.2527 222
-0.059800000000000006 -0.9018999999999999 -0.152 106
-0.43770000000000003 -6.605499999999999 0.0765 39
-0.3274 -4.9414 -0.7484999999999999 77
-0.3311 -4.9961 -0.6386999999999999 129
-0.3347 -5.0547 -0.5278 5
-0.3547 -5.355499999999999 -0.4346 34
-0.4817 -7.269500000000001 -0.2527 206
-0.061799999999999994 -0.8862000000000001 -0.1492 196
-0.46630000000000005 -6.6836 0.0775 15
-0.3435 -4.9219 -0.7461 19
-0.3479 -4.9883 -0.6377 72
-0.34840000000000004 -4.9961 -0.522 90
-0.37450000000000006 -5.3672 -0.436 243
-0.5088 -7.292999999999999 -0.2534 38
-0.0643 -0.8779 -0.1478 237
-0.4858 -6.6328 0.0768 73
-0.3689 -5.0352 -0.7637 145
-0.3616 -4.9336 -0.6309 235
-0.36619999999999997 -5.0 -0.5225 22
-0.3921 -5.3515999999999995 -0.4346 201
-0.5332 -7.2773 -0.2529 240
-0.0679 -0.8837999999999999 -0.1489 17
-0.5083 -6.6211 0.0768 74
-0.38549999999999995 -5.0234 -0.7617 134
-0.384 -5.0039 -0.6401 77
-0.38280000000000003 -4.9844 -0.521 244
-0.40990000000000004 -5.3398 -0.4336 4
-0.5605 -7.3047 -0.2539 61
-0.0711 -0.8892 -0.1499 12
-0.5268999999999999 -6.5898 0.0764 108
-0.39770000000000005 -4.9766 -0.7548999999999999 232
-0.4023 -5.0352 -0.644 188
-0.3992 -4.9922 -0.522 3
-0.425 -5.3164 -0.4321 176
-0.0729 -0.8755 -0.1475 110
-0.5542 -6.6562 0.07719999999999999 188
-0.41600000000000004 -4.9961 -0.7583 160
-0.41479999999999995 -4.9805 -0.6377 8
-0.4163 -5.0 -0.5225 157
-0.44170000000000004 -5.3047 -0.43119999999999997 235
-0.0764 -0.875 -0.1475 195
-0.5752 -6.5898 0.0764 111
-0.4375 -5.0117 -0.7603 101
-0.43189999999999995 -4.9453 -0.6333 138
-0.436 -4.9922 -0.5225 225
-0.4639 -5.3125 -0.4321 185
-0.0812 -0.8926000000000001 -0.1506 68
-0.6001 -6.5938 0.0765 40
-0.4551 -5.0 -0.7587999999999999 146
-0.4507 -4.9531 -0.6343 145
-0.4531 -4.9766 -0.521 100
-0.4863 -5.3438 -0.4346 156
-0.08560000000000001 -0.9077 -0.1534 189
-0.6206 -6.578099999999999 0.0764 203
-0.4707 -4.9883 -0.7573000000000001 201
-0.4678 -4.957 -0.6347999999999999 30
-0.4697 -4.9766 -0.521 11
-0.502 -5.324199999999999 -0.43310000000000004 67
-0.4736 -4.8398 -0.8501000000000001 230
-0.6459999999999999 -6.5977 0.0766 28
-0.48950000000000005 -5.0039 -0.7598 139
-0.48560000000000003 -4.9609 -0.6357 78
-0.4888 -4.9961 -0.5229 28
-0.5225 -5.3359000000000005 -0.4343 199
-0.5977 -6.105499999999999 -0.3542 213
-0.48729999999999996 -4.8164 -0.8456999999999999 24
-0.6724 -6.644500000000001 0.07719999999999999 89
-0.5005 -4.9453 -0.7515000000000001 40
-0.5029 -4.9688 -0.6372 68
-0.5078 -5.0156 -0.5254 99
-0.5322 -5.2539 -0.4277 161
-0.6177 -6.105499999999999 -0.3542 211
-0.6689 -6.609400000000001 -0.0768 150
-0.5005 -4.7852 -0.8408 115
-0.6904 -6.6015999999999995 0.0767 250
-0.5205 -4.9766 -0.7563 206
-0.5186 -4.957 -0.6357 101
-0.5249 -5.0195 -0.5259 63
-0.5527000000000001 -5.2852 -0.4304 179
-0.6382 -6.1015999999999995 -0.3542 0
-0.6919 -6.6172 -0.07690000000000001 166
-0.52 -4.793 -0.8428 181
-0.7178 -6.6172 0.077 0
-0.5396 -4.9766 -0.7568 127
-5.4414 -50.1875 1.7607 185
-0.542 -4.9961 -0.6411 156
-0.5449 -5.0234 -0.5264 211
-0.5728 -5.2812 -0.4302 125
-0.6581999999999999 -6.0664 -0.3525 30
-0.7148 -6.5938 -0.0767 12
-0.5361 -4.7891 -0.8423 36
-0.7354 -6.5664 0.0764 62
-0.5571 -4.9727 -0.7563 40
-5.5977 -50.0 1.7549000000000001 137
-0.564 -5.0352 -0.6465000000000001 95
-0.5615 -5.0117 -0.5254 41
-0.5962 -5.324199999999999 -0.4341 30
-0.7373000000000001 -6.582000000000001 -0.0765 100
-0.5532 -4.8047 -0.8452 141
-0.7622 -6.6172 0.077 190
-0.5732 -4.9805 -0.7578 122
-0.5820000000000001 -5.0547 -0.6489 231
-0.5781000000000001 -5.0195 -0.5264 147
-0.6103999999999999 -5.300800000000001 -0.4321 250
-0.7573000000000001 -6.574199999999999 -0.0765 229
-0.5684 -4.793 -0.8438 41
-0.7831999999999999 -6.605499999999999 0.07690000000000001 115
-0.5874 -4.957 -0.7548999999999999 212
-0.5962 -5.0273 -0.6459999999999999 194
-6.015599999999999 -50.75 2.9707 8
-0.5981000000000001 -5.043 -0.5293 102
-0.6211 -5.2422 -0.4275 96
-0.7787999999999999 -6.5703 -0.0765 53
-0.5854 -4.7812 -0.8423 245
-0.8101 -6.6172 0.077 91
-0.6079 -4.9648 -0.7563 163
-5.988300000000001 -48.9062 1.7187999999999999 188
-0.6162 -5.0352 -0.647 5
-6.175800000000001 -50.4375 2.9531 210
-0.6133 -5.0117 -0.5259 43
-0.6484000000000001 -5.292999999999999 -0.4321 126
-0.8031999999999999 -6.5625 -0.0764 214
-0.604 -4.793 -0.8447 163
-0.8295999999999999 -6.5859000000000005 0.0767 33
-0.6245 -4.9609 -0.7559 0
-6.1875 -49.0938 1.7266 249
-0.6347999999999999 -5.0391 -0.6479 21
-5.765599999999999 -45.75 2.6816000000000004 146
-0.627 -4.9766 -0.5225 93
-0.6665000000000001 -5.292999999999999 -0.4321 18
-0.8251999999999999 -6.550800000000001 -0.07629999999999999 60
-0.6347999999999999 -4.9102 -0.8652 19
-0.8481000000000001 -6.5586 0.0764 191
-0.6431 -4.9727 -0.7583 253
-6.2539 -48.3438 1.7002000000000002 234
-0.6489 -5.0195 -0.6455 128
-5.886699999999999 -45.5 2.668 194
-0.6494 -5.0234 -0.5278 164
-6.484400000000001 -50.125 4.125 180
-0.688 -5.3164 -0.4343 227
-0.8477 -6.5547 -0.0764 209
-0.6553 -4.9375 -0.8711 160
-0.877 -6.609400000000001 0.077 211
-0.6587000000000001 -4.9609 -0.7568 106
-0.6659999999999999 -5.0195 -0.6455 13
-6.0390999999999995 -45.5 2.668 99
-0.6659999999999999 -5.0195 -0.5278 41
-6.625 -49.9062 4.1094 252
-0.7031000000000001 -5.300800000000001 -0.43310000000000004 152
-0.8726 -6.574199999999999 -0.0767 105
-0.667 -4.8828 -0.8613 89
-0.8965000000000001 -6.5625 0.0765 38
-0.6807 -4.9844 -0.7603 17
-6.5078 -47.625 1.6768 17
-0.6797 -4.9727 -0.6401 57
-6.296900000000001 -46.0938 2.7031 254
-0.6855 -5.0156 -0.5278 201
-0.7222 -5.2852 -0.4321 182
-0.9458 -6.921900000000001 -0.2422 97
-0.9458 -6.921900000000001 -0.0808 149
-0.6733 -4.8047 -0.8481000000000001 47
-0.9224 -6.582000000000001 0.0768 103
-0.6978 -4.9766 -0.7598 166
-6.2422 -44.5312 1.5684 154
-0.6943 -4.9531 -0.6382 41
-6.449199999999999 -46.0 2.6992000000000003 110
-0.7031000000000001 -5.0156 -0.5278 227
-0.7445999999999999 -5.3086 -0.4343 118
-0.9634 -6.8711 -0.24050000000000002 175
-0.688 -4.7969 -0.8472 105
-0.9429000000000001 -6.574199999999999 0.0768 189
-0.71 -4.9492 -0.7559 32
-6.3828 -44.5 1.5684 97
-0.71 -4.9531 -0.6382 92
-6.480499999999999 -45.1875 2.6543 22
-0.7222 -5.0352 -0.5303 139
-0.7656000000000001 -5.3398 -0.43700000000000006 34
-0.9829000000000001 -6.855499999999999 -0.2401 184
-0.9917 -6.917999999999999 -0.0808 100
-0.7021 -4.7852 -0.8452 85
-0.9673 -6.5898 0.077 59
-0.7251000000000001 -4.9375 -0.7548999999999999 138
-6.4648 -44.0625 1.5527000000000002 229
-0.7295 -4.9688 -0.6406000000000001 155
-6.675800000000001 -45.5 2.6719 138
-0.7354 -5.0117 -0.5278 151
-0.7827 -5.332000000000001 -0.4365 142
-1.0088 -6.875 -0.2408 82
-0.7271 -4.8203 -0.8521 76
-0.9902 -6.5625 0.0767 212
-0.7490000000000001 -4.9648 -0.7593000000000001 153
-6.6640999999999995 -44.1875 1.5586000000000002 37
-0.7515000000000001 -4.9805 -0.6426000000000001 66
-6.7773 -44.9062 2.6406 51
-0.7554000000000001 -5.0078 -0.5278 115
-0.8042 -5.328099999999999 -0.4365 66
-1.0322 -6.8438 -0.23989999999999997 139
-0.7437 -4.8086 -0.8506 66
-1.0166 -6.5703 0.0768 215
-0.77 -4.9805 -0.7622 88
-6.863300000000001 -44.4062 1.5663999999999998 35
-0.7695000000000001 -4.9766 -0.6420999999999999 160
-6.9453 -44.9375 2.6426 223
-0.7739 -5.0039 -0.5278 196
-7.4922 -48.4375 4.0 199
-0.8169 -5.2852 -0.43310000000000004 133
-1.0693000000000001 -6.9140999999999995 -0.2426 91
-0.7578 -4.7969 -0.8486 192
-1.041 -6.5859000000000005 0.0771 147
-0.7847 -4.9648 -0.7598 118
-6.957000000000001 -44.0312 1.5547 101
-0.7944 -5.0273 -0.6489 127
-7.4961 -47.4375 2.7910000000000004 132
-0.7905 -5.0039 -0.5278 184
-7.625 -48.25 3.9863 50
-0.8364 -5.292999999999999 -0.4341 66
-1.125 -7.1211 -0.25 174
-0.7725 -4.7812 -0.8467 75
-1.0664 -6.5977 0.07719999999999999 158
-0.813 -5.0312 -0.7705 182
-7.238300000000001 -44.8125 1.5830000000000002 205
-0.8105 -5.0156 -0.6479 56
-7.453099999999999 -46.125 2.7148000000000003 243
-0.8081 -5.0 -0.5278 84
-0.8573999999999999 -5.3047 -0.4353 196
-6.625 -41.0 5.3359000000000005 208
-1.1562000000000001 -7.1523 -0.25120000000000003 223
-0.7929999999999999 -4.8086 -0.8521 147
-1.083 -6.5703 0.077 68
-0.8247 -5.0039 -0.7666 117
-0.8267 -5.0156 -0.6484000000000001 235
-7.6015999999999995 -46.125 2.7168 120
-7.5078 -45.5625 3.7676 145
-0.8759999999999999 -5.3125 -0.4363 237
-1.1816 -7.167999999999999 -0.252 179
-0.8096 -4.8125 -0.853 131
-1.1094 -6.5938 0.07730000000000001 178
-0.8408 -4.9961 -0.7661 5
-0.8447 -5.0195 -0.6494 48
-7.5703 -45.0 2.6523000000000003 179
-0.8403 -4.9922 -0.5278 0
-7.6289 -45.3438 3.752 31
-0.8931 -5.3086 -0.436 127
-1.2021 -7.144500000000001 -0.25120000000000003 202
-0.8462000000000001 -4.918 -0.8726 233
-1.1367 -6.605499999999999 0.0775 126
-0.8599 -4.9961 -0.7666 27
-0.8623000000000001 -5.0156 -0.6489 74
-7.6875 -44.6875 2.6367000000000003 98
-0.8584 -4.9922 -0.5278 221
-0.9111 -5.296900000000001 -0.4353 206
-6.421900000000001 -37.3438 3.9766000000000004 194
-1.2354 -7.1797 -0.2527 114
-1.3193000000000001 -7.671900000000001 -0.0901 86
-0.8452 -4.8125 -0.8540000000000001 5
-1.1572 -6.5898 0.07730000000000001 108
-0.877 -4.9961 -0.7666 46
-8.1094 -46.1562 1.6347999999999998 88
-0.8833 -5.0312 -0.6514 247
-8.2734 -47.0938 2.7793 168
-6.074199999999999 -34.5938 2.8651999999999997 233
-0.9365000000000001 -5.332000000000001 -0.4385 3
-6.542999999999999 -37.25 3.9726999999999997 171
-7.167999999999999 -40.8125 5.324199999999999 199
-1.2568000000000001 -7.1562 -0.252 215
-0.8623000000000001 -4.8047 -0.8534999999999999 27
-1.1836 -6.5977 0.0775 209
-0.897 -5.0 -0.7681 241
-7.074199999999999 -39.4375 1.3975 225
-0.9033 -5.0352 -0.6523 166
-6.984400000000001 -38.9375 2.2988 250
-0.894 -4.9844 -0.5278 188
-6.203099999999999 -34.5625 2.8651999999999997 44
-0.9526 -5.3086 -0.43700000000000006 47
-6.6602 -37.125 3.9589999999999996 136
-1.3984 -7.796900000000001 -0.2749 135
-1.376 -7.671900000000001 -0.09029999999999999 8
-0.9067000000000001 -4.9531 -0.8809 33
-1.2051 -6.5859000000000005 0.0774 15
-0.9116 -4.9805 -0.7656000000000001 152
-7.203099999999999 -39.3438 1.3955000000000002 136
-0.9233 -5.0469 -0.6543000000000001 79
-7.1289 -38.9375 2.3008 97
-6.296900000000001 -34.4062 2.8555 253
-0.9745999999999999 -5.324199999999999 -0.4385 152
-6.800800000000001 -37.1562 3.9668 213
-7.332000000000001 -40.0625 5.234400000000001 161
-1.4228999999999998 -7.7773 -0.2742 221
-0.9116 -4.8867 -0.8687 44
-1.2285 -6.582000000000001 0.0774 178
-0.9331 -5.0 -0.769 29
-7.6211 -40.8438 1.4491999999999998 195
-0.9429000000000001 -5.0508 -0.6557999999999999 216
-7.300800000000001 -39.125 2.3125 26
-6.5703 -35.2188 2.9219 92
-0.9906999999999999 -5.3086 -0.4375 73
-6.925800000000001 -37.125 3.9629000000000003 142
-1.4453 -7.7461 -0.2734 63
-1.3622999999999998 -7.300800000000001 -0.0859 144
-0.9159999999999999 -4.8164 -0.8569 27
-1.2549 -6.5977 0.0776 77
-0.9526 -5.0078 -0.7709999999999999 75
-0.9575 -5.0352 -0.6537999999999999 174
-8.4141 -44.2188 2.6172000000000004 47
-6.699199999999999 -35.2188 2.9257999999999997 124
-1.0117 -5.3203 -0.4385 171
-6.9648 -36.625 3.9141000000000004 51
