# .PCD v0.7 - Point Cloud Data file format
VERSION 0.7
FIELDS x y z intensity
SIZE 4 4 4 4
TYPE F F F F
COUNT 1 1 1 1
WIDTH 1276
HEIGHT 1
VIEWPOINT 0 0 0 1 0 0 0
POINTS 1276
DATA ascii
-12.75 0.6904 1.04 54
-12.7578 0.6909000000000001 1.3378999999999999 61
-12.4375 0.6738 1.5977000000000001 57
-12.4531 0.6743000000000001 1.8944999999999999 48
-12.343800000000002 0.6685 2.1719 224
-2.9160000000000004 0.1681 -0.5078 22
-2.9726999999999997 0.1714 -0.4475 29
-3.1699 0.18289999999999998 0.1091 212
-12.726600000000001 0.7339 0.7393000000000001 51
-12.7422 0.7349 1.0391 172
-12.7422 0.7349 1.3369 189
-12.4297 0.7168000000000001 1.5957 157
-12.4531 0.7178 1.8955000000000002 28
-12.351600000000001 0.7119 2.1738 76
-2.9316000000000004 0.1793 -0.5103 27
-2.9608999999999996 0.18100000000000002 -0.4458 63
-3.1738 0.1941 0.1093 195
-12.625 0.772 0.7329000000000001 58
-12.7422 0.7793000000000001 1.0391 252
-12.7578 0.7803 1.3388999999999998 48
-12.4375 0.7606999999999999 1.5977000000000001 130
-12.4375 0.7606999999999999 1.8936000000000002 135
-12.351600000000001 0.7554000000000001 2.1758 14
-2.9375 0.19010000000000002 -0.5117 84
-2.9648000000000003 0.1918 -0.4465 247
-3.1504000000000003 0.2036 0.1084 148
-12.726600000000001 0.8231999999999999 0.7397 123
-12.7422 0.8237000000000001 1.0391 162
-12.6797 0.8198000000000001 1.3311000000000002 45
-12.4531 0.8051999999999999 1.5996000000000001 197
-12.4297 0.8037000000000001 1.8925999999999998 226
-12.343800000000002 0.7983 2.1738 235
-2.9257999999999997 0.1985 -0.5097999999999999 82
-2.9707 0.20149999999999998 -0.4475 34
-3.1816000000000004 0.2157 0.1096 220
-12.625 0.856 0.7334 35
-12.5703 0.8525 1.0254 37
-12.539100000000001 0.8506 1.3163999999999998 216
-12.460899999999999 0.8452 1.6016 28
-12.4297 0.8432999999999999 1.8936000000000002 243
-12.351600000000001 0.8379000000000001 2.1758 187
-2.918 0.2076 -0.5083 198
-2.9882999999999997 0.2126 -0.45020000000000004 33
-3.1719 0.2257 0.1093 54
-12.5 0.8896 0.7265999999999999 200
-12.531199999999998 0.8916 1.0225 118
-12.523399999999999 0.8911 1.3154 55
-12.460899999999999 0.8867 1.6016 15
-12.4453 0.8853 1.8955000000000002 18
-12.335899999999999 0.8779 2.1738 129
-2.9160000000000004 0.2183 -0.5083 43
-2.9668 0.222 -0.4473 123
-3.1757999999999997 0.2377 0.1094 141
-12.4922 0.9351 0.7261 98
-12.5156 0.9365000000000001 1.0215 154
-12.523399999999999 0.937 1.3154 164
-12.460899999999999 0.9320999999999999 1.6016 2
-12.4375 0.9307 1.8955000000000002 118
-12.335899999999999 0.9233 2.1738 13
-2.9257999999999997 0.22920000000000001 -0.5103 248
-2.9648000000000003 0.2323 -0.447 166
-3.1620999999999997 0.24780000000000002 0.10890000000000001 90
-12.5078 0.98 0.7275 116
-12.5 0.9795 1.0205 181
-12.531199999999998 0.9819 1.3163999999999998 68
-12.460899999999999 0.9765999999999999 1.6025 225
-12.4297 0.9741 1.8944999999999999 49
-12.335899999999999 0.9668000000000001 2.1758 24
-2.9257999999999997 0.2395 -0.5103 210
-2.9726999999999997 0.2434 -0.4485 118
-3.1620999999999997 0.2588 0.10890000000000001 133
-12.5156 1.0244 0.728 223
-12.5 1.0234 1.0205 89
-12.5156 1.0244 1.3154 14
-12.476600000000001 1.0215 1.6044999999999998 135
-12.4219 1.0176 1.8944999999999999 100
-12.3594 1.0117 2.1797 91
-2.918 0.2491 -0.5088 40
-2.9844 0.25489999999999996 -0.45020000000000004 159
-3.1719 0.2708 0.1094 55
-12.5 1.0674 0.7271 61
-12.5156 1.0684 1.0225 222
-12.523399999999999 1.0693000000000001 1.3163999999999998 127
-12.476600000000001 1.0654000000000001 1.6055000000000001 134
-12.4297 1.0615 1.8965 60
-12.3281 1.0527 2.1738 77
-2.9082 0.2585 -0.5073 186
-2.9824 0.2651 -0.45 223
-3.1797000000000004 0.2827 0.1097 164
-12.5078 1.1123 0.728 189
-12.593800000000002 1.1191 1.0293 164
-12.7031 1.1289 1.3359 71
-12.468800000000002 1.1084 1.6044999999999998 190
-12.4297 1.1055 1.8965 69
-12.3281 1.0957 2.1758 210
-2.918 0.2698 -0.5093 108
-2.9766000000000004 0.2751 -0.4495 128
-3.1855 0.2944 0.1099 156
-12.539100000000001 1.1582 0.73 1
-12.7344 1.1768 1.041 103
-12.7344 1.1768 1.3397999999999999 110
-12.460899999999999 1.1514 1.6044999999999998 41
-12.4375 1.1494 1.8984 187
-12.335899999999999 1.1396 2.1758 22
-2.918 0.2798 -0.5093 45
-2.9668 0.2844 -0.44780000000000003 178
-3.1660000000000004 0.3037 0.1093 249
-12.5156 1.2002 0.7284999999999999 33
-12.718800000000002 1.2207 1.04 168
-12.7344 1.2217 1.3397999999999999 211
-12.468800000000002 1.1963 1.6055000000000001 161
-12.4219 1.1914 1.8965 228
-12.343800000000002 1.1845999999999999 2.1797 179
-2.9355 0.292 -0.5127 214
-2.9608999999999996 0.2944 -0.4473 91
-3.1523000000000003 0.3135 0.10880000000000001 76
-12.5 1.2431999999999999 0.7284999999999999 161
-12.7344 1.2666 1.041 185
-12.7344 1.2666 1.3408000000000002 127
-12.468800000000002 1.2402 1.6063999999999998 210
-12.406199999999998 1.2344 1.8944999999999999 40
-12.343800000000002 1.2275 2.1797 120
-2.9160000000000004 0.2998 -0.5093 204
-2.9766000000000004 0.3059 -0.4497 62
-3.1641000000000004 0.32520000000000004 0.1093 165
-12.5078 1.2852000000000001 0.7284999999999999 126
-12.7344 1.3096 1.042 27
-12.718800000000002 1.3075999999999999 1.3397999999999999 47
-12.476600000000001 1.2832 1.6084 47
-12.4297 1.2773 1.8984 162
-12.3281 1.2676 2.1777 204
-2.9082 0.30879999999999996 -0.5083 247
-2.9745999999999997 0.3159 -0.4497 192
-3.1699 0.3367 0.1096 34
-3.1211 0.33130000000000004 -0.3982 58
-12.4922 1.3262 0.728 238
-12.7344 1.3516 1.042 190
-12.718800000000002 1.3506 1.3397999999999999 244
-12.460899999999999 1.3232 1.6063999999999998 150
-12.4375 1.3203 1.9003999999999999 153
-12.3203 1.3075999999999999 2.1777 63
-2.9120999999999997 0.31980000000000003 -0.5088 235
-2.9707 0.3264 -0.4495 211
-3.1895 0.3503 0.11019999999999999 164
-12.4453 1.3672 0.7256 178
-12.726600000000001 1.3984 1.042 193
-12.726600000000001 1.3984 1.3408000000000002 99
-12.460899999999999 1.3691 1.6063999999999998 17
-12.4219 1.3652000000000002 1.8994 45
-12.3125 1.3525 2.1758 140
-2.9199 0.3311 -0.5107 241
-2.9726999999999997 0.3372 -0.4497 198
-3.168 0.3591 0.1096 66
-12.5 1.4180000000000001 0.7295 78
-12.710899999999999 1.4413999999999998 1.042 75
-12.7344 1.4443000000000001 1.3428 195
-12.468800000000002 1.4141 1.6094 87
-12.4219 1.4091999999999998 1.9003999999999999 40
-3.1719 0.35960000000000003 -0.0364 119
-12.3281 1.3984 2.1816 7
-2.9257999999999997 0.3423 -0.5122 151
-3.2031 0.37479999999999997 0.0368 47
-2.9551 0.3457 -0.4473 83
-3.1797000000000004 0.3718 0.11 80
-12.5156 1.4628999999999999 0.7304999999999999 221
-12.726600000000001 1.4883000000000002 1.043 216
-12.726600000000001 1.4883000000000002 1.3418 180
-12.4844 1.46 1.6113 84
-3.1308999999999996 0.36619999999999997 -0.10830000000000001 172
-12.406199999999998 1.4502000000000002 1.8975 64
-3.082 0.36060000000000003 -0.0354 81
-12.343800000000002 1.4434 2.1836 140
-2.9219 0.3521 -0.5112 8
-2.9785000000000004 0.3589 -0.4509 50
-3.1699 0.3818 0.1097 231
-12.4375 1.4980000000000002 0.7261 92
-3.1855 0.38380000000000003 -0.3325 7
-12.7031 1.5303 1.041 190
-3.0469 0.36719999999999997 -0.24710000000000001 37
-12.718800000000002 1.5322 1.3418 21
-3.123 0.3762 -0.18030000000000002 239
-12.4844 1.5038999999999998 1.6113 2
-3.1327999999999996 0.3774 -0.1084 12
-12.406199999999998 1.4950999999999999 1.8984 86
-3.168 0.3818 -0.0364 4
-12.3203 1.4844 2.1797 46
-2.9101999999999997 0.36210000000000003 -0.5097999999999999 185
-2.9805 0.37060000000000004 -0.4514 166
-3.1797000000000004 0.39549999999999996 0.1101 184
-3.0077999999999996 0.374 -0.3843 242
-12.468800000000002 1.5518 0.7284999999999999 169
-3.0370999999999997 0.3779 -0.3171 175
-12.718800000000002 1.5819999999999999 1.0439 204
-3.0391000000000004 0.3779 -0.2465 172
-12.710899999999999 1.5811000000000002 1.3418 118
-3.1719 0.3945 -0.1833 134
-12.468800000000002 1.5518 1.6113 242
-3.1074 0.3865 -0.1076 158
-12.414100000000001 1.5449000000000002 1.9013999999999998 90
-3.168 0.39399999999999996 -0.0364 88
-12.3125 1.5312000000000001 2.1797 89
-2.9082 0.3726 -0.5097999999999999 237
-2.9785000000000004 0.38159999999999994 -0.4514 45
-3.1855 0.4082 0.1104 49
-2.9941000000000004 0.3835 -0.38280000000000003 174
-12.5156 1.6035 0.7314 226
-3.0195 0.38670000000000004 -0.3152 69
-12.718800000000002 1.6288999999999998 1.0439 137
-3.0526999999999997 0.3911 -0.2477 95
-12.718800000000002 1.6299000000000001 1.3428 228
-3.0918 0.396 -0.17859999999999998 110
-12.468800000000002 1.5977000000000001 1.6113 16
-3.1151999999999997 0.39890000000000003 -0.10779999999999999 62
-12.414100000000001 1.5897999999999999 1.9013999999999998 105
-3.1660000000000004 0.40549999999999997 -0.0364 29
-12.3047 1.5771000000000002 2.1797 85
-2.9276999999999997 0.38380000000000003 -0.5132 110
-2.9629000000000003 0.3884 -0.449 40
-3.1776999999999997 0.4165 0.1101 17
-2.9922000000000004 0.3923 -0.3826 93
-12.5469 1.6455000000000002 0.7339 130
-3.0273000000000003 0.397 -0.3164 204
-12.6953 1.6641 1.042 88
-3.0195 0.396 -0.2451 163
-12.718800000000002 1.6680000000000001 1.3437999999999999 41
-3.0702999999999996 0.40259999999999996 -0.1775 182
-12.476600000000001 1.6357 1.6133000000000002 186
-3.1055 0.4072 -0.1076 81
-12.406199999999998 1.6269999999999998 1.9013999999999998 230
-3.2168 0.4216 -0.037000000000000005 170
-12.3203 1.6162 2.1836 32
-2.9199 0.39280000000000004 -0.5122 172
-2.9766000000000004 0.4004 -0.4514 8
-3.1445 0.4229 0.10890000000000001 245
-2.9844 0.4014 -0.3818 58
-12.5078 1.6816 0.7314 188
-3.0214999999999996 0.4065 -0.3159 82
-12.7031 1.709 1.0439 165
-3.0058999999999996 0.4043 -0.2441 46
-12.718800000000002 1.71 1.3437999999999999 186
-3.0801 0.4143 -0.1782 184
-12.468800000000002 1.6768 1.6133000000000002 172
-3.127 0.4207 -0.1084 176
-12.398399999999999 1.6680000000000001 1.9013999999999998 218
-3.1641000000000004 0.4255 -0.0364 235
-12.3281 1.6582 2.1855 181
-2.9101999999999997 0.4023 -0.5107 126
-2.9745999999999997 0.4111 -0.4514 182
-3.1582 0.4365 0.1096 44
-2.9805 0.4121 -0.38159999999999994 38
-12.5781 1.7393 0.7363 241
-3.0195 0.4175 -0.3159 222
-12.710899999999999 1.7568000000000001 1.0449 17
-3.0254000000000003 0.4182 -0.2457 136
-12.7031 1.7559 1.3428 244
-3.0683999999999996 0.4241 -0.1775 14
-12.476600000000001 1.7246000000000001 1.6152000000000002 46
-3.1895 0.4409 -0.1107 93
-12.406199999999998 1.7147999999999999 1.9022999999999999 90
-3.123 0.4316 -0.0359 208
-12.3125 1.7012 2.1836 137
-2.9023000000000003 0.4114 -0.5093 12
-2.9785000000000004 0.4224 -0.4524 74
-3.1641000000000004 0.4487 0.10980000000000001 233
-2.9745999999999997 0.4219 -0.3811 58
-12.6094 1.7871000000000001 0.7383 92
-3.0137 0.42719999999999997 -0.3152 69
-12.710899999999999 1.8027000000000002 1.0449 109
-3.0351999999999997 0.4304 -0.24670000000000003 97
-12.7031 1.8018 1.3437999999999999 251
-3.082 0.43700000000000006 -0.17850000000000002 91
-12.468800000000002 1.7675999999999998 1.6143 254
-3.1327999999999996 0.44409999999999994 -0.10869999999999999 230
-12.414100000000001 1.7597999999999998 1.9053 199
-3.1601999999999997 0.44799999999999995 -0.0364 121
-12.3047 1.7450999999999999 2.1836 110
-2.9120999999999997 0.4229 -0.5112 255
-2.9882999999999997 0.4338 -0.4539 50
-3.1699 0.46020000000000005 0.1101 61
-2.9941000000000004 0.4346 -0.3835 153
-12.4453 1.8066 0.7290000000000001 189
-3.0137 0.4375 -0.3154 6
-12.6094 1.8300999999999998 1.0371 221
-3.0176 0.4382 -0.2455 205
-12.710899999999999 1.8447 1.3457 32
-3.0526999999999997 0.44310000000000005 -0.17679999999999998 55
-12.460899999999999 1.8086000000000002 1.6143 72
-3.0605 0.4443 -0.10619999999999999 144
-12.414100000000001 1.8018 1.9062000000000001 254
-3.1582 0.4585 -0.0364 126
-12.3125 1.7871000000000001 2.1855 6
-2.918 0.4336 -0.5127 166
-2.9668 0.4407 -0.4509 30
-3.1543 0.4685 0.1096 253
-2.9941000000000004 0.4448 -0.38380000000000003 152
-12.593800000000002 1.8711000000000002 0.7378 24
-3.0293 0.45020000000000004 -0.31739999999999996 23
-12.5781 1.8681999999999999 1.0352 119
-3.0137 0.4475 -0.2451 232
-12.523399999999999 1.8613 1.3262 24
-3.0957 0.4597 -0.1793 136
-12.468800000000002 1.8525 1.6162 88
-3.2012 0.4756 -0.1112 7
-12.398399999999999 1.8418 1.9043 84
-3.1562 0.469 -0.0364 77
-12.3203 1.8300999999999998 2.1895 115
-2.9160000000000004 0.4443 -0.5127 106
-2.9901999999999997 0.4556 -0.4548 213
-3.1641000000000004 0.4819 0.1099 176
-3.0039 0.4575 -0.38549999999999995 204
-12.5078 1.9053 0.7334 122
-3.0137 0.4592 -0.3159 196
-12.4844 1.9013999999999998 1.0283 180
-3.0233999999999996 0.4604 -0.24609999999999999 35
-12.4844 1.9013999999999998 1.3232 7
-3.0488 0.4646 -0.17679999999999998 240
-12.460899999999999 1.8984 1.6162 92
-3.1562 0.4807 -0.1097 11
-12.398399999999999 1.8887 1.9062000000000001 86
-3.1562 0.4805 -0.0364 94
-12.3281 1.8779 2.1914 42
-2.9257999999999997 0.4561 -0.5146000000000001 41
-2.9745999999999997 0.4639 -0.4526 243
-3.1660000000000004 0.49340000000000006 0.1101 183
-2.9844 0.4653 -0.3831 118
-12.4844 1.9463 0.7323999999999999 88
-3.0233999999999996 0.47119999999999995 -0.3169 91
-12.460899999999999 1.9413999999999998 1.0264 213
-3.0370999999999997 0.47340000000000004 -0.24739999999999998 223
-12.476600000000001 1.9453 1.3222999999999998 57
-3.0918 0.4819 -0.1793 108
-12.4219 1.9355000000000002 1.6113 41
-3.252 0.5068 -0.11320000000000001 189
-12.3906 1.9306999999999999 1.9053 224
-3.123 0.4866 -0.036000000000000004 135
-12.3125 1.9188999999999998 2.1895 100
-2.9043 0.4631 -0.5112 58
-2.9707 0.4739 -0.4524 166
-3.1836 0.5078 0.1108 51
-2.9863 0.47609999999999997 -0.3833 5
-12.406199999999998 1.9775 0.728 24
-3.0176 0.48119999999999996 -0.3164 68
-12.406199999999998 1.9785 1.0225 126
-3.0156 0.48100000000000004 -0.2457 115
-12.406199999999998 1.9785 1.3163999999999998 174
-3.0469 0.4858 -0.17679999999999998 14
-12.3906 1.9756 1.6084 43
-3.125 0.49829999999999997 -0.10869999999999999 236
-12.398399999999999 1.9775 1.9082 163
-3.1523000000000003 0.5024000000000001 -0.0364 64
-12.3047 1.9619 2.1895 42
-2.9082 0.47409999999999997 -0.5122 234
-2.9589999999999996 0.4824 -0.45039999999999997 47
-3.1699 0.5171 0.1104 43
-2.9961 0.48829999999999996 -0.385 184
-12.3906 2.0195 0.7275 86
-3.0273000000000003 0.49369999999999997 -0.3179 34
-12.3906 2.0195 1.0215 19
-3.0214999999999996 0.4927 -0.2465 123
-12.414100000000001 2.0254 1.3174000000000001 77
-3.1151999999999997 0.5078 -0.18100000000000002 20
-12.375 2.0176 1.6074000000000002 129
-3.1035000000000004 0.5059 -0.10800000000000001 89
-12.398399999999999 2.0215 1.9091999999999998 67
-12.2969 2.0059 2.1895 190
-2.9101999999999997 0.4849 -0.5127 175
-2.957 0.4927 -0.45039999999999997 191
-3.1562 0.5259 0.1099 114
-2.998 0.49950000000000006 -0.38549999999999995 15
-12.3906 2.0645 0.7284999999999999 147
-3.0254000000000003 0.5039 -0.3179 174
-12.3906 2.0645 1.0225 4
-3.0233999999999996 0.5039 -0.24670000000000003 167
-12.406199999999998 2.0684 1.3174000000000001 166
-3.1016000000000004 0.5171 -0.18030000000000002 226
-12.375 2.0625 1.6084 14
-3.1016000000000004 0.5166 -0.10800000000000001 176
-12.3828 2.0645 1.9082 249
-3.2188 0.5366 -0.0373 210
-12.3125 2.0508 2.1934 99
-2.9199 0.4971 -0.5151 192
-2.9629000000000003 0.5044 -0.4517 159
-3.1464999999999996 0.5356000000000001 0.1097 22
-2.9863 0.5083 -0.384 16
-12.3906 2.1094 0.7290000000000001 141
-3.0273000000000003 0.5151 -0.3181 173
-12.3906 2.1094 1.0225 227
-3.0137 0.5132 -0.24609999999999999 13
-12.406199999999998 2.1113 1.3184 201
-3.0839999999999996 0.5249 -0.1793 241
-12.3906 2.1094 1.6113 69
-3.1816000000000004 0.5415 -0.1109 189
-12.375 2.1074 1.9082 172
-12.3047 2.0957 2.1934 246
-2.9062 0.5054 -0.5127 44
-2.9707 0.5161 -0.4534 94
-3.1914 0.5547 0.11130000000000001 151
-2.9629000000000003 0.5151 -0.38130000000000003 9
-12.398399999999999 2.1543 0.7295 60
-3.0370999999999997 0.5278 -0.3193 130
-12.398399999999999 2.1543 1.0244 110
-3.0117000000000003 0.5234000000000001 -0.24609999999999999 21
-12.398399999999999 2.1543 1.3184 155
-3.1699 0.5508 -0.1844 176
-12.3906 2.1543 1.6122999999999998 245
-12.3828 2.1523 1.9102000000000001 4
-12.2969 2.1367 2.1934 194
-2.8964999999999996 0.5142 -0.5112 245
-2.9589999999999996 0.5249 -0.4517 222
-3.1426 0.5576 0.1097 116
-2.9668 0.5264 -0.3821 95
-12.3828 2.1973 0.7290000000000001 156
-3.0233999999999996 0.5366 -0.3181 113
-12.414100000000001 2.2012 1.0264 151
-3.0976999999999997 0.5493 -0.2532 177
-12.3906 2.1992 1.3184 142
-4.2734 0.7578 -0.2498 1
-12.3828 2.1973 1.6122999999999998 239
-12.398399999999999 2.1992 1.9131 97
-12.3047 2.1816 2.1953 84
-2.9141000000000004 0.5278 -0.5151 253
-2.9648000000000003 0.5366 -0.45289999999999997 148
-3.1641000000000004 0.5728 0.1105 184
-2.9901999999999997 0.5415 -0.38549999999999995 30
-12.3906 2.2422 0.73 222
-12.3906 2.2422 1.0244 50
-4.1992 0.7598 -0.3447 16
-12.406199999999998 2.2461 1.3203 155
-4.2695 0.7729 -0.2498 35
-12.375 2.2402 1.6122999999999998 180
-12.3828 2.2422 1.9131 84
-12.2969 2.2266 2.1953 225
-2.9101999999999997 0.5371 -0.5142 33
-2.9512 0.5449 -0.4512 253
-3.1582 0.583 0.1104 178
-3.1445 0.5806 -0.4058 97
-12.398399999999999 2.2891 0.7304999999999999 248
-12.3828 2.2852 1.0254 31
-4.2109 0.7773 -0.34590000000000004 217
-12.406199999999998 2.2891 1.3213 239
-4.2656 0.7876000000000001 -0.2498 144
-12.375 2.2852 1.6133000000000002 95
-12.3828 2.2852 1.9131 219
-12.3047 2.2715 2.1992 51
-2.9160000000000004 0.5488000000000001 -0.5156000000000001 160
-2.9531 0.5562 -0.4517 7
-3.168 0.5962 0.1108 228
-12.398399999999999 2.334 0.7314 74
-12.3906 2.332 1.0264 78
-4.2031 0.7915000000000001 -0.3457 111
-12.398399999999999 2.334 1.3213 225
-12.3828 2.3301 1.6152000000000002 172
-12.3672 2.3281 1.9131 36
-12.3047 2.3164 2.2012 156
-2.9062 0.5576 -0.5142 81
-2.9707 0.5698 -0.4548 199
-3.1620999999999997 0.6064 0.1107 71
-12.3906 2.377 0.7314 164
-12.3906 2.377 1.0273 126
-4.2109 0.8081 -0.3467 191
-12.3906 2.377 1.3222999999999998 32
-12.3828 2.377 1.6172 41
-12.375 2.373 1.915 149
-12.2969 2.3594 2.2012 203
-2.9004000000000003 0.5669 -0.5136999999999999 211
-2.9648000000000003 0.5796 -0.45409999999999995 250
-3.1641000000000004 0.6187 0.1108 97
-12.3672 2.418 0.7304999999999999 28
-12.3906 2.4219 1.0273 227
-4.1758 0.8159000000000001 -0.34380000000000005 0
-12.3906 2.4219 1.3222999999999998 5
-12.375 2.4199 1.6162 15
-12.3828 2.4199 1.9180000000000001 16
-12.289100000000001 2.4023 2.2012 169
-2.9062 0.5786 -0.5151 30
-2.9745999999999997 0.5922999999999999 -0.4561 65
-3.1855 0.6343 0.1116 52
-12.375 2.4648 0.7314 86
-12.3828 2.4648 1.0273 140
-12.3906 2.4668 1.3232 40
-12.3672 2.4609 1.6162 28
-12.398399999999999 2.4668 1.9209 6
-12.289100000000001 2.4473 2.2012 236
-2.9101999999999997 0.5898 -0.5161 213
-2.957 0.5991 -0.4536 9
-3.1641000000000004 0.6406000000000001 0.1109 171
-12.3906 2.5098 0.7329000000000001 51
-12.375 2.5059 1.0273 205
-12.398399999999999 2.5117 1.3252000000000002 226
-12.375 2.5078 1.6191 161
-12.3828 2.5078 1.9209 197
-12.289100000000001 2.4902 2.2051 45
-2.9120999999999997 0.6001 -0.5171 5
-2.9531 0.6084 -0.4534 116
-3.1387 0.6465000000000001 0.1101 17
-12.375 2.5508 0.7329000000000001 177
-12.375 2.5488 1.0283 217
-12.398399999999999 2.5527 1.3252000000000002 138
-12.3828 2.5508 1.6211000000000002 195
-12.375 2.5488 1.9199000000000002 45
-12.2969 2.5332 2.2051 75
-2.9062 0.6099 -0.5161 248
-3.2558999999999996 0.6831 0.038 117
-2.9745999999999997 0.624 -0.4568 137
-3.1719 0.6655 0.11130000000000001 209
-12.375 2.5957 0.7329000000000001 142
-12.3828 2.5995999999999997 1.0303 78
-12.375 2.5976999999999997 1.3252000000000002 197
-12.375 2.5976999999999997 1.6211000000000002 248
-12.3828 2.5976999999999997 1.9228999999999998 55
-12.281199999999998 2.5762 2.2051 190
-2.9004000000000003 0.6191 -0.5156000000000001 178
-3.252 0.6943 0.038 252
-2.9648000000000003 0.6328 -0.4556 154
-3.1719 0.6772 0.1115 214
-12.3672 2.6406 0.7329000000000001 70
-12.3906 2.6445 1.0312000000000001 157
-12.3828 2.6445 1.3262 102
-12.3672 2.6406 1.6221 124
-12.375 2.6426 1.9238 219
-12.273399999999999 2.6191000000000004 2.2051 221
-2.9141000000000004 0.6328 -0.5186 182
-3.25 0.7056 0.038 127
-2.9648000000000003 0.644 -0.45630000000000004 140
-3.1738 0.6890000000000001 0.1116 222
-12.3672 2.6855 0.7339 86
-12.375 2.6875 1.0303 33
-12.3906 2.6895 1.3281 51
-12.3594 2.6836 1.6211000000000002 50
-12.3828 2.6875 1.9247999999999998 170
-12.281199999999998 2.6660000000000004 2.209 48
-2.9141000000000004 0.6431 -0.5186 156
-3.248 0.7168000000000001 0.038 136
-2.9512 0.6518999999999999 -0.4546 56
-3.1523000000000003 0.6958 0.1109 4
-12.375 2.7324 0.7349 234
-12.3672 2.7305 1.0303 221
-12.3828 2.7344 1.3281 211
-12.3594 2.7285000000000004 1.6221 125
-12.3828 2.7324 1.9268 72
-12.281199999999998 2.7108999999999996 2.2109 107
-2.9120999999999997 0.6533 -0.5186 34
-3.2051 0.7197 0.0375 217
-2.957 0.6636 -0.4556 65
-3.1504000000000003 0.7070000000000001 0.1109 244
-12.3828 2.7793 0.7354 102
-12.3672 2.7754000000000003 1.0322 244
-12.3672 2.7773000000000003 1.3281 56
-12.3672 2.7754000000000003 1.625 81
-12.3594 2.7754000000000003 1.9258000000000002 220
-12.289100000000001 2.7598000000000003 2.2148 25
-2.8983999999999996 0.6611 -0.5166 110
-3.1523000000000003 0.7192000000000001 0.0369 15
-2.9551 0.6743000000000001 -0.4556 147
-3.1620999999999997 0.7217 0.1115 243
-12.3672 2.8202999999999996 0.7354 156
-12.375 2.8223000000000003 1.0332 141
-12.3672 2.8202999999999996 1.3281 203
-12.3672 2.8223000000000003 1.6269999999999998 34
-12.3672 2.8202999999999996 1.9277000000000002 46
-12.289100000000001 2.8026999999999997 2.2148 111
-2.9023000000000003 0.6729 -0.5181 26
-3.1776999999999997 0.7363 0.037200000000000004 205
-2.9688 0.688 -0.45799999999999996 117
-3.1757999999999997 0.7363 0.1121 23
-12.3594 2.8651999999999997 0.7354 210
-12.3672 2.8672000000000004 1.0332 109
-12.375 2.8672000000000004 1.3300999999999998 165
-12.351600000000001 2.8632999999999997 1.626 214
-12.375 2.8691000000000004 1.9306999999999999 252
-12.273399999999999 2.8438 2.2129 214
-2.9023000000000003 0.6836 -0.5186 216
-3.1483999999999996 0.7412000000000001 0.0369 97
-2.9629000000000003 0.6978 -0.4578 126
-3.168 0.7456 0.1118 10
-12.3594 2.9101999999999997 0.7363 54
-12.3594 2.9101999999999997 1.0332 70
-12.3828 2.9160000000000004 1.3330000000000002 122
-12.351600000000001 2.9082 1.6269999999999998 239
-12.375 2.9141000000000004 1.9316 41
-12.273399999999999 2.8906 2.2168 212
-2.9120999999999997 0.6962999999999999 -0.5205 194
-3.1289 0.7484999999999999 0.036699999999999997 204
-2.9492000000000003 0.7056 -0.4561 92
-3.1797000000000004 0.7606999999999999 0.1124 16
-12.3672 2.957 0.7373000000000001 254
-12.3594 2.957 1.0342 77
-12.3828 2.9608999999999996 1.334 235
-12.351600000000001 2.9531 1.6279 33
-12.3672 2.957 1.9325999999999999 217
-12.273399999999999 2.9355 2.2168 148
-2.9120999999999997 0.7075 -0.521 184
-3.1348000000000003 0.7612000000000001 0.0368 197
-2.9551 0.7178 -0.4573 187
-3.1504000000000003 0.7651 0.1114 206
-12.3594 3.002 0.7373000000000001 51
-12.3672 3.0039 1.0361 165
-12.3672 3.002 1.3330000000000002 158
-12.351600000000001 3.0 1.6288999999999998 71
-12.351600000000001 3.0 1.9316 18
-12.273399999999999 2.9805 2.2207 187
-2.9004000000000003 0.7148 -0.5195000000000001 196
-3.1562 0.7773 0.0371 70
-2.957 0.7284999999999999 -0.4578 99
-3.1504000000000003 0.7759 0.1115 119
-12.3594 3.0449 0.7383 107
-12.3594 3.0449 1.0361 223
-12.351600000000001 3.043 1.3330000000000002 131
-12.3594 3.0449 1.6318000000000001 116
-12.3594 3.043 1.9336000000000002 51
-12.273399999999999 3.0233999999999996 2.2207 118
-2.9004000000000003 0.7245999999999999 -0.52 113
-3.1367000000000003 0.7842 0.0369 123
-2.9551 0.7387999999999999 -0.45799999999999996 42
-3.1660000000000004 0.7915000000000001 0.11220000000000001 39
-12.351600000000001 3.0858999999999996 0.7383 49
-12.3594 3.0879000000000003 1.0371 106
-12.3594 3.0879000000000003 1.334 50
-12.343800000000002 3.0839999999999996 1.6309 227
-12.3594 3.0898000000000003 1.9365 239
-12.2656 3.0645 2.2207 161
-2.9062 0.7368000000000001 -0.521 184
-3.127 0.7929999999999999 0.0368 32
-2.9492000000000003 0.748 -0.4575 3
-3.2226999999999997 0.8169 0.1143 84
-12.351600000000001 3.1327999999999996 0.7387999999999999 249
-12.3594 3.1348000000000003 1.0381 72
-12.3672 3.1367000000000003 1.3369 89
-12.343800000000002 3.1308999999999996 1.6328 193
-12.3594 3.1348000000000003 1.9385 82
-12.2656 3.1094 2.2227 16
-2.9101999999999997 0.7484999999999999 -0.5225 107
-3.1582 0.8125 0.037200000000000004 20
-2.9473000000000003 0.7578 -0.4575 218
-3.25 0.8359000000000001 0.11539999999999999 27
-12.351600000000001 3.1757999999999997 0.7397 139
-12.351600000000001 3.1757999999999997 1.0381 187
-12.3672 3.1797000000000004 1.3378999999999999 189
-12.351600000000001 3.1757999999999997 1.6347999999999998 131
-12.3594 3.1776999999999997 1.9394999999999998 204
-12.2656 3.1543 2.2266 83
-2.9160000000000004 0.7612000000000001 -0.5239 252
-3.1483999999999996 0.8218000000000001 0.0371 220
-2.9433999999999996 0.7686 -0.4575 8
-12.3281 3.2188 0.4434 251
-12.351600000000001 3.2245999999999997 0.7402 65
-12.3594 3.2266000000000004 1.04 145
-12.3594 3.2266000000000004 1.3378999999999999 29
-12.351600000000001 3.2245999999999997 1.6366999999999998 83
-12.351600000000001 3.2245999999999997 1.9404 53
-12.281199999999998 3.2051 2.2305 203
-2.9023000000000003 0.7681 -0.522 235
-3.168 0.8389 0.0374 92
-2.957 0.7827 -0.46 14
-12.351600000000001 3.2714999999999996 0.4443 67
-12.351600000000001 3.2695 0.7406999999999999 191
-12.3594 3.2733999999999996 1.041 227
-12.343800000000002 3.2695 1.3378999999999999 193
-12.351600000000001 3.2714999999999996 1.6387 231
-12.351600000000001 3.2695 1.9413999999999998 43
-12.2578 3.2461 2.2285 193
-2.8906 0.7768999999999999 -0.5205 98
-3.1151999999999997 0.8369 0.0368 226
-2.9531 0.7935 -0.46 79
-12.351600000000001 3.3183999999999996 0.4448 120
-12.335899999999999 3.3145 0.7406999999999999 106
-12.3594 3.3202999999999996 1.042 35
-12.3672 3.3242000000000003 1.3418 241
-12.343800000000002 3.3164 1.6387 136
-12.351600000000001 3.3183999999999996 1.9434 108
-12.2578 3.293 2.2305 31
-2.9004000000000003 0.79 -0.5225 56
-3.1543 0.8593999999999999 0.0373 119
-2.9473000000000003 0.8027 -0.4592 2
-12.351600000000001 3.3651999999999997 0.44530000000000003 56
-12.343800000000002 3.3632999999999997 0.7417 90
-12.3594 3.3672000000000004 1.043 66
-12.3672 3.3691000000000004 1.3428 70
-12.335899999999999 3.3594 1.6387 139
-12.3594 3.3672000000000004 1.9472999999999998 153
-12.2578 3.3398000000000003 2.2324 11
-2.9043 0.8018000000000001 -0.5239 194
-3.1641000000000004 0.873 0.0375 198
-2.9452999999999996 0.8125 -0.4592 164
-12.343800000000002 3.4082 0.4456 239
-12.351600000000001 3.4082 0.7426999999999999 201
-12.335899999999999 3.4043 1.042 238
-12.3594 3.4120999999999997 1.3428 79
-12.335899999999999 3.4062 1.6406 121
-12.351600000000001 3.4082 1.9472999999999998 22
-12.273399999999999 3.3867000000000003 2.2383 106
-2.9141000000000004 0.8145 -0.5259 242
-3.1562 0.8823000000000001 0.0374 181
-2.9433999999999996 0.8231999999999999 -0.4597 9
-12.3281 3.4473000000000003 0.44530000000000003 21
-12.351600000000001 3.4531 0.7437 152
-12.3594 3.4551 1.0449 217
-12.3594 3.4551 1.3447 248
-12.343800000000002 3.4512 1.6436000000000002 47
-12.335899999999999 3.4492000000000003 1.9472999999999998 55
-12.2656 3.4297000000000004 2.2383 26
-2.9004000000000003 0.8223 -0.5244 80
-3.1387 0.8892 0.037200000000000004 58
-2.9512 0.8359000000000001 -0.4612 5
-12.335899999999999 3.4941000000000004 0.4458 172
-12.343800000000002 3.498 0.7441 126
-12.3594 3.502 1.0459 253
-12.3594 3.502 1.3457 170
-12.335899999999999 3.4941000000000004 1.6436000000000002 156
-12.343800000000002 3.498 1.9502000000000002 146
-12.2578 3.4745999999999997 2.2402 192
-2.8945 0.8306 -0.5234000000000001 176
-3.1464999999999996 0.9028 0.0374 128
-2.957 0.8486 -0.46259999999999996 92
-12.343800000000002 3.5410000000000004 0.4465 235
-12.335899999999999 3.5410000000000004 0.7441 21
-12.343800000000002 3.543 1.0459 35
-12.351600000000001 3.5449 1.3457 149
-12.3281 3.5370999999999997 1.6444999999999999 170
-12.6172 3.6211 1.9961000000000002 36
-12.2422 3.5137 2.2383 142
-2.9004000000000003 0.8438 -0.5254 201
-3.1327999999999996 0.9111 0.037200000000000004 26
-2.9452999999999996 0.8564 -0.4612 146
-12.351600000000001 3.5918 0.4473 209
-12.343800000000002 3.5898000000000003 0.7451000000000001 38
-12.3594 3.5938 1.0479 240
-18.9844 5.519500000000001 2.0723 58
-12.7969 3.7226999999999997 2.0254 136
-12.25 3.5625 2.2422 85
-2.9062 0.8564 -0.5268999999999999 107
-3.1191000000000004 0.9194 0.0371 223
-2.9395 0.8662000000000001 -0.4607 51
-12.335899999999999 3.6367000000000003 0.4475 33
-19.125 5.636699999999999 2.0898 41
-18.0 5.3047 2.8555 8
-19.3906 5.7148 3.5566000000000004 79
-2.9120999999999997 0.8695999999999999 -0.5283 67
-3.1211 0.9320999999999999 0.037200000000000004 41
-2.9395 0.8784000000000001 -0.46140000000000003 171
-19.3281 5.7734000000000005 2.1152 242
-17.9531 5.359400000000001 2.8495999999999997 245
-19.2969 5.761699999999999 3.543 66
-2.9023000000000003 0.8774 -0.5268999999999999 135
-3.1348000000000003 0.9481999999999999 0.0374 223
-2.9492000000000003 0.8920999999999999 -0.4631 150
-19.1875 5.8047 2.1035 63
-17.9375 5.425800000000001 2.8516000000000004 90
-19.2812 5.832000000000001 3.5449 106
-2.8906 0.8848 -0.5259 73
-3.1151999999999997 0.9536 0.037200000000000004 209
-2.9433999999999996 0.9009 -0.4629 96
-19.0 5.8125 2.084 159
-19.375 5.9297 3.5645 162
-2.8964999999999996 0.897 -0.5268999999999999 29
-3.1074 0.9629000000000001 0.0371 197
-2.9473000000000003 0.9131 -0.46409999999999996 137
-19.0625 5.9062 2.0938 102
-17.9688 5.5664 2.8613 3
-19.375 6.0 3.5683999999999996 89
-2.8964999999999996 0.9087000000000001 -0.5278 143
-3.1211 0.9795 0.0374 35
-2.9375 0.9214 -0.4629 200
-23.3438 7.324199999999999 1.4209 19
-19.0781 5.988300000000001 2.0977 241
-18.1719 5.699199999999999 2.4434 248
-17.9844 5.644500000000001 2.8672000000000004 170
-19.3281 6.0625 3.5645 191
-2.9101999999999997 0.9243000000000001 -0.5307999999999999 166
-3.123 0.9917 0.0374 73
-2.9395 0.9336 -0.4639 223
-23.4375 7.4414 0.8564 248
-23.3438 7.4140999999999995 1.4219 197
-19.0781 6.0586 2.0996 202
-18.2969 5.8086 2.4629 180
-17.9844 5.7109000000000005 2.8711 18
-19.3125 6.1328 3.5645 84
-2.9062 0.9336 -0.5307999999999999 41
-3.1211 1.0029000000000001 0.0374 20
-2.9452999999999996 0.9462999999999999 -0.4653 214
-23.3594 7.5039 0.855 11
-23.3281 7.4961 1.4238 145
-18.9844 6.0977 2.0918 106
-18.0625 5.800800000000001 2.4355 103
-17.9062 5.7539 2.8613 19
-19.5156 6.269500000000001 3.6074 209
-2.8926 0.9399 -0.5288 119
-3.1151999999999997 1.0127 0.0374 93
-2.9531 0.9590000000000001 -0.4668 94
-23.3594 7.5859000000000005 1.4258000000000002 156
-18.0312 5.859400000000001 2.4336 249
-17.0 5.5234000000000005 2.7188 213
-16.7969 5.457000000000001 3.1055 224
-2.9004000000000003 0.9541 -0.5307999999999999 2
-3.1132999999999997 1.0244 0.0374 247
-2.9395 0.9668000000000001 -0.4653 139
-19.5781 6.4414 2.1621 181
-17.9844 5.917999999999999 2.4297 48
-16.8438 5.5390999999999995 2.6973000000000003 227
-19.3281 6.359400000000001 3.5801 232
-2.9043 0.9668000000000001 -0.5322 209
-3.1367000000000003 1.0439 0.0378 118
-2.9355 0.9771 -0.4653 142
-23.4062 7.792999999999999 1.4325999999999999 136
-19.5469 6.5078 2.1602 47
-18.2031 6.0586 2.4629 79
-16.7812 5.5859000000000005 2.6895 21
-3.1035000000000004 1.0332 -0.0374 66
-19.2344 6.4023 3.5683999999999996 139
-2.9043 0.9784999999999999 -0.5332 190
-3.1601999999999997 1.0645 0.0381 181
-2.9433999999999996 0.9917 -0.467 49
-19.5312 6.578099999999999 2.1602 222
-18.2188 6.136699999999999 2.4668 163
-16.7656 5.6484000000000005 2.6914 149
-3.0858999999999996 1.0391 -0.037200000000000004 23
-16.7812 5.6523 3.1151999999999997 164
-2.9004000000000003 0.9887999999999999 -0.5332 221
-3.1895 1.0869 0.0385 228
-2.9452999999999996 1.0039 -0.46799999999999997 212
-19.6562 6.699199999999999 2.1777 239
-18.2031 6.207000000000001 2.4688 53
-16.7812 5.7227 2.6973000000000003 209
-3.0742000000000003 1.0479 -0.0371 192
-16.75 5.7109000000000005 3.1132999999999997 174
-2.8945 0.9971 -0.5322 235
-3.2051 1.1045 0.0387 162
-2.9551 1.0186 -0.4702 82
-19.6406 6.765599999999999 2.1777 19
-17.25 5.9453 2.3418 161
-3.082 1.0615 -0.037200000000000004 251
-16.7031 5.7539 3.1074 205
-2.8964999999999996 1.0088 -0.5332 91
-2.9452999999999996 1.0254 -0.469 36
-19.5156 6.796900000000001 2.168 226
-17.3281 6.0352 2.3555 172
-19.2188 6.6914 3.0957 210
-3.0976999999999997 1.0781 -0.0374 210
-2.9101999999999997 1.0264 -0.5366 111
-2.9375 1.0352 -0.4683 200
-19.5156 6.8789 2.1699 184
-17.3906 6.1289 2.3652 181
-17.75 6.2539 2.8613 254
-3.0976999999999997 1.0918 -0.0375 53
-16.8438 5.9375 3.1406 58
-2.9062 1.0361 -0.5366 165
-2.9452999999999996 1.0498 -0.4702 41
-92.0 32.7812 7.9727 72
-19.4844 6.9414 2.168 73
-17.625 6.2852 2.4023 37
-17.7188 6.3164 2.8613 146
-3.0723000000000003 1.0957 -0.037200000000000004 87
-16.7656 5.9765999999999995 3.1308999999999996 240
-2.9004000000000003 1.0449 -0.5361 25
-2.9414 1.0595999999999999 -0.4702 65
-17.6562 6.359400000000001 1.9678 161
-17.8594 6.4336 2.4355 122
-17.2344 6.207000000000001 2.7870999999999997 249
-3.0801 1.1094 -0.0374 63
-16.9062 6.0898 3.1620999999999997 58
-2.8887 1.0518 -0.5347 184
-2.9531 1.0742 -0.4727 237
-17.625 6.4140999999999995 1.9668 205
-17.1875 6.2539 2.3457 13
-17.1562 6.2461 2.7773000000000003 154
-3.0566000000000004 1.1133 -0.0371 251
-17.0156 6.1914 3.1855 160
-2.8926 1.0654000000000001 -0.5361 116
-2.9336 1.0801 -0.4702 123
-19.6406 7.234400000000001 2.6875 141
-18.875 6.953099999999999 3.0605 227
-3.082 1.1348 -0.0375 87
-16.9844 6.2578 3.1855 164
-2.9043 1.0811 -0.5390999999999999 86
-2.9375 1.0937999999999999 -0.4714 241
-18.6719 6.949199999999999 3.0312 215
-3.0742000000000003 1.1445 -0.0374 221
-17.7188 6.5977 3.3262 161
-2.9101999999999997 1.0947 -0.541 68
-2.9414 1.1055 -0.4727 49
-8.7266 3.2832 0.7578 120
-8.7266 3.2812 0.9751000000000001 156
-8.7031 3.2733999999999996 1.1904000000000001 212
-3.0801 1.1582 -0.037599999999999995 200
-8.625 3.2441000000000004 1.6172 23
-2.8926 1.0986 -0.5381 51
-2.9452999999999996 1.1191 -0.47409999999999997 120
-8.6797 3.2988 0.5376 206
-8.6875 3.3007999999999997 0.7554000000000001 72
-8.6562 3.2870999999999997 0.9682999999999999 175
-8.6016 3.2676 1.1787 15
-8.6328 3.2793 1.4022999999999999 1
-3.0801 1.1699 -0.037599999999999995 67
-8.5781 3.2577999999999996 1.6103999999999998 138
-2.8848000000000003 1.1074 -0.5376 166
-2.9473000000000003 1.1318000000000001 -0.47490000000000004 224
-8.6094 3.3066000000000004 0.5342 74
-8.6172 3.3066000000000004 0.75 143
-8.5938 3.2969 0.9623999999999999 11
-8.5859 3.2949 1.1768 231
-8.6172 3.3086 1.4013999999999998 1
-3.0762 1.1806999999999999 -0.037599999999999995 100
-8.5625 3.2870999999999997 1.6094 56
-2.8964999999999996 1.123 -0.5405 49
-8.6484 3.3535000000000004 0.1076 54
-2.9336 1.1367 -0.4731 58
-8.5859 3.3301 0.5332 47
-8.5859 3.3281 0.7484999999999999 84
-8.6016 3.3339999999999996 0.9648 54
-8.5625 3.3183999999999996 1.1758 104
-3.1132999999999997 1.207 -0.1148 144
-8.6562 3.3555 1.4091999999999998 104
-3.0938 1.1992 -0.0379 193
-8.5625 3.3202999999999996 1.6122999999999998 43
-2.9004000000000003 1.1367 -0.542 40
-8.5938 3.3672000000000004 0.10710000000000001 81
-2.9355 1.1504 -0.4744 166
-8.5703 3.3594 0.31980000000000003 125
-8.5781 3.3613 0.5332 219
-8.5781 3.3594 0.7484999999999999 140
-8.6172 3.377 0.9678 252
-8.5781 3.3632999999999997 1.1797 3
-3.0683999999999996 1.2021 -0.1133 78
-3.0839999999999996 1.208 -0.0378 109
-8.6562 3.3926 1.6318000000000001 241
-2.9043 1.1504 -0.5435 167
-8.5859 3.3983999999999996 0.10710000000000001 101
-2.9492000000000003 1.167 -0.4771 248
-8.5625 3.3906 0.31980000000000003 110
-8.5781 3.3945 0.5337 165
-8.5938 3.4023000000000003 0.7509999999999999 17
-8.625 3.4141000000000004 0.9702 44
-8.6797 3.4355 1.1943000000000001 206
-3.1094 1.2314 -0.115 58
-8.5625 3.3887 -0.10679999999999999 76
-17.5938 6.9648 3.3281 163
-2.8964999999999996 1.1582 -0.5425 164
-8.6172 3.4473000000000003 0.10769999999999999 229
-2.9433999999999996 1.1768 -0.4768 158
-8.5781 3.4297000000000004 0.3208 137
-8.5859 3.4355 0.5356000000000001 238
-8.7656 3.5077999999999996 0.7676000000000001 76
-19.6719 7.8672 2.7188 178
-3.0976999999999997 1.2393 -0.11470000000000001 37
-18.9531 7.582000000000001 3.1074 63
-8.5625 3.4238 -0.1069 112
-17.6406 7.0547 3.3418 212
-2.8848000000000003 1.166 -0.5415 218
-17.8906 7.2265999999999995 0.22460000000000002 107
-2.9492000000000003 1.1914 -0.47850000000000004 191
-17.8594 7.2148 0.6704000000000001 90
-17.3906 7.0234000000000005 1.0879 31
-8.9531 3.6172000000000004 1.2363 5
-3.0938 1.25 -0.11470000000000001 54
-17.8906 7.230499999999999 -0.2249 229
-18.5312 7.484400000000001 3.5156 218
-2.8964999999999996 1.1816 -0.5439 71
-17.8594 7.2890999999999995 0.22469999999999998 136
-2.9414 1.2002 -0.478 193
-17.8281 7.2773 0.6709 193
-17.3125 7.0625 1.085 252
-8.8438 3.6074 1.2227 20
-3.0781 1.2559 -0.1143 178
-17.9062 7.3086 -0.2253 240
-16.5938 6.769500000000001 3.1523000000000003 130
-2.8983999999999996 1.1953 -0.5454 184
-2.9375 1.2109 -0.478 14
-17.8438 7.355499999999999 0.6724 13
-17.4688 7.203099999999999 1.0967 222
-8.9141 3.6757999999999997 0.7842 202
-8.7422 3.6035000000000004 0.9893000000000001 27
-8.7734 3.6172000000000004 1.2148 255
-3.0683999999999996 1.2646 -0.11410000000000001 228
-16.625 6.8515999999999995 3.1620999999999997 11
-2.9023000000000003 1.208 -0.5468999999999999 189
-2.9375 1.2227 -0.47850000000000004 237
-18.0156 7.4961 0.6792 252
-17.7812 7.4023 1.1181999999999999 224
-8.7031 3.623 0.9863 118
-8.7734 3.6523000000000003 1.2168 219
-3.0586 1.2734 -0.114 30
-17.3438 7.2188 2.8574 187
-16.5625 6.894500000000001 3.1562 6
-2.9082 1.2227 -0.5488000000000001 209
-2.9512 1.2402 -0.4817 231
-18.1094 7.613300000000001 0.6846 170
-17.4844 7.3515999999999995 1.1016 238
-17.9219 7.5352 1.585 252
-8.7031 3.6582 0.9878 78
-8.7812 3.6933999999999996 1.2207 74
-3.0801 1.2949000000000002 -0.1149 81
-17.3281 7.2852 2.8594 146
-19.6562 8.2578 -0.2484 55
-16.5 6.9336 3.1483999999999996 215
-2.8808999999999996 1.2227 -0.5444 111
-2.9531 1.2539 -0.4829 148
-17.7031 7.515599999999999 1.1162 74
-17.9375 7.613300000000001 1.5878999999999999 105
-8.7031 3.6952999999999996 0.9893000000000001 248
-8.7344 3.707 1.2148 60
-3.0702999999999996 1.3037 -0.11470000000000001 127
-19.9531 8.4688 3.3007999999999997 90
-19.5312 8.2969 -0.2473 219
-16.4375 6.9765999999999995 3.1406 68
-2.8867000000000003 1.2373 -0.5464 63
-2.9395 1.2598 -0.48100000000000004 131
-17.75 7.605499999999999 1.1201 103
-17.8438 7.644500000000001 1.5819999999999999 240
-8.7188 3.7382999999999997 0.9926999999999999 228
-8.7188 3.7363 1.2148 68
-3.0625 1.3125 -0.11460000000000001 231
-19.9219 8.5391 3.2988 16
-17.9219 7.6797 3.4316000000000004 101
-2.8945 1.252 -0.5488000000000001 130
-2.9414 1.2725 -0.48219999999999996 77
-68.5 29.625 2.6035000000000004 43
-17.8438 7.7188 1.1289 125
-17.9062 7.7422 1.5897999999999999 242
-8.7188 3.7714999999999996 0.9937 46
-3.1172000000000004 1.3486000000000002 -0.1949 75
-8.75 3.7832 1.2207 100
-3.0723000000000003 1.3291 -0.1151 62
-19.9062 8.6094 3.3007999999999997 231
-19.5469 8.4609 3.748 165
-2.9043 1.2676 -0.5513 7
-2.9375 1.2822 -0.48219999999999996 209
-17.9688 7.8398 1.5977000000000001 1
-17.0781 7.453099999999999 1.9531 133
-3.0645 1.3378999999999999 -0.19190000000000002 156
-16.8125 7.3359000000000005 2.3535 124
-3.0742000000000003 1.3418 -0.1153 22
-19.8281 8.6562 3.2910000000000004 86
-18.9375 8.2656 -0.24059999999999998 241
-19.5 8.5078 3.7441000000000004 76
-2.8808999999999996 1.2705 -0.5478999999999999 111
-2.9512 1.3008000000000002 -0.4851 236
-65.5625 28.8906 4.1641 86
-3.0742000000000003 1.3555000000000001 -0.1929 32
-16.8281 7.4140999999999995 2.3594 156
-3.0858999999999996 1.3603999999999998 -0.11599999999999999 169
-19.75 8.7031 3.2851999999999997 123
-18.7344 8.2578 -0.2386 200
-19.6875 8.6797 3.7870999999999997 133
-2.8887 1.2852000000000001 -0.5498 173
-2.957 1.3163999999999998 -0.48710000000000003 82
-56.4688 25.125 2.1562 168
-64.875 28.8594 4.1289 14
-3.0547000000000004 1.3594 -0.19190000000000002 213
-16.7656 7.4609000000000005 2.3555 226
-3.1601999999999997 1.4062000000000001 -0.11900000000000001 188
-19.6875 8.7578 3.2793 72
-18.7344 8.3438 -0.239 121
-17.1094 7.613300000000001 3.2949 140
-2.8983999999999996 1.3018 -0.5527000000000001 112
-2.9473000000000003 1.3241999999999998 -0.4861 177
-56.5 25.375 2.1602 228
-64.25 28.8594 4.0938 71
-3.0547000000000004 1.3721 -0.19210000000000002 111
-16.7812 7.5390999999999995 2.3613 131
-18.5156 8.3203 -0.7070000000000001 95
-18.7188 8.4062 -0.239 19
-17.0469 7.6602 3.2891000000000004 125
-2.9004000000000003 1.3154 -0.5542 62
-18.8281 8.5312 0.2407 191
-2.9355 1.3311000000000002 -0.4849 127
-56.5 25.625 2.1641 209
-63.6562 28.8594 4.0625 222
-16.8438 7.640599999999999 1.9404 220
-3.0449 1.3799000000000001 -0.1918 69
-16.7344 7.5859000000000005 2.3574 198
-18.2656 8.2812 -0.6987000000000001 143
-18.7344 8.4922 -0.2396 182
-19.5312 8.8594 3.7733999999999996 4
-2.9101999999999997 1.3311000000000002 -0.5571 145
-18.8125 8.6016 0.24100000000000002 28
-2.9492000000000003 1.3486000000000002 -0.488 9
-63.7188 29.1562 4.0742 186
-2.8651999999999997 1.3105000000000002 -0.3267 248
-16.7969 7.6836 1.9365 38
-3.0312 1.3866999999999998 -0.1913 73
-16.5938 7.5938 2.3438 164
-17.625 8.0625 2.9492000000000003 12
-18.7031 8.5547 -0.2396 5
-19.5312 8.9375 3.7812 5
-2.8926 1.334 -0.5542 213
-18.7812 8.6641 0.24100000000000002 112
-2.9608999999999996 1.3662 -0.4907 211
-63.6875 29.3906 4.0781 146
-2.7851999999999997 1.2852000000000001 -0.3179 79
-63.375 29.2344 5.6953 125
-3.0547000000000004 1.4102000000000001 -0.2712 88
-16.7188 7.7148 1.9306999999999999 36
-3.0195 1.3936000000000002 -0.19079999999999997 235
-16.5469 7.640599999999999 2.3398 105
-17.5469 8.0938 2.9395 218
-18.7031 8.6328 -0.24 47
-19.5 9.0 3.7793 192
-2.8906 1.3466999999999998 -0.5547 40
-18.7656 8.7422 0.2412 43
-2.9492000000000003 1.374 -0.48969999999999997 209
-63.125 29.4062 4.0469 163
-2.7851999999999997 1.2978999999999998 -0.3184 243
-62.7188 29.2188 5.6484000000000005 9
-16.7812 7.8203 1.9413999999999998 244
-3.0195 1.4062000000000001 -0.191 94
-16.6406 7.7539 2.3574 175
-17.7656 8.2734 -0.6826000000000001 147
-17.4688 8.1328 2.9316000000000004 126
-18.7344 8.7266 -0.2408 107
-19.5469 9.1016 3.793 13
-2.8926 1.3603999999999998 -0.5562 243
-18.7656 8.8203 0.2415 100
-2.9433999999999996 1.3838 -0.48950000000000005 11
-62.5312 29.4062 2.4121 199
-62.4062 29.3438 4.0078 104
-2.7676 1.3018 -0.3169 161
-62.0625 29.1875 5.5977 29
-2.8026999999999997 1.3184 -0.2494 77
-17.2031 8.0859 1.9941 73
-3.0332 1.4268 -0.1924 238
-17.5625 8.25 -0.6758 255
-17.5469 8.25 2.9512 157
-18.7031 8.7969 -0.2408 110
-17.9062 8.4141 3.4805 141
-2.8983999999999996 1.376 -0.5581 183
-18.7656 8.9062 0.2419 171
-2.9316000000000004 1.3916 -0.48829999999999996 15
-69.5625 33.0 2.6855 38
-2.7733999999999996 1.3163999999999998 -0.3179 126
-2.8066000000000004 1.3319999999999999 -0.25 34
-17.2031 8.1719 1.9980000000000002 189
-3.043 1.4443000000000001 -0.1932 187
-17.4531 8.2812 -0.6729 15
-17.5469 8.3281 2.9551 126
-18.7656 8.9062 -0.2419 22
-17.5156 8.3125 3.4120999999999997 104
-2.9101999999999997 1.3936000000000002 -0.5615 12
-18.7969 9.0 0.2429 248
-2.957 1.416 -0.49340000000000006 103
-2.7812 1.3319999999999999 -0.3193 223
-2.7969 1.3397999999999999 -0.24960000000000002 214
-17.2188 8.25 2.002 96
-3.0449 1.4580000000000002 -0.1937 62
-17.3281 8.2969 -0.6689 41
-18.4062 8.8203 3.1055 1
-17.4688 8.3672 3.4082 85
-2.8906 1.3965 -0.5586 68
-18.8125 9.0859 0.2434 35
-2.9512 1.4258000000000002 -0.49340000000000006 136
-60.7188 29.3438 2.3535 187
-2.7969 1.3516 -0.322 148
-2.8457 1.375 -0.2546 200
-17.1875 8.3047 2.002 9
-3.0391000000000004 1.4678 -0.1936 168
-17.125 8.2734 -0.6626000000000001 89
-18.5 8.9375 3.125 78
-17.4531 8.4297 3.4101999999999997 45
-2.8964999999999996 1.4121000000000001 -0.5605 163
-2.9512 1.4394999999999998 -0.49439999999999995 165
-60.1875 29.3438 3.8945 173
-2.8007999999999997 1.3652000000000002 -0.32280000000000003 172
-2.8594 1.3944999999999999 -0.2561 78
-3.0605 1.4922 -0.1954 89
-18.4688 9.0 3.125 93
-17.3906 8.4766 3.4043 188
-2.8867000000000003 1.4188999999999998 -0.5596 149
-2.9433999999999996 1.4472999999999998 -0.49369999999999997 253
-2.7891000000000004 1.3711000000000002 -0.322 57
-2.8867000000000003 1.4199000000000002 -0.259 241
-59.0938 29.0469 6.917999999999999 78
-18.6875 9.1875 -1.209 15
-17.3906 8.5469 3.4082 37
-2.9120999999999997 1.4434 -0.5654 184
-2.9336 1.4541 -0.4927 142
-59.0312 29.2656 2.2988 86
-2.8164 1.3955000000000002 -0.3257 74
-2.9648000000000003 1.4697 -0.2666 103
-58.625 29.0625 6.875 243
-18.6094 9.2188 -1.2051 49
-17.0625 8.4609 -0.6636 62
-18.8438 9.3438 3.7012 208
-2.9043 1.4531 -0.5654 58
-2.9414 1.4716999999999998 -0.4951 234
-2.8495999999999997 1.4258000000000002 -0.33030000000000004 174
-2.9961 1.499 -0.27 225
-58.0625 29.0469 6.8203 45
-18.5156 9.2656 -1.2021 222
-17.0781 8.5469 -0.665 5
-18.875 9.4453 3.7129000000000003 10
-2.8964999999999996 1.4619 -0.5645 252
-2.9551 1.4912 -0.49829999999999997 43
-2.9785000000000004 1.5029 -0.4236 128
-2.9512 1.4893 -0.3428 87
-14.0 7.0664 1.2773 167
-2.9901999999999997 1.5088 -0.2698 216
-57.5312 29.0469 6.769500000000001 117
-18.4531 9.3125 -1.2002 5
-17.0781 8.6172 -0.6659999999999999 180
-17.125 8.6406 -0.2234 32
-18.7969 9.4844 3.7051 130
-2.9043 1.4785 -0.5674 205
-2.9492000000000003 1.5019999999999998 -0.49829999999999997 250
-2.9901999999999997 1.5225 -0.4263 154
-57.375 29.2031 3.7422000000000004 226
-3.0098000000000003 1.5322 -0.3503 124
-3.0233999999999996 1.5391 -0.2734 188
-57.2812 29.1562 6.75 118
-18.3594 9.3516 -1.1963 194
-17.0938 8.6953 -0.6679999999999999 216
-17.0312 8.6719 -0.2227 113
-18.75 9.5469 3.7031 233
-2.9004000000000003 1.4893 -0.5674 228
-18.7812 9.6406 0.2458 1
-2.9414 1.5097999999999998 -0.4976 157
-57.25 29.3906 2.2461 100
-2.9961 1.5381 -0.4277 220
-57.1875 29.375 3.7382999999999997 133
-3.0898000000000003 1.5859 -0.3604 103
-3.0137 1.5478999999999998 -0.2732 31
-57.2812 29.4062 6.761699999999999 94
-18.25 9.375 -1.1914 101
-17.0781 8.7656 -0.6685 109
-17.0625 8.7578 -0.2234 17
-2.9062 1.5049000000000001 -0.5698 149
-2.9452999999999996 1.5253999999999999 -0.49950000000000006 158
-57.2812 29.6562 2.25 1
-45.2188 23.4062 2.9608999999999996 183
-3.0839999999999996 1.5966999999999998 -0.3604 205
-3.0098000000000003 1.5575999999999999 -0.2732 147
-55.4375 28.6875 6.5547 190
-18.2344 9.4375 -1.1924 133
-55.375 28.6562 8.0156 163
-17.0625 8.8281 -0.6689 235
-17.0625 8.8359 -0.2238 110
-2.9082 1.5175999999999998 -0.5708 124
-2.9433999999999996 1.5361000000000002 -0.49979999999999997 11
-57.1875 29.8438 2.25 152
-57.25 29.875 3.7539 96
-13.9375 7.2734000000000005 1.2803 224
-3.0058999999999996 1.5684 -0.2732 102
-13.9531 7.2812 1.6494 99
-18.1875 9.4922 -1.1914 158
-55.0312 28.7344 7.980499999999999 49
-17.0781 8.9141 -0.6709 69
-55.5 28.9688 9.5391 76
-17.0625 8.8984 -0.2241 64
-2.8964999999999996 1.5253999999999999 -0.5698 232
-2.9414 1.5497999999999998 -0.5005 209
-55.9375 29.4688 3.6757999999999997 78
-3.0723000000000003 1.6181999999999999 -0.3604 95
-13.9453 7.3438 1.2832 106
-3.0117000000000003 1.5869 -0.27440000000000003 206
-18.0938 9.5312 -1.1875 85
-54.8438 28.8906 7.9688 239
-17.0938 9.0 -0.6729 122
-55.25 29.0938 9.5156 95
-17.0312 8.9766 -0.2242 21
-2.8964999999999996 1.5391 -0.5708 9
-2.9512 1.5674000000000001 -0.5029 40
-44.3125 23.5469 2.918 147
-3.0664 1.6288999999999998 -0.3604 212
-13.9453 7.4062 1.2861000000000002 228
-3.0391000000000004 1.6143 -0.2773 150
-13.1328 6.9765999999999995 -0.8628 137
-54.7812 29.0938 7.9727 145
-17.1406 9.1094 -0.6758 94
-55.1562 29.3125 9.5156 11
-12.976600000000001 6.894500000000001 -0.1709 167
-55.1875 29.3281 11.0156 13
-2.9043 1.5556999999999999 -0.5737 158
-2.9492000000000003 1.5791 -0.5034000000000001 107
-3.0293 1.6230000000000002 -0.3567 3
-13.9375 7.4648 1.2881 139
-13.0156 6.9727 -1.2021 171
-12.968800000000002 6.9453 -0.8534999999999999 118
-54.625 29.2656 7.9648 73
