# .PCD v0.7 - Point Cloud Data file format
VERSION 0.7
FIELDS x y z intensity
SIZE 4 4 4 4
TYPE F F F F
COUNT 1 1 1 1
WIDTH 1246
HEIGHT 1
VIEWPOINT 0 0 0 1 0 0 0
POINTS 1246
DATA ascii
-12.7031 0.45039999999999997 0.7373000000000001 168
-12.7656 0.4526 1.04 198
-12.7578 0.4521 1.3369 237
-12.4531 0.4414 1.5977000000000001 215
-12.460899999999999 0.44170000000000004 1.8944999999999999 84
-12.343800000000002 0.4375 2.1699 114
-2.9316000000000004 0.1137 -0.5103 51
-2.9688 0.1151 -0.4465 62
-3.168 0.12279999999999999 0.10890000000000001 198
-3.1367000000000003 0.1216 -0.3982 56
-12.6875 0.4919 0.7363 246
-12.7656 0.4949 1.04 1
-12.7656 0.4946 1.3378999999999999 52
-12.4453 0.4824 1.5966999999999998 104
-12.4531 0.4829 1.8944999999999999 204
-12.343800000000002 0.47850000000000004 2.1719 16
-2.9355 0.1246 -0.5107 95
-2.9531 0.12539999999999998 -0.4443 40
-3.1797000000000004 0.1349 0.1093 105
-12.7344 0.5405 0.7387999999999999 139
-12.75 0.541 1.0391 60
-12.7656 0.5415 1.3378999999999999 69
-12.4453 0.5283 1.5966999999999998 190
-12.4453 0.5278 1.8925999999999998 62
-12.3672 0.5249 2.1738 109
-2.9395 0.135 -0.5112 30
-2.9629000000000003 0.1361 -0.4458 17
-3.1719 0.1458 0.1091 45
-12.7578 0.5859000000000001 0.7402 48
-12.7578 0.5859000000000001 1.0391 183
-12.7422 0.5854 1.3359 168
-12.4453 0.5718 1.5977000000000001 94
-12.4297 0.5708 1.8906 246
-12.3594 0.5674 2.1738 220
-2.9297000000000004 0.14529999999999998 -0.5097999999999999 212
-2.9745999999999997 0.1476 -0.4475 126
-3.1601999999999997 0.1567 0.10869999999999999 186
-3.1348000000000003 0.1555 -0.3982 6
-12.710899999999999 0.6309 0.7378 134
-12.75 0.6328 1.0391 168
-12.75 0.6323 1.3369 21
-12.4453 0.6177 1.5977000000000001 187
-12.4297 0.6167 1.8916 119
-12.351600000000001 0.6128 2.1738 152
-2.9238 0.1553 -0.5088 133
-2.9766000000000004 0.15810000000000002 -0.4482 206
-3.1699 0.16829999999999998 0.1091 30
-12.7344 0.6762999999999999 0.7393000000000001 174
-12.75 0.6772 1.0391 180
-12.7422 0.6768000000000001 1.3369 192
-12.4375 0.6606000000000001 1.5966999999999998 83
-12.4531 0.6611 1.8944999999999999 134
-12.3281 0.6548 2.1699 102
-2.9297000000000004 0.1659 -0.5103 247
-2.9608999999999996 0.16760000000000003 -0.4458 213
-3.1875 0.1804 0.1097 91
-12.7422 0.7212000000000001 0.7397 88
-12.7578 0.7222 1.04 73
-12.75 0.7217 1.3369 173
-12.4375 0.7041 1.5966999999999998 67
-12.4531 0.7045999999999999 1.8944999999999999 105
-12.343800000000002 0.6987000000000001 2.1738 248
-2.9395 0.1766 -0.5117 247
-2.9492000000000003 0.1772 -0.44380000000000003 59
-3.168 0.19039999999999999 0.1091 69
-12.710899999999999 0.7642 0.7383 103
-12.75 0.7661 1.04 197
-12.7578 0.7670999999999999 1.3388999999999998 246
-12.4297 0.7476 1.5966999999999998 34
-12.4375 0.7476 1.8936000000000002 43
-12.351600000000001 0.7426999999999999 2.1738 68
-2.9395 0.1864 -0.5117 152
-2.9629000000000003 0.188 -0.44630000000000003 71
-3.1562 0.2002 0.10859999999999999 13
-12.7422 0.8081 0.7402 104
-12.7422 0.8081 1.0391 89
-12.726600000000001 0.8076000000000001 1.3359 164
-12.4375 0.7890999999999999 1.5977000000000001 138
-12.4219 0.7881 1.8916 187
-12.3672 0.7847 2.1777 114
-2.9316000000000004 0.19579999999999997 -0.5107 209
-2.9707 0.1984 -0.4475 160
-3.1719 0.21170000000000003 0.1092 20
-12.718800000000002 0.8491 0.7387999999999999 83
-12.6172 0.8423 1.0293 9
-12.539100000000001 0.8373999999999999 1.3163999999999998 125
-12.468800000000002 0.8325 1.6016 122
-12.4297 0.8295999999999999 1.8925999999999998 203
-12.343800000000002 0.8242 2.1738 244
-2.918 0.20559999999999998 -0.5083 19
-2.9726999999999997 0.2094 -0.44780000000000003 167
-3.1776999999999997 0.22390000000000002 0.1094 164
-12.5156 0.8818 0.7271 199
-12.5469 0.8837999999999999 1.0234 44
-12.523399999999999 0.8818 1.3144999999999998 31
-12.460899999999999 0.8779 1.6016 38
-12.4375 0.8765000000000001 1.8944999999999999 66
-12.335899999999999 0.8691 2.1738 39
-2.9336 0.2169 -0.5112 158
-2.9726999999999997 0.22 -0.4482 187
-3.1816000000000004 0.2354 0.1096 88
-12.5156 0.9253 0.7275 72
-12.5156 0.9253 1.0215 32
-12.523399999999999 0.9262999999999999 1.3154 172
-12.460899999999999 0.9214 1.6016 217
-12.4297 0.9194 1.8944999999999999 93
-12.343800000000002 0.9126000000000001 2.1738 185
-2.9355 0.2279 -0.5117 46
-2.9551 0.22949999999999998 -0.44530000000000003 88
-3.1641000000000004 0.2457 0.1091 181
-12.5078 0.9717 0.7275 148
-12.5 0.9706999999999999 1.0205 96
-12.523399999999999 0.9727 1.3154 64
-12.468800000000002 0.9682999999999999 1.6035 209
-12.4297 0.9653 1.8944999999999999 70
-12.335899999999999 0.9575 2.1738 20
-2.9395 0.23850000000000002 -0.5127 221
-2.9608999999999996 0.2404 -0.4465 81
-3.1523000000000003 0.2559 0.10859999999999999 25
-12.523399999999999 1.0166 0.728 201
-12.5 1.0146 1.0205 139
-12.5156 1.0156 1.3154 168
-12.460899999999999 1.0117 1.6035 128
-12.4297 1.0088 1.8944999999999999 9
-12.351600000000001 1.0029000000000001 2.1777 215
-2.9238 0.24760000000000001 -0.5103 8
-2.9668 0.25120000000000003 -0.4475 7
-3.1620999999999997 0.26780000000000004 0.1091 192
-12.4922 1.0586 0.7271 176
-12.5078 1.0586 1.0215 43
-12.5156 1.0595999999999999 1.3154 209
-12.476600000000001 1.0566 1.6044999999999998 115
-12.4297 1.0527 1.8955000000000002 54
-12.3203 1.043 2.1719 213
-2.9160000000000004 0.2571 -0.5088 99
-2.9726999999999997 0.2622 -0.4485 154
-3.1699 0.27949999999999997 0.1093 59
-12.5 1.1025 0.7271 180
-12.5469 1.1064 1.0254 168
-12.656199999999998 1.1162 1.3311000000000002 215
-12.468800000000002 1.0996 1.6044999999999998 44
-12.4297 1.0957 1.8955000000000002 74
-12.335899999999999 1.0879 2.1758 165
-2.9219 0.2676 -0.5103 248
-2.9551 0.2705 -0.446 143
-3.1641000000000004 0.2898 0.1092 161
-12.539100000000001 1.1484 0.73 86
-12.710899999999999 1.1641 1.0391 158
-12.7422 1.166 1.3397999999999999 3
-12.460899999999999 1.1406 1.6044999999999998 70
-12.4375 1.1387 1.8975 145
-12.3281 1.1279000000000001 2.1758 162
-2.9297000000000004 0.2778 -0.5112 107
-2.9512 0.28 -0.44530000000000003 64
-3.1562 0.2993 0.10890000000000001 29
-12.539100000000001 1.1904000000000001 0.7304999999999999 197
-12.726600000000001 1.208 1.041 117
-12.7344 1.208 1.3397999999999999 253
-12.468800000000002 1.1826 1.6055000000000001 6
-12.4219 1.1787 1.8965 79
-12.343800000000002 1.1709 2.1797 70
-2.9316000000000004 0.28859999999999997 -0.5122 189
-2.9473000000000003 0.29 -0.4451 34
-3.1543 0.3105 0.10890000000000001 213
-12.5078 1.2305 0.7284999999999999 38
-12.726600000000001 1.252 1.041 182
-12.726600000000001 1.2529000000000001 1.3397999999999999 135
-12.468800000000002 1.2275 1.6063999999999998 13
-12.414100000000001 1.2217 1.8965 82
-12.335899999999999 1.2139 2.1797 75
-2.9199 0.29710000000000003 -0.5103 211
-2.9707 0.30219999999999997 -0.4487 206
-3.1543 0.3208 0.10890000000000001 86
-12.531199999999998 1.2754 0.73 179
-12.726600000000001 1.2949000000000002 1.041 249
-12.718800000000002 1.2938999999999998 1.3388999999999998 211
-12.476600000000001 1.2695 1.6084 231
-12.4219 1.2637 1.8975 178
-12.335899999999999 1.2549 2.1797 106
-2.9101999999999997 0.3069 -0.5088 138
-2.9668 0.313 -0.4485 87
-3.1562 0.3328 0.1091 121
-12.5156 1.3203 0.7295 106
-12.7344 1.3428 1.042 70
-12.718800000000002 1.3418 1.3397999999999999 142
-12.468800000000002 1.3144999999999998 1.6063999999999998 107
-12.4297 1.3105000000000002 1.8984 16
-12.3281 1.2997999999999998 2.1777 236
-2.9219 0.3184 -0.5107 16
-2.9629000000000003 0.32280000000000003 -0.44780000000000003 223
-3.1601999999999997 0.3442 0.1092 149
-12.4453 1.3563999999999998 0.7256 29
-12.718800000000002 1.3866999999999998 1.042 163
-12.726600000000001 1.3877000000000002 1.3408000000000002 62
-12.4531 1.3574000000000002 1.6063999999999998 14
-12.4219 1.3535 1.8984 90
-12.3281 1.3437999999999999 2.1797 6
-2.9276999999999997 0.3301 -0.5122 161
-2.9452999999999996 0.3318 -0.44530000000000003 97
-3.1601999999999997 0.35619999999999996 0.1093 112
-12.5 1.4091999999999998 0.7295 148
-12.718800000000002 1.4325999999999999 1.042 228
-12.718800000000002 1.4336000000000002 1.3408000000000002 162
-12.468800000000002 1.4053 1.6084 165
-12.414100000000001 1.3994 1.8984 66
-12.335899999999999 1.3906 2.1816 159
-2.9257999999999997 0.34009999999999996 -0.5117 73
-2.9512 0.34299999999999997 -0.4465 225
-3.1523000000000003 0.3665 0.1091 64
-12.5 1.4521000000000002 0.7295 153
-12.726600000000001 1.4785 1.043 212
-12.718800000000002 1.4785 1.3408000000000002 3
-12.476600000000001 1.4502000000000002 1.6103999999999998 12
-12.398399999999999 1.4413999999999998 1.8975 211
-12.343800000000002 1.4346 2.1836 88
-2.9199 0.3496 -0.5112 134
-2.9629000000000003 0.3547 -0.4485 183
-3.1483999999999996 0.377 0.10890000000000001 235
-12.5 1.4971 0.7295 70
-12.7031 1.5215 1.042 221
-12.710899999999999 1.5225 1.3408000000000002 47
-12.4844 1.4961000000000002 1.6122999999999998 225
-12.4219 1.4872999999999998 1.9003999999999999 191
-12.3203 1.4756 2.1797 33
-2.9120999999999997 0.3591 -0.5103 34
-2.9648000000000003 0.3657 -0.449 141
-3.1660000000000004 0.39039999999999997 0.1096 138
-12.4531 1.5361000000000002 0.7275 57
-12.718800000000002 1.5684 1.043 210
-12.710899999999999 1.5674000000000001 1.3418 106
-12.468800000000002 1.5371000000000001 1.6103999999999998 244
-12.4297 1.5322 1.9022999999999999 5
-12.3047 1.5166 2.1777 41
-2.9160000000000004 0.36939999999999995 -0.5107 225
-2.9551 0.37450000000000006 -0.44780000000000003 38
-3.1719 0.4019 0.1099 88
-12.5 1.584 0.7304999999999999 73
-12.718800000000002 1.6113 1.0439 161
-12.726600000000001 1.6122999999999998 1.3437999999999999 241
-12.468800000000002 1.5800999999999998 1.6113 188
-12.4219 1.5732 1.9022999999999999 231
-12.3203 1.5615 2.1836 18
-2.9219 0.3801 -0.5122 251
-2.9414 0.3826 -0.4458 127
-3.1464999999999996 0.4092 0.10890000000000001 234
-12.5078 1.626 0.731 115
-12.710899999999999 1.6533000000000002 1.043 249
-12.718800000000002 1.6543 1.3437999999999999 96
-12.476600000000001 1.6221 1.6122999999999998 130
-12.406199999999998 1.6143 1.9013999999999998 253
-12.3203 1.6025 2.1836 172
-2.9316000000000004 0.3923 -0.5142 188
-2.9452999999999996 0.39399999999999996 -0.4465 36
-3.1464999999999996 0.42090000000000005 0.1091 103
-12.4219 1.6611000000000002 0.7265999999999999 48
-12.6875 1.6972999999999998 1.042 86
-12.718800000000002 1.7012 1.3437999999999999 163
-12.476600000000001 1.6688999999999998 1.6143 236
-12.398399999999999 1.6591999999999998 1.9013999999999998 94
-12.3281 1.6494 2.1855 84
-2.918 0.4006 -0.5117 171
-2.9648000000000003 0.4072 -0.45 218
-3.1464999999999996 0.4321 0.1091 187
-12.523399999999999 1.7197 0.7329000000000001 202
-12.710899999999999 1.7450999999999999 1.0439 11
-12.7031 1.7441 1.3428 120
-12.468800000000002 1.7128999999999999 1.6143 13
-12.406199999999998 1.7041 1.9022999999999999 223
-12.3047 1.6904 2.1836 69
-2.8983999999999996 0.408 -0.5088 226
-2.9551 0.4158 -0.4485 208
-3.1562 0.4443 0.1096 91
-12.5078 1.7607 0.7323999999999999 204
-12.718800000000002 1.79 1.0459 72
-12.7031 1.7871000000000001 1.3437999999999999 77
-12.476600000000001 1.7549000000000001 1.6152000000000002 68
-12.414100000000001 1.7471 1.9053 253
-12.3047 1.7313999999999998 2.1836 64
-2.9082 0.4192 -0.5107 43
-2.9608999999999996 0.4268 -0.4497 243
-3.1562 0.4546 0.1096 11
-12.5078 1.8027000000000002 0.7323999999999999 188
-12.593800000000002 1.8154 1.0361 150
-12.726600000000001 1.834 1.3466999999999998 199
-12.460899999999999 1.7959 1.6143 194
-12.414100000000001 1.7891 1.9062000000000001 104
-12.3125 1.7744 2.1855 96
-2.9219 0.4326 -0.5136999999999999 33
-2.9452999999999996 0.436 -0.4475 89
-3.1464999999999996 0.4656 0.1093 177
-3.3789 0.5 0.196 238
-12.6719 1.876 1.043 76
-12.5625 1.8603999999999998 1.3300999999999998 69
-12.468800000000002 1.8457 1.6162 115
-12.406199999999998 1.8359 1.9062000000000001 178
-12.3203 1.8232 2.1875 12
-2.918 0.4421 -0.5127 193
-2.9452999999999996 0.4465 -0.44780000000000003 145
-3.1445 0.47659999999999997 0.1093 231
-3.3651999999999997 0.5103 0.1954 38
-12.5 1.8944999999999999 1.0293 180
-12.4844 1.8925999999999998 1.3222999999999998 219
-12.468800000000002 1.8906 1.6172 131
-12.398399999999999 1.8788999999999998 1.9053 187
-12.3203 1.8672 2.1895 194
-2.9082 0.4507 -0.5112 18
-2.9551 0.4578 -0.4495 255
-3.1464999999999996 0.4875 0.1094 120
-3.3632999999999997 0.5215 0.1954 30
-12.476600000000001 1.9336000000000002 1.0283 22
-12.476600000000001 1.9336000000000002 1.3222999999999998 158
-12.4375 1.9277000000000002 1.6143 210
-12.3906 1.9209 1.9062000000000001 107
-12.3125 1.9082 2.1895 91
-2.9062 0.46020000000000005 -0.5112 116
-2.9452999999999996 0.46630000000000005 -0.4482 209
-3.1523000000000003 0.4993 0.1097 217
-12.398399999999999 1.9638999999999998 0.728 106
-12.398399999999999 1.9638999999999998 1.0215 236
-12.3906 1.9628999999999999 1.3144999999999998 7
-12.3906 1.9628999999999999 1.6084 130
-12.3906 1.9628999999999999 1.9072 76
-12.2969 1.9472999999999998 2.1875 211
-2.9082 0.47119999999999995 -0.5122 188
-2.9551 0.47850000000000004 -0.45 211
-3.1562 0.5112 0.1099 122
-12.406199999999998 2.0098 0.7284999999999999 127
-12.398399999999999 2.0078 1.0225 251
-12.406199999999998 2.0098 1.3163999999999998 205
-12.375 2.0039 1.6074000000000002 155
-12.398399999999999 2.0078 1.9091999999999998 127
-12.3047 1.9922 2.1895 126
-2.9141000000000004 0.4819 -0.5136999999999999 96
-2.9355 0.48560000000000003 -0.4473 81
-3.1483999999999996 0.521 0.1097 10
-12.3906 2.0488 0.728 49
-12.3906 2.0488 1.0225 152
-12.406199999999998 2.0527 1.3174000000000001 114
-12.3828 2.0469 1.6094 4
-12.3906 2.0488 1.9082 99
-12.3125 2.0371 2.1934 140
-2.918 0.4941 -0.5146000000000001 132
-2.9512 0.49979999999999997 -0.45 35
-3.1308999999999996 0.5303 0.1091 39
-12.414100000000001 2.1016 0.73 23
-12.3828 2.0977 1.0225 7
-12.398399999999999 2.0996 1.3174000000000001 215
-12.3906 2.0977 1.6113 136
-12.3906 2.0977 1.9091999999999998 215
-12.3125 2.0859 2.1953 38
-2.9120999999999997 0.5034000000000001 -0.5136999999999999 134
-2.9531 0.5107 -0.45039999999999997 184
-3.1426 0.5435 0.1096 143
-12.398399999999999 2.1426 0.7290000000000001 230
-12.3906 2.1426 1.0234 255
-12.398399999999999 2.1426 1.3174000000000001 137
-12.398399999999999 2.1445 1.6133000000000002 23
-12.3906 2.1426 1.9111000000000002 23
-12.3047 2.127 2.1934 133
-2.8983999999999996 0.5107 -0.5112 164
-2.9629000000000003 0.5225 -0.4524 85
-3.1543 0.5562 0.11 222
-12.398399999999999 2.1855 0.73 65
-12.406199999999998 2.1875 1.0254 99
-12.406199999999998 2.1875 1.3193000000000001 202
-12.3828 2.1836 1.6122999999999998 125
-12.3906 2.1855 1.9121000000000001 31
-12.289100000000001 2.166 2.1934 18
-2.9082 0.5225 -0.5136999999999999 133
-2.9414 0.5288 -0.4495 19
-3.1562 0.5674 0.11019999999999999 113
-12.3906 2.2285 0.73 102
-12.3828 2.2266 1.0244 224
-12.406199999999998 2.2305 1.3203 128
-12.3672 2.2227 1.6113 214
-12.3906 2.2266 1.9131 107
-12.2969 2.2109 2.1953 244
-2.9141000000000004 0.5352 -0.5151 134
-2.9395 0.54 -0.4495 106
-3.1445 0.5776 0.1099 84
-12.398399999999999 2.2773 0.7304999999999999 180
-12.3828 2.2754 1.0244 20
-12.414100000000001 2.2793 1.3213 235
-12.3828 2.2754 1.6143 79
-12.3828 2.2734 1.9131 59
-12.3047 2.2598 2.1992 49
-2.9120999999999997 0.5454 -0.5151 114
-2.9492000000000003 0.5527000000000001 -0.4512 222
-3.1289 0.5864 0.1094 37
-12.414100000000001 2.3242 0.7319 253
-12.3906 2.3203 1.0264 104
-12.398399999999999 2.3223 1.3213 121
-12.3828 2.3203 1.6152000000000002 150
-12.3672 2.3164 1.9121000000000001 51
-12.3125 2.3066 2.2012 133
-2.9141000000000004 0.5557 -0.5156000000000001 118
-2.957 0.5645 -0.4526 47
-3.1387 0.5991 0.10980000000000001 54
-12.3906 2.3633 0.731 168
-12.3828 2.3613 1.0264 130
-12.398399999999999 2.3652 1.3222999999999998 109
-12.3906 2.3633 1.6162 162
-12.3828 2.3613 1.916 128
-12.281199999999998 2.3438 2.1973 230
-2.8964999999999996 0.5625 -0.5127 166
-2.9648000000000003 0.5761999999999999 -0.45409999999999995 189
-3.1562 0.6133 0.1105 235
-12.375 2.4043 0.731 12
-12.3906 2.4062 1.0273 38
-12.398399999999999 2.4062 1.3222999999999998 136
-12.3828 2.4043 1.6172 202
-12.3906 2.4062 1.9180000000000001 19
-12.281199999999998 2.3848 2.1992 168
-2.9023000000000003 0.5747 -0.5142 194
-2.9531 0.585 -0.4526 241
-3.1620999999999997 0.626 0.1108 64
-12.3828 2.4512 0.7319 5
-12.3906 2.4531 1.0283 233
-12.398399999999999 2.4551 1.3241999999999998 211
-12.3672 2.4492 1.6162 173
-12.375 2.4512 1.9180000000000001 85
-12.281199999999998 2.4316 2.2012 166
-2.9160000000000004 0.5879 -0.5171 66
-2.9336 0.5918 -0.45 232
-3.1660000000000004 0.6386999999999999 0.111 229
-12.3906 2.498 0.7329000000000001 116
-12.3672 2.4941 1.0273 71
-12.398399999999999 2.5 1.3241999999999998 207
-12.3672 2.4941 1.6172 186
-12.375 2.4961 1.9188999999999998 141
-12.2969 2.4785 2.2051 250
-2.9219 0.5996 -0.5186 34
-2.9452999999999996 0.6045 -0.4521 108
-3.1464999999999996 0.6459999999999999 0.1104 94
-12.3906 2.543 0.7334 17
-12.375 2.5391 1.0283 214
-12.3906 2.543 1.3252000000000002 93
-12.3828 2.541 1.6200999999999999 195
-12.375 2.5391 1.9188999999999998 129
-12.289100000000001 2.5234 2.2051 13
-2.9082 0.6074 -0.5161 0
-2.9414 0.6147 -0.4517 59
-3.1504000000000003 0.6581999999999999 0.1106 142
-12.3828 2.5858999999999996 0.7334 110
-12.375 2.5858999999999996 1.0293 63
-12.3828 2.5858999999999996 1.3241999999999998 220
-12.3828 2.5858999999999996 1.6211000000000002 127
-12.375 2.5858999999999996 1.9219 232
-12.281199999999998 2.5664 2.2051 12
-2.8983999999999996 0.6152000000000001 -0.5151 213
-2.9473000000000003 0.626 -0.45289999999999997 170
-3.1601999999999997 0.6709 0.111 194
-12.3828 2.6308999999999996 0.7339 239
-12.3828 2.6289 1.0303 87
-12.375 2.6289 1.3252000000000002 51
-12.3672 2.627 1.6211000000000002 109
-12.375 2.627 1.9219 21
-12.273399999999999 2.6074 2.2051 95
-2.9062 0.6274000000000001 -0.5171 126
-2.9433999999999996 0.6353 -0.4526 62
-3.1620999999999997 0.6820999999999999 0.11109999999999999 165
-12.3828 2.6719 0.7343999999999999 242
-12.3672 2.668 1.0293 82
-12.3906 2.6757999999999997 1.3281 97
-12.351600000000001 2.6660000000000004 1.6200999999999999 55
-12.3828 2.6719 1.9247999999999998 154
-12.281199999999998 2.6504000000000003 2.207 210
-2.9120999999999997 0.6396000000000001 -0.5186 47
-2.9414 0.6459999999999999 -0.4526 55
-3.1445 0.6909000000000001 0.1107 26
-12.375 2.7188 0.7349 253
-12.351600000000001 2.7129000000000003 1.0293 146
-12.3906 2.7226999999999997 1.3291 89
-12.3672 2.7168 1.6230000000000002 122
-12.3672 2.7168 1.9247999999999998 242
-12.281199999999998 2.6973000000000003 2.209 129
-2.9238 0.6528 -0.521 181
-2.9452999999999996 0.6577 -0.4536 163
-3.1445 0.7021 0.1107 228
-12.3828 2.7656 0.7354 92
-12.351600000000001 2.7598000000000003 1.0303 128
-12.3828 2.7656 1.3291 153
-12.375 2.7637 1.625 72
-12.3594 2.7617000000000003 1.9247999999999998 87
-12.289100000000001 2.7441000000000004 2.2129 252
-2.9238 0.6631 -0.521 131
-2.9492000000000003 0.6689 -0.4548 164
-3.1426 0.7129000000000001 0.1107 210
-12.375 2.8066000000000004 0.7358 104
-12.375 2.8066000000000004 1.0332 52
-12.3672 2.8047000000000004 1.3281 239
-12.3672 2.8047000000000004 1.626 127
-12.3672 2.8047000000000004 1.9268 97
-12.273399999999999 2.7832 2.2109 96
-2.9101999999999997 0.6704000000000001 -0.519 53
-2.9473000000000003 0.6787000000000001 -0.4548 54
-3.1523000000000003 0.7261 0.11109999999999999 103
-12.3672 2.8495999999999997 0.7358 159
-12.375 2.8495999999999997 1.0332 135
-12.375 2.8516000000000004 1.3300999999999998 69
-12.3594 2.8457 1.626 98
-12.375 2.8495999999999997 1.9297 113
-12.273399999999999 2.8262 2.2129 230
-2.9141000000000004 0.6831 -0.5205 208
-2.9492000000000003 0.6909000000000001 -0.45530000000000004 248
-3.1504000000000003 0.7383 0.1112 240
-12.3672 2.8983999999999996 0.7363 237
-12.3594 2.8964999999999996 1.0332 121
-12.375 2.9004000000000003 1.3319999999999999 42
-12.351600000000001 2.8945 1.6269999999999998 141
-12.375 2.9004000000000003 1.9316 80
-12.2578 2.873 2.2129 53
-2.918 0.6948000000000001 -0.5215 64
-2.9433999999999996 0.7006999999999999 -0.4548 241
-3.1543 0.7509999999999999 0.1114 113
-12.375 2.9452999999999996 0.7373000000000001 254
-12.351600000000001 2.9414 1.0332 71
-12.375 2.9452999999999996 1.3330000000000002 172
-12.351600000000001 2.9414 1.6279 55
-12.3594 2.9433999999999996 1.9316 77
-12.2656 2.9199 2.2168 70
-2.9238 0.7065 -0.5229 152
-2.9395 0.7109000000000001 -0.4548 160
-3.1387 0.7587999999999999 0.111 11
-12.3594 2.9882999999999997 0.7373000000000001 236
-12.3594 2.9882999999999997 1.0352 161
-12.3672 2.9901999999999997 1.3330000000000002 198
-12.351600000000001 2.9863 1.6299000000000001 169
-12.351600000000001 2.9863 1.9316 59
-12.281199999999998 2.9688 2.2207 209
-2.9082 0.7134 -0.5205 245
-2.9531 0.7245999999999999 -0.4573 149
-3.1426 0.7715000000000001 0.1112 236
-12.3594 3.0332 0.7378 118
-12.3594 3.0332 1.0361 235
-12.3594 3.0332 1.3330000000000002 173
-12.3594 3.0332 1.6309 122
-12.3672 3.0351999999999997 1.9346 169
-12.25 3.0077999999999996 2.2168 143
-2.9023000000000003 0.7231000000000001 -0.52 34
-2.9512 0.7354 -0.4573 100
-3.1523000000000003 0.7852 0.1116 231
-12.351600000000001 3.0781 0.7378 110
-12.3594 3.0801 1.0371 13
-12.3672 3.082 1.335 19
-12.343800000000002 3.0762 1.6309 172
-12.3672 3.082 1.9375 74
-12.2656 3.0547000000000004 2.2207 151
-2.9082 0.7354 -0.5215 93
-3.2245999999999997 0.8154 0.038 135
-2.9395 0.7437 -0.4561 200
-3.1601999999999997 0.7993000000000001 0.1121 95
-12.351600000000001 3.123 0.7387999999999999 202
-12.3594 3.125 1.0371 5
-12.3594 3.125 1.3359 176
-12.343800000000002 3.1211 1.6318000000000001 94
-12.3594 3.125 1.9375 31
-12.2578 3.0995999999999997 2.2227 149
-2.9101999999999997 0.7465999999999999 -0.5225 83
-3.2207 0.8267 0.038 232
-2.9297000000000004 0.752 -0.4548 151
-3.1582 0.8101 0.1121 170
-12.3594 3.1719 0.7397 161
-12.343800000000002 3.168 1.0371 25
-12.375 3.1757999999999997 1.3388999999999998 44
-12.343800000000002 3.168 1.6338 152
-12.351600000000001 3.1699 1.9385 201
-3.1074 0.7974 -0.0366 45
-12.273399999999999 3.1483999999999996 2.2266 141
-2.9120999999999997 0.7583 -0.5234000000000001 79
-2.9414 0.7656000000000001 -0.4568 108
-3.1348000000000003 0.8164 0.11130000000000001 50
-12.3672 3.2207 0.7412000000000001 235
-12.3594 3.2168 1.0391 137
-12.3594 3.2168 1.3378999999999999 96
-12.343800000000002 3.2148000000000003 1.6357 121
-3.0898000000000003 0.8042 -0.1097 252
-12.343800000000002 3.2129000000000003 1.9385 9
-3.0879000000000003 0.8042 -0.0364 41
-12.2656 3.1933999999999996 2.2285 41
-2.8983999999999996 0.7646 -0.521 83
-2.9512 0.7787999999999999 -0.45899999999999996 190
-3.1445 0.8295999999999999 0.1118 132
-12.3594 3.2598000000000003 0.7406999999999999 128
-12.351600000000001 3.2598000000000003 1.04 53
-3.0410000000000004 0.8022 -0.2532 12
-12.3594 3.2617000000000003 1.3388999999999998 161
-3.0839999999999996 0.8134999999999999 -0.18289999999999998 230
-12.3594 3.2598000000000003 1.6387 247
-3.1836 0.8398 -0.11320000000000001 229
-12.343800000000002 3.2558999999999996 1.9394999999999998 221
-12.2656 3.2363 2.2305 59
-2.8964999999999996 0.7744 -0.521 222
-2.9452999999999996 0.7876000000000001 -0.4585 80
-3.1641000000000004 0.8462000000000001 0.11259999999999999 233
-3.127 0.8364 -0.41090000000000004 169
-12.343800000000002 3.3007999999999997 0.7406999999999999 2
-3.0507999999999997 0.8159000000000001 -0.3274 125
-12.351600000000001 3.3026999999999997 1.041 186
-3.0391000000000004 0.8125 -0.2532 66
-12.3594 3.3047000000000004 1.3397999999999999 157
-3.0370999999999997 0.8125 -0.18030000000000002 177
-12.343800000000002 3.3007999999999997 1.6377000000000002 37
-3.1797000000000004 0.8506 -0.11320000000000001 59
-12.3594 3.3047000000000004 1.9434 22
-12.25 3.2754000000000003 2.2285 29
-2.9004000000000003 0.7870999999999999 -0.5225 231
-2.9395 0.7974 -0.4578 206
-3.1620999999999997 0.8579000000000001 0.11259999999999999 250
-2.998 0.8134999999999999 -0.39399999999999996 255
-12.351600000000001 3.3516000000000004 0.7417 222
-3.0370999999999997 0.8237000000000001 -0.3262 209
-12.343800000000002 3.3495999999999997 1.041 90
-3.0351999999999997 0.8237000000000001 -0.2532 219
-12.375 3.3574 1.3428 62
-3.0742000000000003 0.8340000000000001 -0.1826 194
-12.335899999999999 3.3476999999999997 1.6387 219
-3.1776999999999997 0.8618000000000001 -0.11320000000000001 143
-12.351600000000001 3.3516000000000004 1.9453 97
-12.25 3.3242000000000003 2.2305 9
-2.9062 0.7993000000000001 -0.5239 37
-2.9297000000000004 0.8062 -0.4568 112
-3.1483999999999996 0.8662000000000001 0.11220000000000001 156
-2.9882999999999997 0.8218000000000001 -0.3931 234
-12.351600000000001 3.3983999999999996 0.7426999999999999 122
-3.0077999999999996 0.8271 -0.3232 213
-12.335899999999999 3.3945 1.042 95
-3.0214999999999996 0.8311 -0.2522 162
-12.3672 3.4023000000000003 1.3437999999999999 108
-3.1055 0.8540000000000001 -0.18469999999999998 206
-12.335899999999999 3.3945 1.6406 208
-3.1738 0.873 -0.11320000000000001 215
-12.343800000000002 3.3945 1.9453 130
-3.2695 0.8994 -0.0388 227
-12.2656 3.375 2.2363 96
-2.9141000000000004 0.8125 -0.5259 251
-3.2031 0.8931 0.038 119
-2.9433999999999996 0.8203 -0.4592 182
-3.1367000000000003 0.8745 0.1119 183
-2.9668 0.8276 -0.3909 9
-12.3594 3.4473000000000003 0.7441 46
-3.043 0.8481000000000001 -0.3274 119
-12.351600000000001 3.4452999999999996 1.0439 245
-3.0039 0.8373999999999999 -0.251 203
-12.3594 3.4452999999999996 1.3437999999999999 148
-3.0976999999999997 0.8637999999999999 -0.1844 216
-12.3594 3.4452999999999996 1.6444999999999999 15
-12.335899999999999 3.4395 1.9463 5
-12.2656 3.4199 2.2383 26
-2.8964999999999996 0.8184 -0.5234000000000001 187
-2.9336 0.8291 -0.4585 228
-3.1406 0.8876999999999999 0.11220000000000001 39
-2.9648000000000003 0.8379000000000001 -0.3909 175
-12.343800000000002 3.4882999999999997 0.7437 169
-3.0233999999999996 0.8545 -0.3257 165
-12.351600000000001 3.4901999999999997 1.0449 215
-3.0351999999999997 0.8573999999999999 -0.2539 198
-12.351600000000001 3.4901999999999997 1.3447 222
-3.0723000000000003 0.8682 -0.18309999999999998 188
-12.3594 3.4941000000000004 1.6465 37
-12.343800000000002 3.4882999999999997 1.9502000000000002 74
-3.1875 0.9004000000000001 -0.0378 43
-12.2656 3.4668 2.2402 42
-2.8964999999999996 0.8286 -0.5239 144
-2.9414 0.8408 -0.46 220
-3.1426 0.8984000000000001 0.11230000000000001 86
-2.9648000000000003 0.8481000000000001 -0.3914 8
-12.335899999999999 3.5293 0.7441 74
-3.0254000000000003 0.8652 -0.3262 248
-12.343800000000002 3.5312 1.0449 225
-3.0312 0.8672 -0.2539 50
-12.351600000000001 3.5332 1.3457 218
-3.1191000000000004 0.8920999999999999 -0.18600000000000003 250
-12.343800000000002 3.5293 1.6455000000000002 154
-3.1660000000000004 0.9053 -0.11320000000000001 145
-12.398399999999999 3.5469 1.96 224
-3.1641000000000004 0.9053 -0.037599999999999995 193
-12.2422 3.5 2.2383 29
-2.9023000000000003 0.8403 -0.5254 109
-2.9414 0.8521 -0.4604 215
-3.1504000000000003 0.9120999999999999 0.1127 220
-2.9745999999999997 0.8613 -0.39280000000000004 37
-12.343800000000002 3.5742000000000003 0.7451000000000001 116
-3.0117000000000003 0.8721 -0.325 61
-12.343800000000002 3.5742000000000003 1.0459 127
-3.0449 0.8813 -0.2551 22
-18.9531 5.488300000000001 2.0684 170
-3.1348000000000003 0.9081999999999999 -0.1873 92
-3.1620999999999997 0.9155 -0.11320000000000001 112
-12.789100000000001 3.7031 2.0234 157
-3.1895 0.9233 -0.0379 190
-12.2578 3.5488 2.2422 244
-2.8983999999999996 0.8511 -0.5254 187
-2.9297000000000004 0.8599 -0.45899999999999996 84
-3.1426 0.9229 0.11259999999999999 156
-2.9726999999999997 0.8726 -0.3931 72
-12.3672 3.6308999999999996 0.7476 82
-3.0273000000000003 0.8887 -0.32689999999999997 116
-3.0254000000000003 0.8881999999999999 -0.2539 36
-19.0938 5.605499999999999 2.0859 27
-3.0566000000000004 0.897 -0.1826 67
-12.8047 3.7577999999999996 2.0273 207
-12.2422 3.5938 2.2422 85
-2.9120999999999997 0.8656999999999999 -0.5283 146
-2.9276999999999997 0.8706 -0.4592 191
-3.1387 0.9331 0.1125 130
-2.9863 0.8881999999999999 -0.3953 37
-3.0351999999999997 0.9023 -0.3281 192
-3.0332 0.9023 -0.25489999999999996 90
-19.2031 5.7109000000000005 2.1016 129
-3.2051 0.9531000000000001 -0.19190000000000002 147
-17.9688 5.3438 2.8535000000000004 106
-19.2344 5.7188 3.5312 218
-2.9004000000000003 0.8740000000000001 -0.5268999999999999 136
-2.9414 0.8867 -0.4619 201
-3.1464999999999996 0.9481999999999999 0.113 8
-3.0233999999999996 0.9111 -0.3274 69
-3.0233999999999996 0.9111 -0.25420000000000004 65
-19.1875 5.7852 2.1016 101
-3.1523000000000003 0.9497 -0.11320000000000001 221
-17.9375 5.4062 2.8516000000000004 76
-3.248 0.9784999999999999 -0.0388 9
-19.2656 5.8086 3.5410000000000004 164
-2.9023000000000003 0.8856999999999999 -0.5278 209
-2.9355 0.8955 -0.46140000000000003 236
-3.1387 0.958 0.1128 159
-3.0312 0.9253 -0.4023 113
-3.0469 0.9301999999999999 -0.33030000000000004 242
-3.0547000000000004 0.9320999999999999 -0.2571 17
-18.9688 5.7852 2.0801 150
-3.1992000000000003 0.9761 -0.19190000000000002 121
-3.1483999999999996 0.9609000000000001 -0.11320000000000001 214
-17.9375 5.4727 2.8535000000000004 130
-19.3438 5.9023 3.5586 7
-2.8945 0.894 -0.5268999999999999 114
-2.9316000000000004 0.9057999999999999 -0.46140000000000003 119
-3.1426 0.9712000000000001 0.1131 251
-3.0370999999999997 0.938 -0.4033 218
-3.0781 0.9512 -0.33399999999999996 127
-3.0312 0.937 -0.2556 180
-19.0625 5.890599999999999 2.0918 106
-17.9531 5.550800000000001 2.8594 91
-3.2401999999999997 1.001 -0.0388 52
-19.3438 5.9765999999999995 3.5625 145
-2.9023000000000003 0.9077 -0.5288 36
-2.9316000000000004 0.9175 -0.4619 222
-3.1406 0.9823999999999999 0.1131 104
-3.0625 0.958 -0.4075 55
-3.1289 0.9784999999999999 -0.3398 209
-3.0469 0.9531000000000001 -0.2571 62
-19.0625 5.9609000000000005 2.0938 195
-3.1914 0.9984999999999999 -0.19190000000000002 164
-3.1426 0.9829000000000001 -0.11320000000000001 47
-17.9688 5.6211 2.8632999999999997 128
-19.3281 6.042999999999999 3.5625 141
-2.9043 0.9194 -0.5297999999999999 208
-2.9219 0.9248000000000001 -0.4607 70
-3.1387 0.9932 0.11320000000000001 204
-2.9922000000000004 0.9468000000000001 -0.3982 12
-23.3438 7.386699999999999 1.4219 59
-3.125 0.9887999999999999 -0.3398 179
-23.4375 7.4140999999999995 2.0039 10
-2.998 0.9492 -0.2532 244
-19.0156 6.015599999999999 2.0918 153
-18.1094 5.734400000000001 2.4395 228
-17.9688 5.6875 2.8672000000000004 45
-19.3125 6.109400000000001 3.5645 54
-2.8887 0.9248000000000001 -0.5273 143
-2.9316000000000004 0.9384999999999999 -0.4629 198
-3.1483999999999996 1.0078 0.11359999999999999 63
-2.9882999999999997 0.9565 -0.3982 118
-23.3281 7.4688 1.4228999999999998 241
-3.1211 0.9995 -0.3398 1
-3.0898000000000003 0.9893000000000001 -0.2615 129
-18.2812 5.855499999999999 2.4648 34
-17.9062 5.730499999999999 2.8594 146
-19.4688 6.234400000000001 3.5976999999999997 149
-2.8808999999999996 0.9331 -0.5264 33
-2.9336 0.9506999999999999 -0.4639 23
-3.1387 1.0166 0.11349999999999999 3
-2.9863 0.9673 -0.3982 220
-23.3438 7.5625 1.4247999999999998 22
-3.1191000000000004 1.0098 -0.3398 112
-4.125 1.3369 -0.3506 28
-18.0156 5.8359000000000005 2.4316 59
-17.8906 5.796900000000001 2.8613 158
-16.8125 5.4453 3.1074 8
-2.8887 0.9462999999999999 -0.5283 88
-2.9199 0.9565 -0.4619 58
-3.1504000000000003 1.0322 0.114 47
-3.0507999999999997 0.9990000000000001 -0.4075 204
-4.1914 1.3730000000000002 -0.3564 185
-17.9531 5.8828 2.4238 246
-16.8594 5.5234000000000005 2.6992000000000003 249
-19.3281 6.3359000000000005 3.5801 231
-2.8964999999999996 0.9609000000000001 -0.5307999999999999 168
-2.9257999999999997 0.9706999999999999 -0.4636 38
-3.1367000000000003 1.041 0.11359999999999999 114
-23.3438 7.75 1.4287 149
-19.5469 6.484400000000001 2.1602 238
-18.125 6.015599999999999 2.4512 128
-16.7969 5.574199999999999 2.6914 2
-19.3906 6.4375 3.5957 41
-2.9043 0.9751000000000001 -0.5327000000000001 96
-2.9238 0.9819 -0.4639 80
-3.1327999999999996 1.0518 0.11359999999999999 246
-19.5312 6.5586 2.1602 203
-18.2188 6.1172 2.4668 103
-16.75 5.625 2.6895 174
-16.7812 5.636699999999999 3.1151999999999997 227
-2.8964999999999996 0.9839 -0.5317000000000001 157
-2.9199 0.9917 -0.4639 172
-3.1367000000000003 1.0654000000000001 0.11380000000000001 196
-19.5938 6.6523 2.1699 32
-18.1406 6.1602 2.457 88
-16.7812 5.699199999999999 2.6952999999999996 128
-16.7812 5.6953 3.1151999999999997 107
-2.8808999999999996 0.9902 -0.5297999999999999 89
-2.9336 1.0078 -0.46659999999999996 222
-3.1543 1.084 0.11470000000000001 232
-19.5781 6.7265999999999995 2.1719 85
-17.2188 5.917999999999999 2.3379 121
-16.6875 5.730499999999999 3.1035000000000004 202
-2.8867000000000003 1.0029000000000001 -0.5317000000000001 231
-2.9219 1.0146 -0.46509999999999996 135
-3.1406 1.0908 0.1143 143
-19.5469 6.792999999999999 2.1699 126
-17.3125 6.015599999999999 2.3516 75
-19.3125 6.7109000000000005 3.1113 45
-16.6719 5.7890999999999995 3.1035000000000004 25
-2.9043 1.0205 -0.5356000000000001 197
-2.9199 1.0254 -0.4653 105
-3.1367000000000003 1.1016 0.1143 149
-19.5 6.8515999999999995 2.168 7
-17.3594 6.0977 2.3613 98
-17.7656 6.2422 2.8651999999999997 47
-16.7969 5.9023 3.1327999999999996 145
-2.9023000000000003 1.0312000000000001 -0.5356000000000001 210
-2.918 1.0361 -0.4656 40
-3.1406 1.1152 0.11460000000000001 79
-19.4844 6.917999999999999 2.168 173
-18.1719 6.453099999999999 2.4746 120
-17.7188 6.292999999999999 2.8613 119
-16.7812 5.957000000000001 3.1308999999999996 5
-2.8887 1.0361 -0.5337 87
-2.9297000000000004 1.0508 -0.46799999999999997 130
-3.1504000000000003 1.1309 0.1151 255
-17.6562 6.3359000000000005 1.9678 18
-18.0781 6.488300000000001 2.4648 31
-17.7188 6.359400000000001 2.8632999999999997 26
-16.8906 6.0586 3.1562 252
-2.9023000000000003 1.0537 -0.5371 214
-2.9297000000000004 1.0635 -0.46880000000000005 178
-3.1582 1.1465 0.1155 97
-17.6406 6.4023 1.9678 28
-17.4375 6.328099999999999 2.3789 57
-19.2656 6.9922 3.1191000000000004 8
-17.0 6.171900000000001 3.1816000000000004 202
-2.9043 1.0654000000000001 -0.5381 247
-2.9101999999999997 1.0684 -0.46630000000000005 180
-3.1308999999999996 1.1494 0.11470000000000001 74
-17.6406 6.4765999999999995 1.9716999999999998 128
-19.6406 7.207000000000001 2.6855 115
-18.9219 6.9414 3.0664 14
-16.9219 6.2109000000000005 3.1719 112
-2.9101999999999997 1.0791 -0.54 169
-2.9120999999999997 1.0801 -0.467 250
-3.1445 1.166 0.1153 49
-19.6562 7.292999999999999 2.6914 12
-18.7344 6.949199999999999 3.0410000000000004 28
-17.7188 6.5703 3.3242000000000003 165
-2.9120999999999997 1.0918 -0.541 112
-2.9160000000000004 1.0928 -0.4683 166
-3.1426 1.1777 0.11539999999999999 183
-8.75 3.2812 0.7598 3
-8.7422 3.2773000000000003 0.9771 42
-8.7266 3.2714999999999996 1.1934 104
-2.9043 1.1006 -0.5405 13
-2.9238 1.1074 -0.4702 169
-3.1406 1.1895 0.1155 240
-8.7031 3.2969 0.7563 39
-8.6719 3.2851999999999997 0.9697 71
-8.625 3.2676 1.1806999999999999 0
-8.5938 3.2558999999999996 1.6133000000000002 107
-2.8926 1.1074 -0.5390999999999999 228
-2.9336 1.123 -0.4727 236
-3.1582 1.209 0.11630000000000001 122
-8.6406 3.3086 0.5356000000000001 128
-8.6406 3.3086 0.752 9
-8.5938 3.2910000000000004 0.9629000000000001 22
-8.5781 3.2832 1.1758 100
-8.6094 3.2969 1.3994 152
-8.5703 3.2832 1.6113 86
-2.8983999999999996 1.1201 -0.5405 74
-2.9160000000000004 1.127 -0.4702 137
-3.1641000000000004 1.2227 0.1166 226
-8.5859 3.3183999999999996 0.5332 87
-8.5938 3.3202999999999996 0.7484999999999999 66
-8.5859 3.3183999999999996 0.9629000000000001 53
-8.5703 3.3125 1.1768 95
-8.6016 3.3262 1.4003999999999999 17
-8.5703 3.3105 1.6122999999999998 92
-2.9043 1.1338 -0.5425 227
-2.9297000000000004 1.1436 -0.4731 158
-3.1348000000000003 1.2236 0.1157 119
-8.5859 3.3516000000000004 0.5337 89
-8.5625 3.3418 0.7471 84
-8.6094 3.3594 0.9662999999999999 49
-8.5781 3.3476999999999997 1.1787 42
-8.5938 3.3535000000000004 1.6191 24
-2.8887 1.1406 -0.5405 197
-2.9199 1.1523 -0.4722 67
-3.1464999999999996 1.2412 0.11630000000000001 177
-8.5781 3.3867000000000003 0.5337 247
-8.5859 3.3906 0.7505 251
-8.6172 3.4004000000000003 0.9688 104
-8.6016 3.3945 1.1845999999999999 5
-18.5156 7.3047 3.0273000000000003 57
-17.6562 6.9727 3.3398000000000003 170
-2.8945 1.1543 -0.542 170
-2.9257999999999997 1.167 -0.4739 107
-3.1523000000000003 1.2568000000000001 0.1167 33
-8.5859 3.4257999999999997 0.5352 224
-8.625 3.4414 0.7548999999999999 18
-19.6406 7.8359000000000005 2.7148000000000003 255
-19.0156 7.578099999999999 3.1132999999999997 158
-17.5938 7.015599999999999 3.332 250
-2.8848000000000003 1.1611 -0.541 218
-2.9257999999999997 1.1777 -0.4744 192
-3.1582 1.2715 0.11710000000000001 226
-17.4062 7.0078 1.0889 224
-19.375 7.800800000000001 3.6757999999999997 26
-2.8848000000000003 1.1729 -0.5415 146
-3.1738 1.29 0.0392 25
-2.9257999999999997 1.1885 -0.47490000000000004 154
-3.1504000000000003 1.2803 0.11689999999999999 145
-17.3594 7.0547 1.0869 150
-8.8516 3.5976999999999997 1.2236 20
-16.6406 6.765599999999999 3.1601999999999997 169
-2.8945 1.1895 -0.5444 248
-3.1836 1.3086000000000002 0.0393 162
-2.9160000000000004 1.1982 -0.4744 235
-3.1562 1.2969 0.1174 146
-17.375 7.140599999999999 1.0908 202
-9.0156 3.7031 0.792 70
-8.7656 3.6016000000000004 0.9912000000000001 193
-8.7812 3.6094 1.2158 117
-16.6719 6.8477 3.1699 244
-2.9004000000000003 1.2031 -0.5464 163
-3.1387 1.3027000000000002 0.0388 100
-2.9160000000000004 1.21 -0.47490000000000004 20
-3.1620999999999997 1.3125 0.1177 133
-17.8125 7.390599999999999 1.1191 169
-17.5938 7.3047 1.5527000000000002 60
-8.7188 3.6211 0.9878 169
-8.8047 3.6523000000000003 1.2207 16
-17.3594 7.207000000000001 2.8613 209
-16.5781 6.8789 3.1562 18
-2.8887 1.21 -0.5449 138
-3.1719 1.3281 0.0393 126
-2.9257999999999997 1.2246 -0.4771 5
-3.1797000000000004 1.3319999999999999 0.1186 59
-17.3125 7.25 1.0889 212
-17.9062 7.5 1.5830000000000002 47
-8.7031 3.6426 0.9868000000000001 187
-8.7422 3.6601999999999997 1.2139 235
-17.3281 7.2578 2.8594 213
-16.4688 6.894500000000001 3.1406 224
-2.8808999999999996 1.2178 -0.5439 187
-3.1660000000000004 1.3378999999999999 0.0393 107
-2.9219 1.2344 -0.4771 214
-17.2344 7.2852 1.0869 81
-17.9375 7.582000000000001 1.5878999999999999 160
-8.7109 3.6816000000000004 0.9893000000000001 71
-8.7578 3.7012 1.2168 251
-19.9531 8.4297 3.2969 113
-16.4062 6.9297 3.1308999999999996 235
-2.8867000000000003 1.2324 -0.5464 242
-3.1132999999999997 1.3291 0.0387 60
-2.9238 1.248 -0.4783 100
-17.5 7.4727 1.1045 164
-17.9375 7.6602 1.5897999999999999 77
-8.7188 3.7245999999999997 0.9922 255
-8.7344 3.7285000000000004 1.2158 245
-19.9375 8.5156 3.3007999999999997 88
-17.9375 7.6602 3.4316000000000004 0
-2.8945 1.2470999999999999 -0.5483 130
-3.1464999999999996 1.3563999999999998 0.0392 73
-2.9101999999999997 1.2549 -0.4768 82
-68.625 29.5781 2.6074 173
-17.8438 7.6953 1.1279000000000001 88
-17.8906 7.7109000000000005 1.5869 92
-8.7422 3.7695 0.9961 143
-8.7031 3.75 1.2129 110
-19.9375 8.5938 3.3026999999999997 9
-17.2031 7.417999999999999 3.2969 66
-2.8926 1.2588 -0.5488000000000001 239
-3.127 1.3603999999999998 0.039 144
-2.918 1.2705 -0.479 202
-17.9688 7.824199999999999 1.5977000000000001 43
-16.8281 7.324199999999999 2.3555 10
-19.8438 8.6328 3.293 121
-19.4844 8.4844 3.7401999999999997 184
-2.8789 1.2646 -0.5468999999999999 76
-3.1464999999999996 1.3828 0.0393 214
-2.9238 1.2841999999999998 -0.4805 77
-65.75 28.8906 4.1758 4
-16.7969 7.3828 2.3555 238
-19.7812 8.6875 3.2870999999999997 92
-19.4531 8.5469 3.7401999999999997 106
-2.873 1.2744 -0.5468999999999999 154
-3.1132999999999997 1.3809 0.038900000000000004 246
-2.9316000000000004 1.2997999999999998 -0.4824 174
-56.4688 25.0469 2.1543 141
-65.0625 28.875 4.1406 22
-16.7656 7.4375 2.3535 34
-19.7188 8.75 3.2832 189
-19.6875 8.7344 3.7910000000000004 140
-2.8867000000000003 1.2930000000000001 -0.5503 154
-3.1113 1.3936000000000002 0.039 48
-2.9297000000000004 1.3125 -0.4832 11
-56.5 25.2969 2.1602 93
-64.4375 28.8438 4.1055 7
-16.7812 7.515599999999999 2.3613 196
-17.0625 7.640599999999999 3.2891000000000004 4
-2.8906 1.3075999999999999 -0.5522 191
-3.1289 1.415 0.0392 155
-2.918 1.3193000000000001 -0.4819 49
-56.5 25.5469 2.1641 118
-63.6562 28.7812 4.0625 24
-16.8594 7.6211 1.9394999999999998 185
-16.75 7.5703 2.3574 19
-19.5 8.8203 3.7676 213
-2.8964999999999996 1.3222999999999998 -0.5542 59
-3.1172000000000004 1.4219 0.0392 17
-2.9238 1.334 -0.48340000000000005 204
-56.4688 25.7656 2.166 4
-63.7188 29.0781 4.0742 229
-16.8125 7.671900000000001 1.9375 35
-16.7188 7.6289 2.3574 42
-19.5156 8.9062 3.7754000000000003 180
-2.8887 1.3311000000000002 -0.5537 43
-3.1094 1.4325999999999999 0.0391 189
-2.9297000000000004 1.3486000000000002 -0.4851 109
-63.6875 29.3438 4.0781 248
-16.7344 7.707000000000001 1.9316 236
-16.7031 7.6953 2.3613 43
-17.5312 8.0781 2.9375 125
-19.5156 8.9844 3.7793 148
-2.8672000000000004 1.3319999999999999 -0.5498 35
-3.0839999999999996 1.4336000000000002 0.038900000000000004 95
-2.9316000000000004 1.3622999999999998 -0.4863 33
-63.1562 29.3594 4.0508 82
-62.9062 29.25 5.6640999999999995 68
-17.3281 8.0547 2.0039 251
-16.6094 7.7188 2.3496 95
-17.5 8.1328 2.9355 17
-19.4844 9.0547 3.7793 19
-2.8867000000000003 1.3535 -0.5547 177
-3.0938 1.4512 0.0391 215
-2.9160000000000004 1.3672 -0.48460000000000003 10
-62.625 29.3594 4.0195 44
-62.2812 29.2031 5.6172 40
-17.2188 8.0703 1.9941 0
-17.4844 8.2031 2.9395 137
-17.9219 8.3984 3.4824 140
-2.8906 1.3662 -0.5562 29
-3.1016000000000004 1.4668 0.0392 29
-2.9082 1.375 -0.4841 69
-69.5625 32.9062 2.6855 195
-62.0625 29.3594 3.9922000000000004 179
-17.2812 8.1719 2.0039 168
-17.5781 8.3203 2.9589999999999996 166
-17.9844 8.5 3.5 8
-2.8964999999999996 1.3818000000000001 -0.5581 214
-3.1172000000000004 1.4872999999999998 0.0395 81
-2.9219 1.3936000000000002 -0.48710000000000003 101
-69.5 33.1562 2.6875 192
-17.2656 8.2344 2.0059 29
-17.5625 8.3828 2.9608999999999996 65
-17.4844 8.3438 3.4082 84
-2.8867000000000003 1.3887 -0.5571 184
-3.1191000000000004 1.501 0.039599999999999996 117
-2.9160000000000004 1.4033000000000002 -0.48710000000000003 212
-60.875 29.2969 3.9276999999999997 66
-17.2344 8.2891 2.0039 20
-18.5156 8.9062 3.125 199
-17.4531 8.3984 3.4082 25
-2.8827999999999996 1.4003999999999999 -0.5576 92
-3.1132999999999997 1.5127000000000002 0.039599999999999996 56
-2.9297000000000004 1.4228999999999998 -0.49 122
-18.5 8.9844 3.1289 38
-17.4844 8.5 3.4219 103
-2.8945 1.4188999999999998 -0.561 112
-3.1308999999999996 1.5341999999999998 0.039900000000000005 50
-2.9160000000000004 1.4287 -0.4885 46
-59.3125 29.0625 6.9375 35
-18.4062 9.0234 3.1191000000000004 101
-3.0839999999999996 1.5107 -0.0392 152
-17.3281 8.4922 3.3964999999999996 190
-2.8945 1.4306999999999999 -0.562 127
-3.1327999999999996 1.5488 0.039900000000000005 117
-2.9120999999999997 1.4394999999999998 -0.4888 240
-58.75 29.0469 6.8828 7
-3.0781 1.5215 -0.0392 217
-17.3906 8.6016 3.4141000000000004 224
-2.8983999999999996 1.4453 -0.5635 14
-2.918 1.4550999999999998 -0.4907 167
-58.2188 29.0312 6.832000000000001 31
-3.0801 1.5361000000000002 -0.0393 165
-18.9062 9.4297 3.7188 76
-2.8867000000000003 1.4531 -0.5625 82
-2.9199 1.4687999999999999 -0.4919 76
-3.0645 1.5419999999999998 -0.0392 107
-18.8438 9.4844 3.7129000000000003 135
-2.8789 1.4609 -0.562 139
-2.9141000000000004 1.4794999999999998 -0.4919 245
-57.6562 29.2656 2.2559 50
-57.5938 29.2188 3.7539 249
-57.3125 29.0781 6.75 229
-3.0664 1.5556999999999999 -0.0393 24
-18.7344 9.5156 3.6992000000000003 75
-2.8808999999999996 1.4746000000000001 -0.563 251
-2.9101999999999997 1.4893 -0.4919 118
-57.25 29.2969 2.2441 219
-57.25 29.2969 3.7382999999999997 90
-57.3125 29.3281 6.761699999999999 85
-3.0605 1.5663999999999998 -0.0393 192
-18.7031 9.5703 3.6973000000000003 70
-2.8964999999999996 1.4941 -0.5674 251
-18.7969 9.6953 0.2465 105
-2.9004000000000003 1.4971 -0.49119999999999997 217
-57.2812 29.5469 2.248 115
-45.25 23.3438 2.9589999999999996 84
-55.6562 28.7188 6.578099999999999 28
-55.4062 28.5938 8.0156 247
-3.0702999999999996 1.584 -0.0395 44
-2.8964999999999996 1.5088 -0.5684 97
-2.9062 1.5137 -0.4932 30
-57.1875 29.7812 2.25 146
-3.0233999999999996 1.5741999999999998 -0.4329 20
-57.1875 29.7812 3.75 214
-13.9297 7.2539 1.2793 0
-13.9219 7.25 1.6455000000000002 199
-55.1562 28.7188 7.9922 119
-55.5312 28.9219 9.5391 226
-3.0547000000000004 1.5908000000000002 -0.0394 73
-2.8867000000000003 1.5166 -0.5679 141
-2.9141000000000004 1.5303 -0.4954 226
-57.1562 30.0156 2.252 153
-2.9531 1.5518 -0.4236 91
-55.9688 29.4062 3.6757999999999997 160
-13.9375 7.3203 1.2822 143
-54.9062 28.8438 7.9727 144
-55.2812 29.0312 9.5156 34
-3.0526999999999997 1.6035 -0.0394 130
-2.8867000000000003 1.5283000000000002 -0.5684 182
-2.918 1.5459 -0.4971 217
-3.0117000000000003 1.5947 -0.4329 83
-44.3438 23.5 2.918 220
-13.9453 7.386699999999999 1.2852000000000001 33
-54.7812 29.0312 7.9688 176
-55.2188 29.25 9.5234 20
-3.0566000000000004 1.6191 -0.039599999999999996 10
-55.2812 29.2812 11.023399999999999 173
-2.8867000000000003 1.5419999999999998 -0.5698 101
-2.9043 1.5508000000000002 -0.4954 54
-3.0137 1.6094 -0.4338 64
-13.9375 7.4453 1.2871000000000001 24
-54.625 29.1875 7.9609000000000005 59
-55.0 29.375 9.5 106
-3.0742000000000003 1.6425999999999998 -0.039900000000000005 246
-55.0625 29.4062 11.0 94
-2.8887 1.5556999999999999 -0.5713 86
-2.9062 1.5654 -0.4971 203
-54.1562 29.1562 2.1465 182
-2.9589999999999996 1.5928 -0.4268 6
-13.9297 7.5 1.2891 198
-13.9453 7.511699999999999 1.6602000000000001 233
-54.5938 29.3906 7.9688 174
-54.8125 29.5156 9.4844 172
-3.0742000000000003 1.6553 -0.039900000000000005 158
-55.0 29.6094 11.0078 2
-2.8906 1.5693000000000001 -0.5728 249
-2.9101999999999997 1.5800999999999998 -0.4985 217
-53.6562 29.125 2.1309 233
-2.9668 1.6103999999999998 -0.42869999999999997 212
-13.9375 7.5625 1.291 163
-13.9375 7.5625 1.6621000000000001 94
-54.5 29.5781 7.9688 111
-54.8125 29.75 9.5 224
-3.0586 1.6602000000000001 -0.0398 211
-2.8827999999999996 1.5791 -0.5722999999999999 87
-2.9120999999999997 1.5937999999999999 -0.49979999999999997 33
-2.9257999999999997 1.6025 -0.4236 146
-13.9531 7.640599999999999 0.9229 159
-13.9453 7.6328 1.2949000000000002 208
-13.9375 7.6289 1.665 178
-54.4375 29.7969 7.9765999999999995 106
-3.0879000000000003 1.6904 -0.1211 74
-54.875 30.0469 9.5312 47
-3.0526999999999997 1.6709 -0.0398 56
-2.8711 1.585 -0.5708 76
-14.039100000000001 7.75 0.1866 228
-2.9141000000000004 1.6084 -0.501 87
-13.9531 7.703099999999999 0.5547 179
-3.0077999999999996 1.6602000000000001 -0.4365 79
-13.9453 7.699199999999999 0.9238 127
-13.9453 7.699199999999999 1.2978999999999998 140
-13.9375 7.6953 1.6688999999999998 213
-13.914100000000001 7.6836 2.0391 29
-3.0957 1.709 -0.1217 60
-2.8848000000000003 1.6044999999999998 -0.5747 114
-2.9141000000000004 1.6200999999999999 -0.502 141
-52.4375 29.1562 2.0938 65
-3.002 1.6699000000000002 -0.4365 31
-13.9453 7.7539 0.9258 151
-13.9453 7.7578 1.2997999999999998 179
-13.9531 7.761699999999999 1.6738 183
-54.5 30.3125 8.0156 167
-3.0938 1.7207 -0.12179999999999999 176
-12.7422 7.0859000000000005 -0.1696 51
-2.8926 1.6211000000000002 -0.5771000000000001 68
-2.9023000000000003 1.6269999999999998 -0.501 15
-2.9766000000000004 1.6680000000000001 -0.43329999999999996 132
-13.9531 7.8203 0.9277 252
-13.9453 7.8125 1.3018 168
-13.960899999999999 7.824199999999999 1.6777000000000002 59
-13.8672 7.7734000000000005 2.0391 83
-3.0566000000000004 1.7128999999999999 -0.12050000000000001 33
-12.7422 7.144500000000001 -0.1699 186
-2.8867000000000003 1.6328 -0.5776 141
-2.9101999999999997 1.6455000000000002 -0.5034000000000001 8
-51.3438 29.0469 2.0586 164
-2.9452999999999996 1.666 -0.4299 134
-13.960899999999999 7.894500000000001 0.9301999999999999 0
-13.9453 7.8828 1.3047 57
-13.9453 7.886699999999999 1.6797 40
-3.0645 1.7324000000000002 -0.1211 79
-12.648399999999999 7.1523 -0.1689 178
-2.875 1.6387 -0.5761999999999999 163
-2.9141000000000004 1.6621000000000001 -0.5049 53
-3.0233999999999996 1.7236000000000002 -0.4421 95
-13.9453 7.949199999999999 0.9312 218
-13.9453 7.949199999999999 1.3075999999999999 152
-13.9453 7.949199999999999 1.6825999999999999 237
