# .PCD v0.7 - Point Cloud Data file format
VERSION 0.7
FIELDS x y z intensity
SIZE 4 4 4 4
TYPE F F F F
COUNT 1 1 1 1
WIDTH 1424
HEIGHT 1
VIEWPOINT 0 0 0 1 0 0 0
POINTS 1424
DATA ascii
2.7188 7.0039 -1.3174000000000001 60
3.0702999999999996 7.9102 -1.2871000000000001 1
12.773399999999999 32.9062 1.2305 186
3.4961 9.0078 -1.2373 118
4.1406 10.6719 -1.1982 194
4.9922 12.8594 -1.123 124
6.4336 16.5781 -1.0322 35
9.9609 25.6719 -0.9595 37
12.718800000000002 32.7812 -0.4102 133
10.5156 27.0938 5.1172 102
2.7382999999999997 6.984400000000001 -1.3154 125
3.0995999999999997 7.9062 -1.2881 80
3.5273000000000003 8.9922 -1.2373 105
12.7969 32.625 2.0371 231
4.1797 10.656199999999998 -1.1992 177
5.043 12.8594 -1.125 231
6.4922 16.5625 -1.0322 146
10.0547 25.6406 -0.96 34
10.5625 26.9375 5.0938 70
2.7637 6.980499999999999 -1.3163999999999998 237
3.127 7.894500000000001 -1.2881 61
3.5664 9.0 -1.2402 172
12.7578 32.2188 2.0137 188
4.2148 10.6406 -1.1982 185
5.0859 12.835899999999999 -1.124 86
18.0156 45.4688 5.136699999999999 14
6.546900000000001 16.5312 -1.0322 9
10.1406 25.5938 -0.9595 155
12.726600000000001 32.125 -0.4033 78
17.9688 45.3438 8.5938 89
2.7832 6.953099999999999 -1.3135 24
3.1562 7.886699999999999 -1.2891 222
3.5995999999999997 8.9922 -1.2402 122
4.2578 10.6406 -1.2002 118
5.136699999999999 12.835899999999999 -1.126 32
18.2188 45.5 5.1484000000000005 67
6.613300000000001 16.5156 -1.0332 1
10.2344 25.5625 -0.96 11
12.726600000000001 31.7969 -0.3997 68
11.343800000000002 28.3438 5.375 65
2.8105 6.957000000000001 -1.3154 35
12.781199999999998 31.6406 0.3982 8
3.1776999999999997 7.8672 -1.2871000000000001 106
12.7578 31.5781 1.1875 14
3.6367000000000003 9.0 -1.2431999999999999 254
12.7578 31.5781 1.9785 235
4.3008 10.6406 -1.2012 35
5.175800000000001 12.8047 -1.125 82
18.3594 45.4375 5.144500000000001 217
6.675800000000001 16.5156 -1.0342 90
10.3203 25.5469 -0.9604 181
12.718800000000002 31.4844 -0.3962 106
2.8358999999999996 6.953099999999999 -1.3163999999999998 76
3.2051 7.859400000000001 -1.2881 177
3.6620999999999997 8.9766 -1.2422 26
12.835899999999999 31.4688 1.9746000000000001 201
4.3398 10.6406 -1.2031 164
12.5156 30.6875 2.7031 204
5.2227 12.8047 -1.126 228
6.738300000000001 16.5156 -1.0352 205
10.414100000000001 25.5312 -0.9609000000000001 189
12.6953 31.125 -0.3921 117
11.5156 28.2188 5.3672 179
2.8651999999999997 6.949199999999999 -1.3184 111
12.718800000000002 30.8594 0.38939999999999997 128
3.2461 7.875 -1.2930000000000001 86
12.7031 30.8281 1.1621 141
3.7031 8.9844 -1.2441 126
12.8203 31.1094 1.9550999999999998 38
4.3867 10.648399999999999 -1.2061 124
5.2734000000000005 12.789100000000001 -1.126 79
6.824199999999999 16.5469 -1.0391 219
10.5078 25.4844 -0.9609000000000001 240
12.710899999999999 30.8438 -0.3892 96
11.5 27.9062 5.3164 167
2.8848000000000003 6.9297 -1.3163999999999998 178
3.2714999999999996 7.859400000000001 -1.291 11
12.843800000000002 30.8594 1.165 58
3.7305 8.9609 -1.2431999999999999 151
4.4258 10.625 -1.2051 238
5.328099999999999 12.8047 -1.1289 0
6.8672 16.5 -1.0371 171
10.585899999999999 25.4375 -0.9604 248
12.6875 30.4844 -0.38530000000000003 107
11.5156 27.6719 5.2773 187
2.9141000000000004 6.9336 -1.3193000000000001 80
3.3066000000000004 7.863300000000001 -1.2938999999999998 215
3.7676 8.9609 -1.2451 34
4.4609 10.6172 -1.2061 1
12.4531 29.6406 2.623 37
5.3711 12.773399999999999 -1.1279000000000001 111
6.9453 16.5156 -1.04 65
10.664100000000001 25.375 -0.9595 214
12.6953 30.2031 -0.3821 61
11.718800000000002 27.875 5.324199999999999 34
2.9452999999999996 6.9375 -1.3213 33
3.3281 7.8438 -1.2930000000000001 117
12.726600000000001 29.9844 1.1357 110
3.8066000000000004 8.9688 -1.248 130
12.6797 29.875 1.8857 230
4.5 10.601600000000001 -1.2061 184
5.4140999999999995 12.7578 -1.1279000000000001 173
7.0039 16.5 -1.04 243
10.773399999999999 25.375 -0.9609000000000001 132
11.8047 27.8125 5.3203 201
2.9688 6.925800000000001 -1.3213 27
3.3594 7.8359000000000005 -1.2938999999999998 74
3.8339999999999996 8.9453 -1.2470999999999999 64
12.7031 29.6406 1.874 205
4.543 10.601600000000001 -1.208 130
12.476600000000001 29.1094 2.5839999999999996 38
5.4688 12.7578 -1.1299 107
7.0664 16.4844 -1.041 35
10.851600000000001 25.3125 -0.96 201
12.656199999999998 29.5312 -0.37479999999999997 213
11.875 27.7188 5.3086 152
2.9941000000000004 6.917999999999999 -1.3213 185
3.3887 7.828099999999999 -1.2938999999999998 4
12.7578 29.4844 1.1201 233
3.8672000000000004 8.9375 -1.2470999999999999 55
12.7344 29.4375 1.8633000000000002 161
4.5859 10.593800000000002 -1.209 170
12.4531 28.7656 2.5566 238
5.511699999999999 12.7344 -1.1299 121
7.1523 16.5312 -1.0449 193
12.914100000000001 29.8438 4.1758 101
10.9453 25.2969 -0.9609000000000001 113
12.7422 29.4375 -0.3743 239
11.9844 27.6875 5.3125 250
3.0117000000000003 6.8984000000000005 -1.3203 54
3.4238 7.8398 -1.2978999999999998 36
12.8281 29.375 1.1172 135
3.8926 8.9141 -1.2461 246
12.7969 29.3125 1.8584 215
4.6172 10.5781 -1.208 239
5.5664 12.75 -1.1328 254
7.199199999999999 16.4844 -1.0439 201
12.976600000000001 29.7188 4.1641 69
11.0469 25.2969 -0.9623999999999999 65
12.8203 29.3594 -0.3738 219
3.0391000000000004 6.894500000000001 -1.3213 185
3.4531 7.8359000000000005 -1.2988 2
12.906199999999998 29.2969 1.1162 15
3.9395 8.9375 -1.251 169
12.8828 29.2344 1.8563999999999998 206
4.6484 10.5469 -1.207 155
5.625 12.7656 -1.1357 101
7.261699999999999 16.4844 -1.0449 1
13.0547 29.625 4.1602 28
11.1406 25.2812 -0.9629000000000001 34
12.906199999999998 29.2969 -0.3735 3
19.9688 45.3125 8.7266 97
3.0702999999999996 6.9023 -1.3252000000000002 252
13.0469 29.3281 0.37450000000000006 103
3.4863 7.8398 -1.3018 90
12.9844 29.1875 1.1133 91
3.9668 8.9141 -1.25 87
12.976600000000001 29.1719 1.8555000000000001 177
4.6836 10.531199999999998 -1.207 63
5.6602 12.726600000000001 -1.1338 119
7.3203 16.4531 -1.0449 114
13.148399999999999 29.5625 4.1562 216
11.1953 25.1719 -0.9604 26
12.9844 29.1875 -0.3728 179
3.0938 6.894500000000001 -1.3252000000000002 189
3.5214999999999996 7.8477 -1.3056999999999999 234
13.0703 29.1094 1.1123 192
3.9941000000000004 8.8984 -1.249 209
13.0547 29.0938 1.8525 148
4.7148 10.5078 -1.2061 89
5.703099999999999 12.710899999999999 -1.1348 130
7.3672 16.4219 -1.0439 143
13.218800000000002 29.4688 4.1484 233
11.2969 25.1719 -0.9619 239
13.0625 29.1094 -0.3721 101
3.1191000000000004 6.8828 -1.3252000000000002 68
3.5664 7.863300000000001 -1.3105000000000002 40
13.1719 29.0625 1.1123 85
4.0391 8.9141 -1.2529000000000001 97
13.148399999999999 29.0 1.8506 97
4.7617 10.5 -1.207 38
5.765599999999999 12.718800000000002 -1.1367 128
20.5938 45.4375 5.238300000000001 118
7.4414 16.4219 -1.0459 132
13.3203 29.375 4.1445 253
11.3672 25.0781 -0.9595 13
3.1426 6.8672 -1.3241999999999998 179
13.273399999999999 29.0 0.3721 180
3.5879000000000003 7.8398 -1.3086000000000002 77
13.2344 28.9219 1.1094 182
4.0781 8.9141 -1.2549 194
13.2656 28.9844 1.8516 52
4.8008 10.4922 -1.208 47
5.8086 12.6953 -1.1367 136
7.515599999999999 16.4219 -1.0479 23
13.398399999999999 29.2812 4.1367 240
11.468800000000002 25.0469 -0.9604 44
13.2969 29.0625 -0.3728 32
20.7344 45.2812 8.7734 188
3.1660000000000004 6.855499999999999 -1.3241999999999998 207
13.335899999999999 28.875 0.3711 152
3.6055 7.8047 -1.3047 225
13.3281 28.8594 1.1084 225
4.1094 8.8984 -1.2559 6
13.343800000000002 28.8906 1.8486000000000002 146
4.8477 10.5 -1.2109 154
5.855499999999999 12.6797 -1.1377 26
13.5703 29.375 3.3964999999999996 53
7.5859000000000005 16.4219 -1.0498 229
13.476600000000001 29.1875 4.1289 188
11.593800000000002 25.1094 -0.9639 249
13.343800000000002 28.8906 -0.3713 138
3.1952999999999996 6.855499999999999 -1.3262 252
3.625 7.7773 -1.3027000000000002 190
13.414100000000001 28.7812 1.1074 178
4.1523 8.9062 -1.2588 30
13.460899999999999 28.875 1.8506 203
4.8828 10.476600000000001 -1.21 31
5.9023 12.664100000000001 -1.1377 186
7.6640999999999995 16.4375 -1.0527 189
13.5547 29.0781 4.1211 141
11.656199999999998 25.0156 -0.9619 63
13.414100000000001 28.7812 -0.37060000000000004 38
3.2266000000000004 6.859400000000001 -1.3291 196
3.6582 7.7773 -1.3037 253
4.1875 8.8984 -1.2598 228
13.5625 28.8281 1.8506 159
4.9219 10.460899999999999 -1.21 230
5.9453 12.6406 -1.1367 147
7.7109000000000005 16.3906 -1.0518 29
13.648399999999999 29.0156 4.1172 198
11.7578 25.0 -0.9629000000000001 15
13.4922 28.6875 -0.3699 113
3.25 6.8477 -1.3291 234
13.593800000000002 28.6406 0.3699 157
3.7108999999999996 7.8164 -1.3135 241
13.539100000000001 28.5312 1.1006 208
4.207 8.8672 -1.2568000000000001 168
4.9688 10.468800000000002 -1.2139 195
5.9961 12.6328 -1.1387 130
7.7812 16.3906 -1.0527 74
13.7344 28.9375 4.1133 139
11.843800000000002 24.9531 -0.9629000000000001 218
13.5078 28.4531 -0.3674 80
3.2714999999999996 6.832000000000001 -1.3281 90
3.7188 7.765599999999999 -1.3066 80
13.6094 28.4062 1.0986 96
4.25 8.875 -1.2607 44
13.6797 28.5625 1.8397999999999999 12
5.0117 10.460899999999999 -1.2148 202
12.960899999999999 27.0781 2.4492 60
6.050800000000001 12.6328 -1.1406 135
7.8438 16.375 -1.0537 122
13.8125 28.8438 4.1094 71
11.9297 24.9062 -0.9629000000000001 189
13.5547 28.2969 -0.366 51
3.2988 6.828099999999999 -1.3300999999999998 57
3.7461 7.7539 -1.3066 0
13.664100000000001 28.2812 1.0947 186
4.2812 8.8594 -1.2607 184
13.773399999999999 28.5 1.8388999999999998 187
5.0508 10.4531 -1.2158 153
6.0938 12.6094 -1.1406 62
7.9140999999999995 16.375 -1.0556999999999999 255
13.8906 28.75 4.1016 227
12.0078 24.8594 -0.9619 106
13.6094 28.1562 -0.36469999999999997 208
21.8438 45.2188 8.8438 137
3.3262 6.824199999999999 -1.3311000000000002 143
3.7773000000000003 7.75 -1.3086000000000002 26
13.6719 28.0469 1.0879 121
4.3203 8.8672 -1.2637 143
13.835899999999999 28.3906 1.835 90
5.0859 10.4375 -1.2158 171
6.1289 12.5781 -1.1396 180
7.988300000000001 16.3906 -1.0586 217
13.968800000000002 28.6562 4.0938 162
12.1172 24.8594 -0.9639 97
13.6719 28.0625 -0.3643 118
22.0156 45.1875 8.8594 188
3.3613 6.8398 -1.3359 53
3.8026999999999997 7.738300000000001 -1.3086000000000002 94
13.7422 27.9688 1.0859 58
4.3594 8.8672 -1.2656 56
13.914100000000001 28.3125 1.8330000000000002 125
5.1328 10.4453 -1.2187999999999999 131
6.1836 12.5781 -1.1416 159
8.0312 16.3438 -1.0576 74
14.0469 28.5938 4.0898 239
12.218800000000002 24.875 -0.9658 251
14.710899999999999 29.9375 -0.3892 34
22.2188 45.2188 8.875 205
3.3789 6.8125 -1.334 13
14.8203 29.875 0.3892 119
3.8516000000000004 7.765599999999999 -1.3154 4
18.7031 37.6875 1.4678 130
4.3789 8.8359 -1.2627 83
13.9922 28.2188 1.8300999999999998 156
5.171900000000001 10.4297 -1.2187999999999999 199
6.230499999999999 12.5625 -1.1416 26
8.1172 16.375 -1.0605 90
14.1328 28.5 4.0859 201
12.3203 24.8438 -0.9668000000000001 137
14.7969 29.8438 -0.3887 28
3.4004000000000003 6.796900000000001 -1.3330000000000002 206
14.8906 29.75 0.3882 122
3.8711 7.734400000000001 -1.3125 87
4.418 8.8359 -1.2646 45
14.0703 28.125 1.8271000000000002 35
5.2109000000000005 10.414100000000001 -1.2187999999999999 133
6.2812 12.5547 -1.1436 133
8.2031 16.4062 -1.0645 68
14.218800000000002 28.4219 4.082 207
12.3828 24.75 -0.9648 38
22.625 45.2188 8.9062 98
3.4316000000000004 6.8047 -1.3359 251
3.9062 7.7422 -1.3163999999999998 46
14.1328 28.0156 1.0937999999999999 71
4.457 8.8359 -1.2666 100
14.148399999999999 28.0469 1.8252000000000002 193
5.2461 10.398399999999999 -1.2197 195
6.3398 12.5703 -1.1465 98
8.2422 16.3281 -1.0615 147
14.2969 28.3281 4.0781 96
12.5 24.7812 -0.9673 188
14.148399999999999 28.0312 -0.3665 60
3.4589999999999996 6.800800000000001 -1.3378999999999999 61
14.210899999999999 27.9375 0.3657 246
3.9257999999999997 7.7188 -1.3135 175
14.2031 27.9219 1.0918 120
4.4844 8.8203 -1.2676 65
14.226600000000001 27.9688 1.8232 216
5.2852 10.3906 -1.2207 36
6.386699999999999 12.5547 -1.1475 195
8.2891 16.2969 -1.0615 187
14.3594 28.2344 4.0703 167
12.5703 24.7188 -0.9662999999999999 192
14.2422 28.0 -0.3665 254
3.4844 6.7890999999999995 -1.3378999999999999 246
3.9608999999999996 7.7148 -1.3163999999999998 162
14.3047 27.875 1.0928 102
4.5273 8.8203 -1.2695 48
14.3047 27.875 1.8203 227
5.324199999999999 10.375 -1.2207 226
6.4336 12.531199999999998 -1.1475 178
8.3828 16.3281 -1.0654000000000001 134
14.4531 28.1562 4.0664 47
12.6797 24.7031 -0.9682999999999999 222
13.085899999999999 25.5 4.3633 36
14.281199999999998 27.8281 -0.36469999999999997 122
3.5098000000000003 6.7773 -1.3378999999999999 27
14.3906 27.7969 0.365 5
3.9922000000000004 7.7148 -1.3184 232
14.3594 27.7344 1.0889 135
4.5469 8.7812 -1.2666 161
14.351600000000001 27.7188 1.8135 8
5.375 10.3828 -1.2236 79
6.484400000000001 12.523399999999999 -1.1484 117
8.4531 16.3281 -1.0674 95
14.531199999999998 28.0781 4.0625 45
12.8203 24.7656 -0.9722 229
13.2422 25.5781 4.3867 149
14.3594 27.7344 -0.3643 103
3.5370999999999997 6.7773 -1.3408000000000002 20
14.476600000000001 27.75 0.365 106
4.0156 7.6953 -1.3174000000000001 216
14.4297 27.6562 1.0879 177
4.582 8.7812 -1.2686 203
14.4297 27.6406 1.8115 192
5.4062 10.3594 -1.2236 8
6.5312 12.5156 -1.1494 60
8.5156 16.3125 -1.0684 85
14.6094 27.9844 4.0547 175
12.9453 24.8125 -0.9756 237
13.25 25.3906 4.3594 91
14.4453 27.6875 -0.3643 147
3.5625 6.7734000000000005 -1.3418 44
4.0391 7.6797 -1.3163999999999998 12
14.5156 27.5938 1.0869 48
4.6211 8.7812 -1.2715 253
14.4922 27.5469 1.8075999999999999 33
5.449199999999999 10.3594 -1.2256 238
6.574199999999999 12.5 -1.1494 32
8.5625 16.2812 -1.0674 93
14.6797 27.9062 4.0508 177
13.0469 24.8125 -0.9771 227
13.3594 25.3906 4.3711 40
14.5156 27.5938 -0.3638 144
3.5938 6.769500000000001 -1.3437999999999999 146
4.0742 7.675800000000001 -1.3184 72
14.6094 27.5 1.0859 15
4.6602 8.7734 -1.2725 217
14.593800000000002 27.4844 1.8075999999999999 164
5.488300000000001 10.335899999999999 -1.2246 218
6.6211 12.468800000000002 -1.1494 116
8.6484 16.2969 -1.0703 121
14.781199999999998 27.8281 4.0469 19
13.1875 24.8281 -0.98 144
13.531199999999998 25.4844 4.3945 149
14.593800000000002 27.4844 -0.363 136
3.6211 6.761699999999999 -1.3447 27
4.0977 7.6523 -1.3174000000000001 50
14.6797 27.4219 1.084 204
4.6914 8.7656 -1.2734 107
14.6719 27.3906 1.8056999999999999 51
5.5352 10.335899999999999 -1.2275 186
6.6836 12.476600000000001 -1.1523 241
8.7188 16.2812 -1.0713 40
14.851600000000001 27.7344 4.043 84
13.2969 24.8281 -0.9819 173
13.664100000000001 25.5156 4.4062 240
14.6719 27.3906 -0.3625 85
13.531199999999998 25.2656 5.0469 195
3.6445 6.75 -1.3457 67
4.1445 7.6797 -1.3241999999999998 177
14.7422 27.3125 1.082 143
4.7188 8.7422 -1.2725 48
14.726600000000001 27.2812 1.8018 110
5.578099999999999 10.335899999999999 -1.2295 121
6.7265999999999995 12.460899999999999 -1.1523 226
8.7734 16.25 -1.0713 197
13.8672 25.6875 3.75 166
12.8594 23.8281 -0.9438 219
12.851600000000001 23.8125 4.1172 201
12.8281 23.7656 -0.31489999999999996 113
13.6328 25.2656 5.0547 116
3.6641000000000004 6.734400000000001 -1.3447 169
4.1719 7.6640999999999995 -1.3241999999999998 196
12.9375 23.7812 0.9434 100
4.7539 8.7344 -1.2734 62
12.914100000000001 23.7344 1.5703 24
5.609400000000001 10.3047 -1.2285 138
6.765599999999999 12.4297 -1.1523 196
22.8281 41.9688 5.0156 190
8.8125 16.2031 -1.0703 0
13.914100000000001 25.5781 3.7401999999999997 52
13.531199999999998 24.8594 -0.9868000000000001 112
13.8281 25.4219 4.4062 237
14.8672 27.3125 -0.3628 64
13.6797 25.1406 5.0391 193
3.6933999999999996 6.734400000000001 -1.3466999999999998 207
13.5156 24.625 0.3276 247
4.1914 7.644500000000001 -1.3222999999999998 125
14.968800000000002 27.2812 1.085 100
4.7891 8.7344 -1.2754 202
14.9453 27.2344 1.8056999999999999 86
5.636699999999999 10.273399999999999 -1.2266 46
6.8164 12.4219 -1.1533 173
8.9141 16.25 -1.0752 37
13.9844 25.4844 3.7344 228
13.5703 24.7344 -0.9834 250
13.0078 23.7031 4.1172 241
15.0 27.3438 -0.3638 61
13.781199999999998 25.125 5.043 112
3.7285000000000004 6.7422 -1.3516 184
13.585899999999999 24.5781 0.3274 15
4.2148 7.6211 -1.3213 79
15.0547 27.2188 1.085 235
4.8242 8.7266 -1.2773 56
15.0781 27.2656 1.8105000000000002 117
5.6836 10.273399999999999 -1.2295 173
6.855499999999999 12.398399999999999 -1.1533 55
8.9766 16.2344 -1.0771 22
14.125 25.5469 3.75 227
13.625 24.6406 -0.9814 87
13.1406 23.7656 4.1328 15
13.6094 24.6094 -0.32789999999999997 163
13.718800000000002 24.8125 4.9922 34
3.7539 6.730499999999999 -1.3516 10
13.718800000000002 24.5781 0.3284 11
4.2539 7.6211 -1.3241999999999998 224
15.25 27.3281 1.0918 13
4.8672 8.7266 -1.2793 127
18.0625 32.375 2.1543 235
5.730499999999999 10.2656 -1.2314 114
6.9062 12.375 -1.1543 62
9.0547 16.2188 -1.0781 161
14.2344 25.5 3.752 217
13.6953 24.5469 -0.98 121
13.156199999999998 23.5781 4.1133 211
13.6797 24.5156 -0.3274 224
13.2344 23.7188 4.7812 236
3.7812 6.7188 -1.3525 134
13.835899999999999 24.5938 0.32909999999999995 68
4.293 7.6289 -1.3281 211
4.8945 8.7031 -1.2783 178
18.2031 32.3438 2.1582 159
5.761699999999999 10.2422 -1.2305 52
6.9688 12.3906 -1.1572 39
9.1094 16.1875 -1.0781 191
13.5703 24.1094 3.5547000000000004 207
13.2969 23.6406 -0.9453 77
13.2578 23.5625 4.1172 119
13.476600000000001 23.9531 -0.3206 202
13.2969 23.6406 4.7734 149
3.8007999999999997 6.703099999999999 -1.3516 75
4.3164 7.613300000000001 -1.3281 118
4.9258 8.6875 -1.2793 189
18.3594 32.4062 2.1641 35
5.8047 10.2344 -1.2324 68
7.015599999999999 12.375 -1.1582 13
9.1484 16.1406 -1.0762 25
13.593800000000002 23.9844 3.5410000000000004 100
13.4219 23.6719 -0.9487000000000001 245
13.3125 23.4844 4.1094 239
13.4219 23.6875 -0.31739999999999996 115
13.375 23.5938 4.7734 79
3.8339999999999996 6.7109000000000005 -1.3555000000000001 25
4.332 7.582000000000001 -1.3252000000000002 39
4.9766 8.7109 -1.2852000000000001 167
18.4688 32.3125 2.1621 177
5.832000000000001 10.2109 -1.2314 74
7.0625 12.3594 -1.1592 37
21.7969 38.1562 4.6133 125
9.2188 16.125 -1.0781 19
13.664100000000001 23.9062 3.5370999999999997 252
13.726600000000001 24.0312 -0.9648 33
13.5703 23.75 4.1641 209
13.6953 23.9688 -0.3218 167
13.648399999999999 23.8906 4.8438 70
3.8651999999999997 6.707000000000001 -1.3574000000000002 13
4.375 7.5898 -1.3291 162
5.0 8.6797 -1.2832 129
15.7422 27.3281 1.8319999999999999 197
5.875 10.1953 -1.2324 158
7.109400000000001 12.335899999999999 -1.1592 108
21.8594 37.9375 4.5977 218
9.2891 16.125 -1.0801 238
15.6406 27.1406 4.0234 222
13.843800000000002 24.0156 -0.9662999999999999 226
13.7422 23.8594 4.1914 131
13.8047 23.9531 -0.3225 210
13.4922 23.4062 4.7578 108
3.8964999999999996 6.707000000000001 -1.3603999999999998 237
15.851600000000001 27.2969 0.3682 165
4.4102 7.5938 -1.3319999999999999 78
15.8125 27.2344 1.0977 51
5.0391 8.6797 -1.2852000000000001 119
15.835899999999999 27.2656 1.8311000000000002 226
5.917999999999999 10.1875 -1.2334 48
7.175800000000001 12.351600000000001 -1.1631 146
21.8125 37.5625 4.5586 146
9.3906 16.1562 -1.085 249
15.6328 26.9219 3.998 22
13.960899999999999 24.0312 -0.9688 98
13.718800000000002 23.625 4.1602 196
13.9219 23.9688 -0.3232 39
13.656199999999998 23.5156 4.7891 248
3.9120999999999997 6.6797 -1.3574000000000002 93
4.4375 7.582000000000001 -1.3330000000000002 28
30.75 52.5 2.123 115
5.0664 8.6562 -1.2841999999999998 158
15.9531 27.25 1.834 12
5.9609000000000005 10.1797 -1.2354 8
7.2227 12.335899999999999 -1.1641 86
13.7578 23.5 2.8574 175
9.4531 16.1406 -1.0859 140
15.7422 26.875 4.0 9
14.0703 24.0312 -0.9706999999999999 191
13.914100000000001 23.7656 4.1953 30
14.0078 23.9375 -0.3235 24
13.601600000000001 23.2344 4.7383 111
3.9336 6.667999999999999 -1.3574000000000002 102
4.4688 7.5703 -1.334 147
30.9688 52.4688 2.125 123
5.1016 8.6406 -1.2861000000000002 133
16.0781 27.2344 1.8369 97
6.0 10.1641 -1.2363 247
7.269500000000001 12.3125 -1.1641 92
13.8906 23.5312 2.8672000000000004 164
9.5 16.0938 -1.085 10
14.3594 24.3281 3.627 248
13.9453 23.625 4.1758 247
16.1094 27.2812 -0.3696 64
13.656199999999998 23.125 4.7305 78
3.9726999999999997 6.675800000000001 -1.3622999999999998 240
4.4922 7.5547 -1.334 139
31.1875 52.4062 2.1289 225
5.144500000000001 8.6484 -1.2891 207
16.2031 27.2188 1.8408000000000002 234
6.0390999999999995 10.1484 -1.2373 107
7.328099999999999 12.3203 -1.167 168
13.9219 23.3906 2.8574 187
9.5547 16.0625 -1.085 141
14.335899999999999 24.0938 3.6016000000000004 143
14.289100000000001 24.0156 -0.9741 115
13.9922 23.5156 4.1641 215
16.2344 27.2969 -0.37060000000000004 194
13.7578 23.125 4.7383 239
4.0 6.671900000000001 -1.3643 44
18.5312 30.9062 0.4207 49
4.5234 7.5390999999999995 -1.334 112
5.1836 8.6484 -1.291 51
16.3438 27.25 1.8457 194
6.078099999999999 10.1406 -1.2383 174
7.3828 12.3125 -1.1689 180
14.031199999999998 23.3906 2.8632999999999997 110
9.6094 16.0156 -1.084 57
13.976600000000001 23.2969 3.4901999999999997 161
14.226600000000001 23.7344 -0.9643999999999999 25
14.0625 23.4531 4.1641 251
14.125 23.5469 -0.32030000000000003 37
15.156199999999998 25.2656 5.1875 207
4.0234 6.6602 -1.3652000000000002 231
4.543 7.5234000000000005 -1.334 182
5.2109000000000005 8.6328 -1.291 32
16.4531 27.2344 1.8486000000000002 114
6.1211 10.1328 -1.2393 85
7.421900000000001 12.289100000000001 -1.1689 203
14.101600000000001 23.3438 2.8613 63
9.6797 16.0312 -1.0869 49
14.125 23.3906 3.5098000000000003 47
14.2969 23.6719 -0.9639 11
14.0781 23.3125 4.1445 121
14.210899999999999 23.5312 -0.3206 239
15.3125 25.3438 5.2148 177
4.0469 6.6484000000000005 -1.3652000000000002 202
14.3203 23.5469 0.32130000000000003 156
4.5781 7.519500000000001 -1.3359 216
16.5625 27.2344 1.1113 10
5.234400000000001 8.6016 -1.29 178
16.5781 27.2344 1.8525 117
6.1640999999999995 10.1328 -1.2422 147
7.4727 12.281199999999998 -1.1709 248
14.1875 23.3125 2.8651999999999997 120
9.7188 15.976600000000001 -1.0859 124
14.2344 23.3906 3.5156 120
14.468800000000002 23.7812 -0.9702 81
14.148399999999999 23.2656 4.1445 2
14.2969 23.5 -0.3208 205
14.2344 23.3906 4.8203 179
4.0703 6.6328 -1.3652000000000002 241
14.3906 23.4531 0.321 114
4.6133 7.519500000000001 -1.3388999999999998 18
16.7031 27.2188 1.1133 72
5.2812 8.6094 -1.2938999999999998 139
16.7031 27.2188 1.8555000000000001 102
6.199199999999999 10.1016 -1.2412 172
7.5273 12.273399999999999 -1.1719 23
9.7891 15.960899999999999 -1.0869 166
14.0469 22.8906 3.4492000000000003 205
14.5156 23.6562 -0.9678 239
14.3125 23.3281 4.168 68
14.4297 23.5156 -0.3218 254
14.2969 23.2969 4.8125 127
4.0938 6.6211 -1.3652000000000002 8
14.4844 23.4219 0.32130000000000003 36
4.6328 7.4922 -1.3369 211
5.3164 8.6016 -1.2949000000000002 12
6.2265999999999995 10.0703 -1.2402 5
7.582000000000001 12.2578 -1.1738 105
23.2344 37.5938 4.6406 249
9.8516 15.9297 -1.0869 201
14.1875 22.9375 3.4648000000000003 105
14.414100000000001 23.3125 4.1719 246
14.4844 23.4375 4.8516 100
4.1289 6.6211 -1.3681999999999999 133
4.6562 7.4727 -1.3359 13
5.3477 8.5781 -1.2938999999999998 16
6.2773 10.0703 -1.2422 105
7.636699999999999 12.25 -1.1758 225
15.25 24.4688 3.0254000000000003 243
9.8984 15.875 -1.0859 35
14.281199999999998 22.9062 3.4668 182
14.101600000000001 22.6094 4.0586 227
17.0 27.2812 -0.375 85
13.8906 22.2812 4.625 62
4.1523 6.609400000000001 -1.3691 177
4.6992 7.480499999999999 -1.3408000000000002 193
5.386699999999999 8.5781 -1.2978999999999998 140
6.328099999999999 10.0781 -1.2461 73
7.6953 12.25 -1.1777 183
15.2344 24.25 3.0058999999999996 139
9.9531 15.843800000000002 -1.0859 161
14.3203 22.7969 3.457 107
14.523399999999999 23.125 4.1562 85
17.1406 27.2812 -0.3757 121
13.960899999999999 22.2188 4.6211 55
4.1758 6.5977 -1.3691 158
4.7344 7.484400000000001 -1.3437999999999999 99
5.4102 8.5547 -1.2959 192
17.2656 27.2969 1.8769999999999998 1
6.3672 10.0625 -1.2470999999999999 66
7.734400000000001 12.226600000000001 -1.1777 35
15.289100000000001 24.1719 3.002 206
10.0156 15.835899999999999 -1.0879 172
14.3828 22.7344 3.4551 11
13.9297 22.0156 3.9648000000000003 20
17.2344 27.25 -0.3762 241
13.8672 21.9219 4.5664 101
4.1953 6.5859000000000005 -1.3691 170
4.7539 7.4609000000000005 -1.3428 59
17.4062 27.3281 1.1299 184
5.457000000000001 8.5625 -1.3008000000000002 40
17.3594 27.25 1.8769999999999998 168
6.3984000000000005 10.0391 -1.2470999999999999 85
7.792999999999999 12.226600000000001 -1.1806999999999999 84
15.273399999999999 23.9688 2.9824 126
10.0547 15.781199999999998 -1.0859 224
14.4844 22.7188 3.4608999999999996 123
16.1562 25.3438 -1.0479 225
14.0 21.9688 3.9648000000000003 234
17.375 27.2656 -0.3772 191
13.8828 21.7812 4.5469 88
4.2305 6.582000000000001 -1.3721 245
4.7773 7.4375 -1.3418 52
17.4688 27.1875 1.127 250
5.484400000000001 8.5391 -1.2997999999999998 251
17.4688 27.2031 1.8779 104
6.4414 10.0234 -1.248 236
7.8477 12.210899999999999 -1.1816 180
15.3906 23.9531 2.9882999999999997 231
10.1172 15.75 -1.0869 112
14.7969 23.0312 3.5156 255
16.2812 25.3438 -1.0498 18
14.0703 21.9062 3.9629000000000003 133
17.5156 27.2656 -0.3782 19
14.023399999999999 21.8281 4.5664 95
4.2578 6.574199999999999 -1.374 7
4.8047 7.417999999999999 -1.3408000000000002 108
32.9375 50.875 2.1133 250
5.519500000000001 8.5234 -1.3008000000000002 222
6.484400000000001 10.0156 -1.249 11
7.890599999999999 12.1875 -1.1816 219
15.1172 23.3594 2.9199 201
10.2031 15.7578 -1.0898 46
16.9531 26.1719 4.0078 121
14.148399999999999 21.8594 3.9648000000000003 13
17.6406 27.25 -0.3789 194
14.2578 22.0156 4.6172 74
4.2773 6.5547 -1.3721 194
4.8398 7.421900000000001 -1.3447 232
33.1562 50.8125 2.1172 15
5.542999999999999 8.5 -1.2997999999999998 229
33.5938 51.5 3.5762 236
6.5312 10.0156 -1.252 167
7.9375 12.164100000000001 -1.1826 79
15.164100000000001 23.2344 2.9120999999999997 107
10.2422 15.7031 -1.0879 143
17.0312 26.1094 4.0039 196
14.625 22.4062 4.0742 207
17.7969 27.2656 -0.3799 223
14.1875 21.7344 4.5703 249
4.3047 6.546900000000001 -1.374 79
4.8672 7.4062 -1.3447 181
33.3438 50.75 2.1191 166
5.5859000000000005 8.5 -1.3027000000000002 131
33.8125 51.4688 3.5801 221
6.578099999999999 10.0078 -1.2539 146
7.9922 12.156199999999998 -1.1845999999999999 112
15.1797 23.0938 2.8983999999999996 161
10.335899999999999 15.718800000000002 -1.0918 42
15.593800000000002 23.7188 3.6464999999999996 38
14.75 22.4375 4.0898 165
15.710899999999999 23.8906 -0.3335 65
14.1094 21.4688 4.5195 109
4.3203 6.5234000000000005 -1.3721 66
4.9023 7.4023 -1.3477000000000001 180
33.5938 50.7188 2.123 88
5.6211 8.4844 -1.3037 166
6.6172 9.9922 -1.2549 227
8.0625 12.1719 -1.1895 141
15.2344 23.0 2.8945 135
10.3672 15.648399999999999 -1.0898 19
15.7656 23.7969 3.668 243
14.398399999999999 21.7344 3.9688 86
15.773399999999999 23.8125 -0.33299999999999996 75
14.1406 21.3438 4.5078 187
4.3516 6.519500000000001 -1.375 120
18.1719 27.2344 0.3821 217
4.9258 7.3789 -1.3466999999999998 35
18.1719 27.2188 1.1406 191
5.6523 8.4688 -1.3047 159
18.1562 27.2031 1.9003999999999999 23
6.6523 9.9688 -1.2549 105
8.1094 12.156199999999998 -1.1895 64
15.2656 22.875 2.8848000000000003 30
10.4297 15.625 -1.0898 227
14.523399999999999 21.7656 3.3613 102
15.789100000000001 23.6562 -0.9917 180
14.4375 21.625 3.9589999999999996 167
15.7422 23.5781 -0.3306 225
14.3828 21.5469 4.5586 241
4.3789 6.511699999999999 -1.376 109
18.2969 27.2031 0.3826 164
4.957 7.3672 -1.3477000000000001 241
18.25 27.125 1.1396 196
5.699199999999999 8.4766 -1.3075999999999999 3
18.2656 27.1562 1.9013999999999998 27
6.703099999999999 9.9609 -1.2568000000000001 185
8.1562 12.125 -1.1904000000000001 53
15.375 22.8594 2.8906 56
10.4922 15.593800000000002 -1.0908 107
14.585899999999999 21.6719 3.3555 207
15.8672 23.5781 -0.9906999999999999 113
14.4844 21.5312 3.9492000000000003 132
15.8203 23.5156 -0.3306 207
14.5703 21.6562 4.5938 120
4.4023 6.4961 -1.3769999999999998 124
4.9766 7.3438 -1.3466999999999998 220
18.4062 27.1562 1.1436 115
5.7265999999999995 8.4531 -1.3075999999999999 2
18.3906 27.125 1.9043 202
6.75 9.9609 -1.2598 169
8.1953 12.093800000000002 -1.1895 182
15.5078 22.875 2.9004000000000003 181
10.585899999999999 15.6172 -1.0947 166
14.6172 21.5625 3.3457 223
15.960899999999999 23.5469 -0.9917 231
14.5781 21.5 3.9551 161
15.898399999999999 23.4531 -0.3306 146
14.8281 21.875 4.6523 205
4.4219 6.4765999999999995 -1.376 99
5.0156 7.3438 -1.3496000000000001 23
18.5625 27.1875 1.1484 99
5.7539 8.4219 -1.3066 82
18.5312 27.1406 1.9102000000000001 87
6.796900000000001 9.9531 -1.2617 254
8.25 12.085899999999999 -1.1914 190
15.6328 22.8906 2.9082 45
10.6172 15.5469 -1.0928 231
14.773399999999999 21.625 3.3632999999999997 65
15.1328 22.1562 4.0859 53
14.835899999999999 21.7344 4.6328 61
4.4453 6.4648 -1.376 29
5.0508 7.3398 -1.3516 45
18.6719 27.1406 1.1494 248
5.7890999999999995 8.4141 -1.3075999999999999 132
18.6719 27.125 1.9131 144
6.824199999999999 9.9219 -1.2607 177
8.3125 12.085899999999999 -1.1943000000000001 185
15.8047 22.9688 2.9257999999999997 175
10.7031 15.5547 -1.0957 190
14.914100000000001 21.6719 3.3789 134
14.781199999999998 21.4844 3.9707 35
16.2188 23.5781 -0.3337 119
14.968800000000002 21.7656 4.6484 148
4.4727 6.457000000000001 -1.3779 137
5.0625 7.3125 -1.3496000000000001 193
5.824199999999999 8.4141 -1.3105000000000002 240
18.8125 27.1562 1.9188999999999998 87
6.8672 9.9141 -1.2627 28
8.3672 12.0781 -1.1963 115
15.8594 22.9062 2.9238 140
10.773399999999999 15.5469 -1.0977 195
17.4219 25.1562 3.9316000000000004 75
16.8281 24.2969 -1.0303 102
14.8125 21.3906 3.9608999999999996 1
19.0 27.4219 -0.3892 198
15.125 21.8438 4.6758 105
4.4961 6.4453 -1.3788999999999998 162
5.1055 7.3203 -1.3544999999999998 200
22.5156 32.2812 1.3730000000000002 142
5.859400000000001 8.3984 -1.3125 130
18.9844 27.2188 1.9277000000000002 76
6.9062 9.8984 -1.2637 244
8.4219 12.0703 -1.1982 112
15.9375 22.8438 2.9238 68
10.843800000000002 15.5469 -1.1006 27
17.5 25.0781 3.9276999999999997 180
16.7969 24.0938 -1.0234 254
14.875 21.3281 3.9589999999999996 66
19.125 27.4219 -0.3901 217
15.125 21.6719 4.6523 170
4.5273 6.4414 -1.3809 247
5.1328 7.300800000000001 -1.3544999999999998 167
22.5 32.0 1.3643 52
5.890599999999999 8.3828 -1.3125 117
19.0312 27.0625 1.9228999999999998 100
6.9453 9.8828 -1.2646 131
16.6094 23.625 2.3555 216
8.4531 12.023399999999999 -1.1963 13
10.9219 15.531199999999998 -1.1016 240
17.9844 25.5781 4.0156 61
16.8125 23.9219 -1.0195 138
14.9297 21.2344 3.9512 90
19.2656 27.4062 -0.3909 214
15.468800000000002 22.0 4.7344 99
4.5469 6.421900000000001 -1.3799000000000001 201
5.167999999999999 7.296900000000001 -1.3563999999999998 252
17.2656 24.3906 1.042 5
5.917999999999999 8.3594 -1.3115 122
19.125 26.9844 1.9219 185
7.0039 9.8906 -1.2686 191
16.6719 23.5469 2.3535 68
8.5234 12.039100000000001 -1.2012 235
10.968800000000002 15.4844 -1.1016 68
18.1094 25.5781 4.0273 154
16.8594 23.8125 -1.0176 41
15.4219 21.7656 4.0625 29
19.4219 27.4062 -0.3918 217
15.460899999999999 21.8281 4.707 181
4.5625 6.394500000000001 -1.3779 101
5.207000000000001 7.296900000000001 -1.3603999999999998 144
17.0625 23.9062 1.0234 19
5.957000000000001 8.3516 -1.3135 206
16.8594 23.6406 1.6865 123
7.042999999999999 9.875 -1.2705 105
16.7656 23.4844 2.3535 232
8.5781 12.023399999999999 -1.2021 194
18.25 25.5625 3.2969 162
11.0547 15.4922 -1.1045 102
18.1875 25.4844 4.0234 152
16.9219 23.7188 -1.0156 141
15.375 21.5469 4.0273 184
19.5625 27.4219 -0.3931 179
15.4219 21.6094 4.6758 167
4.5938 6.390599999999999 -1.3809 163
17.2812 24.0312 0.3452 31
5.230499999999999 7.2773 -1.3594 189
17.0156 23.6719 1.0166 134
6.0039 8.3516 -1.3174000000000001 77
16.9375 23.5469 1.6855000000000002 115
7.074199999999999 9.8359 -1.2686 150
17.6875 24.6094 2.4727 171
8.6328 12.0156 -1.2051 163
17.8594 24.8438 3.2108999999999996 207
11.1328 15.4922 -1.1074 167
16.9844 23.625 3.7382999999999997 12
17.0 23.6406 -1.0146 178
15.156199999999998 21.0938 3.9531 218
17.2812 24.0469 -0.3455 11
15.4922 21.5469 4.6719 84
4.6289 6.390599999999999 -1.3838 1
17.3125 23.9062 0.3442 230
5.2422 7.2422 -1.3563999999999998 220
17.125 23.6406 1.0176 113
6.0390999999999995 8.3438 -1.3193000000000001 58
17.0312 23.5312 1.6875 206
7.1172 9.8281 -1.2715 207
19.4688 26.8906 2.707 102
8.6875 11.9922 -1.2061 156
17.9062 24.7344 3.2051 105
11.1875 15.4453 -1.1064 129
15.8828 21.9219 3.4766000000000004 209
17.0625 23.5625 -1.0137 66
15.210899999999999 21.0 3.9492000000000003 192
17.3438 23.9531 -0.345 77
15.625 21.5781 4.6875 76
4.6523 6.375 -1.3838 247
17.4062 23.8594 0.34450000000000003 167
5.2812 7.238300000000001 -1.3594 59
19.8125 27.1562 1.1719 208
6.0664 8.3125 -1.3184 226
19.7656 27.1094 1.9491999999999998 72
7.167999999999999 9.8281 -1.2734 100
19.625 26.8906 2.7168 5
8.7266 11.960899999999999 -1.2061 152
18.0938 24.8125 3.2226999999999997 110
11.273399999999999 15.4531 -1.1104 32
15.960899999999999 21.8906 3.4785000000000004 187
17.1562 23.5156 -1.0146 65
15.289100000000001 20.9531 3.9492000000000003 27
17.4375 23.9062 -0.3452 95
15.7578 21.5938 4.707 186
4.6719 6.363300000000001 -1.3847999999999998 252
5.3164 7.238300000000001 -1.3633000000000002 247
19.9531 27.1562 1.1748 165
6.0938 8.2969 -1.3184 99
19.9062 27.1094 1.9541 68
7.2109000000000005 9.8203 -1.2754 4
8.7734 11.9453 -1.207 217
11.335899999999999 15.4375 -1.1113 211
16.0781 21.8906 3.4882999999999997 202
17.2656 23.5 -1.0166 84
15.3828 20.9375 3.9551 238
19.9688 27.1875 -0.3936 73
15.726600000000001 21.4062 4.6758 130
4.6992 6.355499999999999 -1.3866999999999998 156
5.3515999999999995 7.234400000000001 -1.3652000000000002 204
20.0625 27.1094 1.1758 32
6.1289 8.2812 -1.3203 158
20.0469 27.0938 1.9580000000000002 17
7.2461 9.7969 -1.2754 139
19.8906 26.9062 2.7305 114
8.8281 11.9375 -1.209 75
16.75 22.6406 2.9551 185
11.3906 15.398399999999999 -1.1123 110
16.1875 21.8906 3.4961 88
17.3594 23.4531 -1.0176 174
15.5625 21.0469 3.9844 241
20.125 27.2031 -0.3948 148
15.585899999999999 21.0625 4.6133 59
4.7266 6.3398 -1.3866999999999998 64
5.363300000000001 7.1953 -1.3622999999999998 9
20.2188 27.125 1.1797 10
6.171900000000001 8.2812 -1.3222999999999998 151
20.1875 27.0781 1.9628999999999999 238
7.300800000000001 9.7969 -1.2793 97
20.0312 26.8594 2.7344 13
8.8828 11.914100000000001 -1.21 48
16.7969 22.5312 2.9492000000000003 40
11.4219 15.3281 -1.1094 124
16.2344 21.7812 3.4901999999999997 170
17.4844 23.4688 -1.0205 97
15.8672 21.2812 4.043 39
20.2656 27.1875 -0.39549999999999996 134
15.648399999999999 21.0 4.6094 160
4.7617 6.3398 -1.3906 174
20.4688 27.2656 0.39770000000000005 183
5.4023 7.1953 -1.3652000000000002 173
20.4688 27.25 1.1885 145
6.199199999999999 8.2578 -1.3232 244
20.375 27.1406 1.9716999999999998 70
7.3359000000000005 9.7656 -1.2793 136
8.9453 11.914100000000001 -1.2129 130
16.8594 22.4531 2.9473000000000003 41
11.5078 15.3203 -1.1123 100
19.1094 25.4375 4.0859 53
17.6094 23.4531 -1.0225 127
15.843800000000002 21.0938 4.0156 245
20.4219 27.2031 -0.3967 183
15.7031 20.9219 4.6055 96
4.793 6.3359000000000005 -1.3936000000000002 194
20.6094 27.25 0.3987 143
5.4375 7.1875 -1.3672 184
20.6094 27.25 1.1914 131
6.2422 8.25 -1.3252000000000002 56
20.5156 27.125 1.9766 156
7.386699999999999 9.7656 -1.2822 147
9.0 11.898399999999999 -1.2148 148
16.5469 21.8906 2.8789 183
11.5703 15.2969 -1.1133 232
15.914100000000001 21.0469 3.3887 226
17.7969 23.5312 -1.0283 110
15.851600000000001 20.9688 4.0 145
20.5469 27.1562 -0.3975 220
15.789100000000001 20.875 4.6094 201
4.8125 6.3164 -1.3925999999999998 125
5.4688 7.1797 -1.3700999999999999 81
20.7344 27.2188 1.1934 92
6.269500000000001 8.2344 -1.3252000000000002 36
20.6562 27.1094 1.9805000000000001 8
7.425800000000001 9.75 -1.2832 218
20.4688 26.8594 2.7558999999999996 86
9.0547 11.8828 -1.2168 158
16.5 21.6562 2.8574 235
11.593800000000002 15.210899999999999 -1.1104 179
15.9297 20.9062 3.375 121
15.976600000000001 20.9688 4.0156 120
20.7031 27.1719 -0.3987 82
15.898399999999999 20.875 4.6211 167
4.8359 6.300800000000001 -1.3936000000000002 173
5.5 7.167999999999999 -1.3711000000000002 156
20.9219 27.2656 1.1982 26
6.3125 8.2266 -1.3281 16
20.7812 27.0938 1.9844 85
7.4688 9.7344 -1.2852000000000001 11
9.0938 11.851600000000001 -1.2168 175
16.5938 21.625 2.8594 166
11.6719 15.210899999999999 -1.1133 239
16.0 20.8594 3.377 166
16.0 20.8594 4.0039 22
20.8438 27.1562 -0.3994 181
16.1562 21.0625 4.6719 67
4.8633 6.292999999999999 -1.3955000000000002 229
21.0938 27.2969 0.4023 123
5.5273 7.1523 -1.3721 136
21.0469 27.2344 1.2002 21
6.3477 8.2109 -1.3291 230
20.9531 27.1094 1.9912 91
7.5 9.7031 -1.2841999999999998 68
9.1641 11.851600000000001 -1.2197 166
16.6875 21.5938 2.8632999999999997 60
11.7344 15.1797 -1.1143 12
16.0625 20.7969 3.375 60
16.1094 20.8438 4.0117 50
21.0 27.1562 -0.4006 7
16.2188 20.9688 4.668 156
4.8945 6.2890999999999995 -1.3975 115
21.1875 27.2188 0.4023 156
5.5586 7.140599999999999 -1.374 159
21.1875 27.2188 1.2031 105
6.386699999999999 8.2031 -1.3319999999999999 8
21.0938 27.1094 1.9961000000000002 40
7.542999999999999 9.6875 -1.2861000000000002 206
20.875 26.8125 2.7714999999999996 234
9.1953 11.8125 -1.2187999999999999 115
16.8125 21.5938 2.8711 98
11.8125 15.1719 -1.1162 51
16.2344 20.8438 3.3926 100
18.3594 23.5938 -1.042 49
16.3906 21.0469 4.0625 30
16.2344 20.8594 4.6523 103
4.9258 6.2852 -1.4003999999999999 253
21.4062 27.2969 0.4048 221
5.5938 7.136699999999999 -1.376 66
21.3281 27.2031 1.2061 242
6.417999999999999 8.1797 -1.3319999999999999 203
21.2656 27.125 2.002 147
7.5938 9.6875 -1.2891 192
19.4062 24.7344 2.5645 54
9.25 11.7969 -1.2207 132
17.2969 22.0469 2.9395 162
11.875 15.1406 -1.1172 132
16.7656 21.3906 3.4901999999999997 134
16.5 21.0469 4.0703 147
18.4062 23.4844 -0.3481 126
16.2969 20.7812 4.6484 211
4.9492 6.269500000000001 -1.4013999999999998 72
21.4844 27.2344 0.4048 122
5.6289 7.1289 -1.3788999999999998 173
21.4844 27.2344 1.209 123
6.4453 8.1719 -1.3330000000000002 233
21.375 27.0938 2.0059 130
7.640599999999999 9.6797 -1.2919999999999998 234
19.4844 24.6875 2.5645 20
9.3047 11.789100000000001 -1.2227 230
17.3438 21.9844 2.9395 53
11.9297 15.1172 -1.1172 234
16.8594 21.3594 3.4941000000000004 155
16.5469 20.9688 4.0664 114
16.3438 20.7031 4.6445 144
4.9688 6.2539 -1.4013999999999998 113
21.6719 27.2812 0.4065 15
5.6562 7.1211 -1.3799000000000001 59
21.625 27.2188 1.2129 88
6.480499999999999 8.1562 -1.335 6
21.5 27.0625 2.0078 79
7.6797 9.6641 -1.2930000000000001 130
19.5156 24.5625 2.5586 92
9.3594 11.781199999999998 -1.2256 67
17.4531 21.9688 2.9452999999999996 204
12.0 15.101600000000001 -1.1201 3
16.9062 21.2656 3.4901999999999997 81
20.5 25.7969 -1.1484 35
16.6562 20.9531 4.0742 41
16.3906 20.625 4.6406 53
4.9961 6.2422 -1.4022999999999999 153
21.8281 27.25 0.4075 111
5.6875 7.1015999999999995 -1.3809 167
21.7969 27.2344 1.2168 193
6.5273 8.1562 -1.3378999999999999 108
21.6719 27.0625 2.0137 245
7.730499999999999 9.6562 -1.2959 124
9.3984 11.7422 -1.2246 149
17.5625 21.9375 2.9492000000000003 212
12.085899999999999 15.093800000000002 -1.1220999999999999 50
17.0156 21.2656 3.498 29
17.25 21.5469 4.2031 81
21.75 27.1719 -0.406 240
16.4688 20.5781 4.6406 50
5.0273 6.234400000000001 -1.4043 186
21.9688 27.25 0.40840000000000004 247
5.7148 7.0859000000000005 -1.3818000000000001 212
21.9531 27.2188 1.2187999999999999 212
6.5703 8.1484 -1.3408000000000002 213
21.7969 27.0469 2.0176 218
7.761699999999999 9.625 -1.2949000000000002 48
9.4609 11.7344 -1.2275 89
17.625 21.8594 2.9473000000000003 93
12.1953 15.125 -1.1279000000000001 100
17.1094 21.2188 3.5 82
17.4062 21.5938 4.2227 105
21.875 27.125 -0.4067 232
18.1875 22.5625 5.1016 191
5.0586 6.230499999999999 -1.4072 98
22.1406 27.2656 0.40990000000000004 138
5.75 7.082000000000001 -1.3847999999999998 175
22.0938 27.2031 1.2227 195
6.6015999999999995 8.125 -1.3408000000000002 166
21.9531 27.0312 2.0234 154
7.8164 9.625 -1.2988 179
9.5156 11.718800000000002 -1.2295 99
17.7031 21.8125 2.9473000000000003 227
12.2422 15.0781 -1.127 211
17.2031 21.1719 3.5039 131
17.5156 21.5781 4.2305 145
22.0312 27.125 -0.4077 126
18.5781 22.875 5.1914 124
5.0781 6.207000000000001 -1.4072 49
5.7852 7.074199999999999 -1.3866999999999998 12
22.1719 27.1094 1.2207 49
6.636699999999999 8.1172 -1.3428 142
22.0938 27.0156 2.0273 66
7.8672 9.6172 -1.3018 239
9.5547 11.6875 -1.2295 123
17.7344 21.6875 2.9414 212
12.2578 14.9922 -1.124 88
17.3906 21.2656 3.5273000000000003 145
17.5 21.4062 4.2109 114
22.1719 27.1094 -0.40869999999999995 149
18.7188 22.8906 5.207000000000001 145
5.1016 6.1953 -1.4082 103
5.8125 7.0547 -1.3877000000000002 154
22.2656 27.0312 1.2207 182
6.667999999999999 8.0938 -1.3437999999999999 183
22.25 27.0156 2.0332 65
7.9102 9.6016 -1.3027000000000002 94
9.6172 11.6719 -1.2314 102
17.8594 21.6875 2.9473000000000003 65
12.2969 14.9297 -1.1220999999999999 149
17.4375 21.1562 3.5214999999999996 101
21.3906 25.9688 -1.1729 46
17.6094 21.375 4.2148 208
22.3281 27.0938 -0.4097 240
18.8125 22.8281 5.207000000000001 3
5.1289 6.1797 -1.4082 14
5.8359000000000005 7.0312 -1.3866999999999998 192
22.4375 27.0469 1.2256 197
6.7188 8.1016 -1.3486000000000002 226
22.4219 27.0156 2.0391 167
7.953099999999999 9.5859 -1.3047 19
9.6484 11.625 -1.2305 127
17.9062 21.5781 2.9433999999999996 244
12.335899999999999 14.8672 -1.1211 155
17.5938 21.2031 3.5391000000000004 242
21.4844 25.8906 -1.1729 114
17.6562 21.2812 4.2109 82
22.5 27.1094 -0.4111 162
20.4219 24.625 5.6328 223
5.1602 6.1797 -1.4121000000000001 158
5.863300000000001 7.019500000000001 -1.3877000000000002 132
22.5938 27.0469 1.2285 232
6.761699999999999 8.0938 -1.3506 222
22.5625 27.0156 2.0449 120
7.9961 9.5703 -1.3066 74
22.3906 26.8125 2.8495999999999997 113
9.7266 11.6406 -1.2354 187
18.7188 22.4219 3.0664 92
12.3828 14.8281 -1.1211 152
17.9219 21.4688 3.5918 217
21.5625 25.8125 -1.1729 34
17.75 21.25 4.2148 123
22.6562 27.125 -0.41240000000000004 122
5.1875 6.167999999999999 -1.4131 72
5.894500000000001 7.0078 -1.3896000000000002 164
22.7188 27.0156 1.2305 194
6.7812 8.0625 -1.3496000000000001 124
22.7344 27.0312 2.0527 119
8.0469 9.5703 -1.3096 254
20.4688 24.3281 2.5938 69
9.75 11.593800000000002 -1.2334 41
18.625 22.1406 3.0370999999999997 167
12.4219 14.773399999999999 -1.1201 10
18.1719 21.625 3.6289 202
18.2188 21.6719 4.3125 206
5.2148 6.1562 -1.415 224
5.9375 7.0078 -1.3944999999999999 149
22.9219 27.0625 1.2373 249
6.8203 8.0547 -1.3516 185
22.875 27.0 2.0566 206
8.0938 9.5547 -1.3115 167
20.4688 24.1562 2.5839999999999996 131
9.7969 11.5625 -1.2344 227
18.4688 21.8125 3.0 34
12.468800000000002 14.718800000000002 -1.1201 219
18.4531 21.7812 3.6660000000000004 249
18.3594 21.6719 4.3242 193
5.234400000000001 6.136699999999999 -1.415 235
5.9727 7.0 -1.3965 26
23.0469 27.0156 1.2383 146
6.8672 8.0469 -1.3555000000000001 88
23.0312 27.0 2.0625 40
8.1328 9.5312 -1.3125 222
19.0312 22.2969 2.3906 105
9.8672 11.5625 -1.2373 212
18.5312 21.7188 2.9961 182
12.523399999999999 14.6797 -1.1201 151
19.5156 22.875 3.8632999999999997 106
18.4375 21.6094 4.3242 26
5.2578 6.1211 -1.415 232
6.0039 6.988300000000001 -1.3984 81
23.0469 26.8125 1.2324 114
6.921900000000001 8.0547 -1.3603999999999998 37
23.1719 26.9844 2.0664 134
8.1719 9.5078 -1.3135 251
19.1406 22.2656 2.3945 248
9.9219 11.5469 -1.2393 6
19.7656 23.0156 3.1836 238
12.656199999999998 14.7344 -1.127 208
19.9688 23.2344 3.9355 139
22.25 25.8906 -1.1904000000000001 181
18.7344 21.7969 4.3789 25
5.2890999999999995 6.113300000000001 -1.4180000000000001 218
6.019500000000001 6.957000000000001 -1.3965 81
23.1719 26.7812 1.2354 213
6.953099999999999 8.0391 -1.3613 116
23.3594 27.0 2.0742 91
8.2188 9.5 -1.3163999999999998 90
19.1719 22.1562 2.3887 245
9.9531 11.5078 -1.2393 170
19.9375 23.0312 3.1973000000000003 223
12.75 14.7344 -1.1309 186
20.3281 23.5 3.9901999999999997 144
18.7656 21.6875 4.3672 149
20.6719 23.8906 5.5625 85
5.324199999999999 6.109400000000001 -1.4219 152
6.0625 6.957000000000001 -1.4003999999999999 122
23.3125 26.7656 1.2373 41
6.988300000000001 8.0156 -1.3622999999999998 239
23.5156 26.9844 2.0801 147
8.2578 9.4766 -1.3163999999999998 15
19.2656 22.0938 2.3906 199
10.0078 11.4844 -1.2402 54
19.3906 22.25 3.0957 199
12.8125 14.7031 -1.1318000000000001 160
18.6094 21.3438 3.6367000000000003 124
18.8594 21.6406 4.3711 216
23.6406 27.125 -0.4199 78
20.8281 23.9062 5.5859000000000005 180
5.3438 6.0859000000000005 -1.4209 29
23.7656 27.0781 0.4204 60
6.0977 6.949199999999999 -1.4033000000000002 83
23.6094 26.9062 1.248 125
7.019500000000001 8.0 -1.3633000000000002 101
23.6875 26.9844 2.0859 22
8.3047 9.4609 -1.3193000000000001 131
19.4531 22.1562 2.4043 52
10.0781 11.4844 -1.2441 161
19.3906 22.0938 3.0858999999999996 213
12.8828 14.6797 -1.1338 82
18.7031 21.3125 3.6406 121
19.6406 22.3906 -1.0381 115
18.9531 21.5938 4.375 167
23.7656 27.0781 -0.4204 61
5.3672 6.074199999999999 -1.4219 137
23.9062 27.0469 0.4211 65
6.1289 6.9336 -1.4043 4
23.8438 26.9844 1.2559 132
7.0664 7.9922 -1.3672 54
23.8281 26.9531 2.0898 69
8.3516 9.4453 -1.3203 151
19.5312 22.0938 2.4043 16
10.1328 11.460899999999999 -1.2461 54
19.375 21.9219 3.0702999999999996 92
12.9375 14.6328 -1.1338 83
19.0469 21.5469 3.6933999999999996 109
19.8906 22.5156 -1.0479 169
23.9219 27.0781 -0.4216 151
5.3984000000000005 6.0664 -1.4247999999999998 195
24.0625 27.0312 0.4224 103
6.1602 6.921900000000001 -1.4062000000000001 200
24.0312 27.0 1.2598 27
7.109400000000001 7.988300000000001 -1.3700999999999999 139
24.0156 26.9844 2.0996 79
8.3828 9.4219 -1.3213 212
19.5469 21.9688 2.3984 240
10.1797 11.4375 -1.2470999999999999 169
19.4062 21.7969 3.0625 120
13.0 14.601600000000001 -1.1348 23
19.1719 21.5469 3.7051 139
19.7656 22.2031 -1.0361 216
24.1094 27.0781 -0.42310000000000003 61
5.4336 6.0625 -1.4277000000000002 156
6.171900000000001 6.886699999999999 -1.4043 218
24.1562 26.9688 1.2627 230
7.144500000000001 7.9727 -1.3711000000000002 127
24.1719 26.9688 2.1055 247
8.4453 9.4219 -1.3252000000000002 100
19.625 21.9062 2.3984 212
10.2344 11.4219 -1.249 196
13.023399999999999 14.539100000000001 -1.1328 142
19.75 22.0312 -1.0312000000000001 154
24.4062 27.25 -0.42700000000000005 41
5.4648 6.0586 -1.4316 22
24.5781 27.25 0.4282 176
6.203099999999999 6.875 -1.4053 128
24.4688 27.125 1.2734 138
7.1797 7.9609000000000005 -1.3730000000000002 226
24.3281 26.9688 2.1113 176
8.4844 9.4062 -1.3271000000000002 51
19.7031 21.8281 2.3984 43
10.289100000000001 11.406199999999998 -1.251 219
13.1172 14.5469 -1.1367 215
19.7344 21.875 -1.0273 24
24.5781 27.25 -0.4282 105
5.480499999999999 6.0352 -1.4297 241
24.75 27.2344 0.4294 100
6.238300000000001 6.8672 -1.4082 227
24.6719 27.1562 1.2793 243
7.2148 7.9414 -1.374 74
24.4844 26.9531 2.1152 85
8.5391 9.3906 -1.3291 187
19.8125 21.7969 2.4023 113
10.351600000000001 11.398399999999999 -1.2539 190
13.156199999999998 14.476600000000001 -1.1357 39
19.8125 21.8125 -1.0273 20
24.7656 27.2656 -0.4299 144
5.511699999999999 6.0234000000000005 -1.4325999999999999 166
24.9375 27.2656 0.43119999999999997 166
6.269500000000001 6.8515999999999995 -1.4102000000000001 140
24.875 27.1875 1.2852000000000001 74
7.261699999999999 7.9336 -1.3779 93
24.6719 26.9531 2.123 196
8.5703 9.3672 -1.3300999999999998 197
19.875 21.7188 2.4004 90
10.414100000000001 11.3828 -1.2559 226
13.25 14.4844 -1.1396 132
19.7969 21.6406 -1.0225 12
24.9375 27.25 -0.43119999999999997 11
5.542999999999999 6.015599999999999 -1.4346 234
25.0469 27.1875 0.4314 124
6.3086 6.8438 -1.4131 254
25.0156 27.1562 1.2871000000000001 13
7.300800000000001 7.921900000000001 -1.3799000000000001 118
24.8438 26.9531 2.1309 216
8.6016 9.3359 -1.3300999999999998 238
10.5078 11.398399999999999 -1.2627 146
13.3047 14.4375 -1.1396 241
19.7656 21.4531 -1.0166 181
25.0781 27.2188 -0.43189999999999995 112
5.578099999999999 6.011699999999999 -1.4385 202
25.2344 27.1875 0.4329 253
6.3203 6.8125 -1.4102000000000001 149
25.1562 27.1094 1.29 31
7.3438 7.9140999999999995 -1.3838 79
25.0156 26.9531 2.1367 245
8.6484 9.3203 -1.3319999999999999 184
10.5547 11.3672 -1.2637 197
13.343800000000002 14.3828 -1.1387 93
19.7188 21.25 -1.0107 136
21.8906 23.5938 -0.37549999999999994 195
5.605499999999999 5.9961 -1.4394999999999998 219
6.3672 6.8125 -1.415 146
7.3789 7.894500000000001 -1.3847999999999998 212
21.9531 23.5 1.8681999999999999 21
8.7109 9.3281 -1.3369 223
10.601600000000001 11.343800000000002 -1.2646 200
13.4297 14.3672 -1.1416 219
19.75 21.125 -1.0078 112
25.4219 27.2031 -0.4343 110
5.625 5.9765999999999995 -1.4404 49
25.5781 27.1875 0.4355 79
