# .PCD v0.7 - Point Cloud Data file format
VERSION 0.7
FIELDS x y z intensity
SIZE 4 4 4 4
TYPE F F F F
COUNT 1 1 1 1
WIDTH 1232
HEIGHT 1
VIEWPOINT 0 0 0 1 0 0 0
POINTS 1232
DATA ascii
-8.4062 -3.7577999999999996 1.1787 223
-11.8594 -5.300800000000001 1.9746000000000001 195
-8.1484 -3.6426 1.5654 185
-3.0254000000000003 -1.3397999999999999 -0.5761999999999999 123
-3.2598000000000003 -1.4434 0.0408 41
-3.0526999999999997 -1.3516 -0.5029 102
-13.5547 -6.0039 0.5161 245
-3.0879000000000003 -1.3672 -0.42869999999999997 158
-13.5625 -6.0039 0.8604 42
-13.5781 -6.011699999999999 1.209 74
-8.0938 -3.582 0.9253 197
-8.0781 -3.5762 1.1309 245
-11.906199999999998 -5.269500000000001 1.9785 0
-12.164100000000001 -5.386699999999999 2.3398 101
-3.0077999999999996 -1.3184 -0.5718 225
-3.2656 -1.4316 0.0408 79
-3.0547000000000004 -1.3397999999999999 -0.502 147
-13.5547 -5.9453 0.5151 66
-3.1094 -1.3643 -0.4314 47
-13.5625 -5.9453 0.8589 236
-13.5625 -5.9453 1.2061 163
-8.0469 -3.5293 0.9189 233
-8.0469 -3.5273000000000003 1.124 57
-11.898399999999999 -5.2188 1.9746000000000001 37
-12.156199999999998 -5.332000000000001 2.334 254
-3.0117000000000003 -1.3075999999999999 -0.5718 40
-3.2617000000000003 -1.416 0.0407 0
-3.0351999999999997 -1.3163999999999998 -0.4978 2
-13.5625 -5.886699999999999 0.5146000000000001 20
-3.1074 -1.3486000000000002 -0.4304 238
-13.5703 -5.890599999999999 0.8579000000000001 184
-13.625 -5.9140999999999995 1.209 238
-8.0312 -3.4863 0.9155 188
-8.0312 -3.4863 1.1211 211
-8.9531 -3.8867000000000003 1.4824000000000002 209
-12.1719 -5.2812 2.332 46
-3.0137 -1.2949000000000002 -0.5708 201
-3.2363 -1.3906 0.0403 55
-3.0312 -1.3027000000000002 -0.4966 54
-13.6172 -5.8515999999999995 0.5156000000000001 164
-3.1816000000000004 -1.3672 -0.4399 45
-13.648399999999999 -5.863300000000001 0.8613 205
-13.625 -5.855499999999999 1.208 68
-8.0547 -3.4608999999999996 0.917 220
-8.0312 -3.4512 1.1191 74
-11.906199999999998 -5.1172 1.9697 167
-8.7578 -3.7617000000000003 1.6728999999999998 237
-3.0214999999999996 -1.2861000000000002 -0.5718 246
-3.2382999999999997 -1.3788999999999998 0.0403 128
-3.0370999999999997 -1.2938999999999998 -0.4971 5
-13.648399999999999 -5.8125 0.5161 75
-3.1348000000000003 -1.335 -0.4329 188
-13.6719 -5.824199999999999 0.8618000000000001 18
-13.648399999999999 -5.8164 1.208 204
-8.0312 -3.4199 0.9126000000000001 29
-8.0391 -3.4257999999999997 1.1191 128
-8.8438 -3.7676 1.459 52
-12.1797 -5.1875 2.3262 191
-3.0156 -1.2725 -0.5698 136
-3.2539 -1.3730000000000002 0.0404 146
-3.0370999999999997 -1.2812000000000001 -0.4961 238
-13.648399999999999 -5.761699999999999 0.5156000000000001 76
-3.1211 -1.3174000000000001 -0.4304 135
-13.664100000000001 -5.765599999999999 0.8604 141
-13.664100000000001 -5.765599999999999 1.208 28
-12.3828 -5.2265999999999995 1.4082 135
-8.3047 -3.5039 1.1543 152
-11.8906 -5.0195 1.9619 110
-12.164100000000001 -5.1328 2.3203 243
-3.0058999999999996 -1.2559 -0.5669 151
-3.25 -1.3574000000000002 0.0403 159
-3.043 -1.2715 -0.4963 148
-13.664100000000001 -5.707000000000001 0.5156000000000001 126
-3.1035000000000004 -1.2969 -0.42719999999999997 97
-13.664100000000001 -5.707000000000001 0.8589 57
-13.664100000000001 -5.707000000000001 1.2061 130
-12.398399999999999 -5.1797 1.4082 45
-12.2344 -5.1094 1.7002000000000002 95
-11.8594 -4.9531 1.9541 62
-12.1719 -5.0859 2.3184 36
-3.0214999999999996 -1.25 -0.5693 3
-3.2324 -1.3369 0.04 58
-3.0273000000000003 -1.252 -0.4932 159
-13.6719 -5.6562 0.5151 108
-3.0839999999999996 -1.2754 -0.4236 86
-13.664100000000001 -5.6523 0.8573999999999999 98
-13.648399999999999 -5.644500000000001 1.2031 211
-12.414100000000001 -5.1328 1.4072 249
-8.3359 -3.4492000000000003 1.1553 206
-11.875 -4.9102 1.9531 173
-12.1172 -5.0117 2.3047 188
-3.0156 -1.2363 -0.5674 174
-3.2285000000000004 -1.3232 0.039900000000000005 0
-3.0233999999999996 -1.2393 -0.4919 104
-13.6719 -5.6015999999999995 0.5142 180
-3.125 -1.2803 -0.42869999999999997 234
-12.4453 -5.0977 1.0947 165
-12.3906 -5.0781 1.4033000000000002 181
-12.2344 -5.0117 1.6953 89
-8.7266 -3.5742000000000003 1.4306999999999999 49
-12.1406 -4.9727 2.3047 227
-3.0156 -1.2236 -0.5664 24
-3.2363 -1.3135 0.039900000000000005 63
-3.0293 -1.2295 -0.49219999999999997 196
-12.414100000000001 -5.0352 0.4658 223
-3.1172000000000004 -1.2656 -0.42719999999999997 17
-12.4219 -5.043 0.7773 139
-12.3906 -5.0312 1.0889 232
-12.3906 -5.0273 1.4013999999999998 10
-12.226600000000001 -4.9609 1.6913999999999998 59
-8.7422 -3.5488 1.4325999999999999 231
-12.1406 -4.9258 2.3027 165
-3.0077999999999996 -1.208 -0.5645 6
-3.2441000000000004 -1.3018 0.04 203
-3.0391000000000004 -1.2197 -0.4927 112
-12.4922 -5.0117 0.4683 76
-3.1327999999999996 -1.2578 -0.42869999999999997 87
-12.406199999999998 -4.9805 0.7754000000000001 166
-12.4219 -4.9844 1.0898 180
-12.375 -4.9688 1.3965 179
-12.226600000000001 -4.9102 1.6894999999999998 152
-8.7734 -3.5214999999999996 1.4355000000000002 14
-12.1172 -4.8633 2.2949 4
-3.0058999999999996 -1.1943000000000001 -0.563 167
-3.2422000000000004 -1.2881 0.039900000000000005 94
-3.0332 -1.2051 -0.49119999999999997 29
-3.4785000000000004 -1.3828 0.12890000000000001 69
-3.1016000000000004 -1.2324 -0.4236 151
-12.398399999999999 -4.9297 0.7739 77
-12.4531 -4.9492 1.0908 190
-12.3828 -4.918 1.3955000000000002 186
-12.218800000000002 -4.8555 1.6855000000000002 162
-8.9219 -3.5449 1.4569999999999999 96
-12.101600000000001 -4.8086 2.2891 25
-3.0077999999999996 -1.1836 -0.5625 178
-3.2226999999999997 -1.2686 0.039599999999999996 62
-3.0351999999999997 -1.1953 -0.491 108
-3.3906 -1.335 0.1255 46
-3.1055 -1.2227 -0.4236 245
-12.4297 -4.8945 0.7748999999999999 157
-12.468800000000002 -4.9102 1.0908 62
-12.3906 -4.875 1.3944999999999999 40
-12.2031 -4.8047 1.6816 6
-8.8984 -3.502 1.4512 239
-8.8672 -3.4922000000000004 1.6728999999999998 199
-3.0039 -1.1709 -0.561 83
-3.2422000000000004 -1.2637 0.0398 196
-3.0233999999999996 -1.1787 -0.48829999999999996 226
-3.3945 -1.3232 0.1255 204
-3.1523000000000003 -1.2295 -0.4299 8
-12.468800000000002 -4.8633 0.7764 1
-12.5 -4.875 1.0928 65
-12.3828 -4.8281 1.3925999999999998 216
-12.210899999999999 -4.7617 1.6806999999999999 206
-11.851600000000001 -4.6211 1.9336000000000002 227
-12.1094 -4.7227 2.2852 118
-3.0273000000000003 -1.167 -0.5645 132
-3.2558999999999996 -1.2559 0.039900000000000005 190
-3.0293 -1.168 -0.4885 177
-3.3651999999999997 -1.2978999999999998 0.1242 59
-3.1132999999999997 -1.2002 -0.4236 133
-12.5703 -4.8477 0.7812 49
-12.664100000000001 -4.8828 1.1055 14
-9.0391 -3.4863 1.0137 159
-12.2422 -4.7188 1.6816 210
-11.8203 -4.5586 1.9258000000000002 37
-12.1172 -4.6719 2.2832 104
-3.0039 -1.1465 -0.5596 211
-3.2461 -1.2383 0.0397 213
-3.0351999999999997 -1.1582 -0.4888 167
-3.3964999999999996 -1.2969 0.1251 142
-3.1387 -1.1982 -0.4268 18
-13.531199999999998 -5.1640999999999995 0.8398 106
-13.539100000000001 -5.167999999999999 1.1806999999999999 46
-8.9844 -3.4297000000000004 1.0059 229
-8.8828 -3.3926 1.2178 251
-11.8281 -4.5156 1.9238 57
-12.085899999999999 -4.6133 2.2734 177
-3.0058999999999996 -1.1348 -0.5590999999999999 166
-3.2461 -1.2256 0.0397 73
-3.0391000000000004 -1.1475 -0.4888 27
-3.3983999999999996 -1.2822 0.125 153
-3.1211 -1.1787 -0.4236 61
-13.523399999999999 -5.1055 0.8384 155
-13.5469 -5.1133 1.1787 27
-8.9922 -3.3945 1.0059 145
-8.8906 -3.3555 1.2168 228
-11.8672 -4.4805 1.9277000000000002 235
-10.0078 -3.7793 1.8799000000000001 208
-2.998 -1.1201 -0.5571 232
-3.2226999999999997 -1.2031 0.0393 202
-3.0312 -1.1328 -0.48710000000000003 241
-3.3789 -1.2627 0.1242 83
-3.0995999999999997 -1.1572 -0.4202 251
-13.539100000000001 -5.0547 0.8379000000000001 158
-13.523399999999999 -5.0508 1.1758 145
-8.9766 -3.3535000000000004 1.0029000000000001 211
-8.875 -3.3164 1.2139 191
-8.8594 -3.3105 1.4365 231
-12.101600000000001 -4.5195 2.2695 236
-3.0058999999999996 -1.1113 -0.5576 230
-3.2401999999999997 -1.1973 0.0395 93
-3.0254000000000003 -1.1181999999999999 -0.4851 90
-3.3574 -1.2412 0.1232 195
-3.1289 -1.1572 -0.4236 138
-13.539100000000001 -5.0039 0.8369 138
-13.539100000000001 -5.0039 1.1748 202
-9.0 -3.3281 1.0039 164
-12.031199999999998 -4.4492 1.6444999999999999 162
-8.8438 -3.2695 1.4316 145
-9.9688 -3.6855 1.8662 135
-3.002 -1.0986 -0.5562 33
-3.25 -1.1895 0.039599999999999996 63
-3.0254000000000003 -1.1064 -0.48460000000000003 223
-3.3651999999999997 -1.2314 0.1234 74
-3.1699 -1.1602 -0.42869999999999997 254
-13.531199999999998 -4.9531 0.8354 154
-13.5156 -4.9453 1.1719 251
-9.0 -3.2949 1.0029000000000001 24
-12.0625 -4.4141 1.6475 45
-8.875 -3.2461 1.4336000000000002 103
-12.093800000000002 -4.4258 2.2637 91
-3.0058999999999996 -1.0869 -0.5562 198
-3.252 -1.1758 0.039599999999999996 128
-3.0391000000000004 -1.0986 -0.4861 42
-3.3516000000000004 -1.2119 0.12269999999999999 186
-3.1367000000000003 -1.1348 -0.4236 140
-13.523399999999999 -4.8906 0.8340000000000001 62
-13.531199999999998 -4.8945 1.1719 202
-9.0 -3.2539 1.001 153
-12.1797 -4.4062 1.6611000000000002 217
-11.843800000000002 -4.2812 1.9141 224
-8.8672 -3.2051 1.6543 222
-2.9922000000000004 -1.0703 -0.5527000000000001 55
-3.2188 -1.1514 0.0391 204
-3.0410000000000004 -1.0879 -0.4861 217
-3.3867000000000003 -1.2109 0.12380000000000001 129
-3.1151999999999997 -1.1143 -0.4202 102
-13.5156 -4.832 0.8325 134
-13.5469 -4.8438 1.1709 82
-9.0391 -3.2324 1.0049 19
-12.210899999999999 -4.3672 1.6621000000000001 189
-11.843800000000002 -4.2383 1.9121000000000001 128
-8.0312 -2.8711 1.4961000000000002 158
-2.9844 -1.0556999999999999 -0.5508 254
-3.2558999999999996 -1.1523 0.0395 106
-3.0312 -1.0723 -0.4836 27
-3.3632999999999997 -1.1904000000000001 0.12279999999999999 83
-3.1445 -1.1133 -0.4236 45
-13.5156 -4.7852 0.8315 57
-13.5078 -4.7812 1.167 17
-9.0547 -3.2051 1.0049 175
-12.1953 -4.3164 1.6591999999999998 51
-11.8203 -4.1836 1.9062000000000001 121
-8.0234 -2.8418 1.4941 253
-2.9941000000000004 -1.0488 -0.5522 161
-3.2754000000000003 -1.1465 0.0397 36
-3.0214999999999996 -1.0576 -0.4817 61
-3.3711 -1.1806999999999999 0.1229 161
-3.0995999999999997 -1.0859 -0.41700000000000004 73
-13.523399999999999 -4.7344 0.8311 115
-13.5156 -4.7344 1.166 168
-12.375 -4.332 1.3730000000000002 253
-12.1953 -4.2695 1.6562000000000001 64
-11.8203 -4.1406 1.9033000000000002 83
-8.0547 -2.8223000000000003 1.4980000000000002 133
-3.002 -1.0391 -0.5527000000000001 184
-3.3281 -1.1514 0.0403 0
-3.0293 -1.0479 -0.48219999999999996 138
-3.3672000000000004 -1.166 0.12269999999999999 24
-3.1035000000000004 -1.0742 -0.41700000000000004 90
-13.531199999999998 -4.6836 0.8301000000000001 57
-13.5547 -4.6914 1.168 2
-12.3594 -4.2773 1.3700999999999999 125
-9.3203 -3.2266000000000004 1.2637 159
-11.8125 -4.0859 1.8994 88
-8.9219 -3.0879000000000003 1.6572 14
-2.9805 -1.0195 -0.5478999999999999 222
-3.0293 -1.0361 -0.4817 27
-3.3613 -1.1504 0.1223 198
-3.1562 -1.0801 -0.4236 164
-13.5703 -4.6445 0.8320000000000001 229
-9.1094 -3.1172000000000004 0.7827 7
-12.414100000000001 -4.25 1.375 58
-9.3359 -3.1952999999999996 1.2637 87
-8.5234 -2.918 1.3672 155
-12.101600000000001 -4.1406 2.248 7
-2.9726999999999997 -1.0049 -0.5459 18
-3.0391000000000004 -1.0273 -0.4829 236
-3.3827999999999996 -1.1436 0.1229 32
-3.1601999999999997 -1.0684 -0.4236 222
-13.718800000000002 -4.6406 0.8398 110
-9.1172 -3.082 0.7822 21
-9.2266 -3.1191000000000004 1.0186 73
-12.1953 -4.1211 1.6503999999999999 186
-8.0781 -2.7305 1.2938999999999998 43
-8.0625 -2.7266000000000004 1.4931999999999999 62
-2.9805 -0.9956 -0.5464 166
-3.0214999999999996 -1.0098 -0.4792 34
-3.3848000000000003 -1.1309 0.12279999999999999 79
-3.1348000000000003 -1.0479 -0.41969999999999996 150
-14.085899999999999 -4.707 0.8618000000000001 164
-9.1016 -3.0410000000000004 0.7803 120
-9.2344 -3.0858999999999996 1.0186 160
-12.1797 -4.0703 1.6465 243
-8.0703 -2.6973000000000003 1.291 46
-8.1016 -2.707 1.499 93
-2.9901999999999997 -0.9878 -0.5478999999999999 141
-3.0254000000000003 -0.9990000000000001 -0.4792 31
-3.3418 -1.1045 0.1211 82
-3.168 -1.0469 -0.4236 228
-14.2656 -4.7148 0.8715999999999999 135
-9.1094 -3.0077999999999996 0.7798 29
-12.3594 -4.082 1.3633000000000002 210
-12.2031 -4.0312 1.6475 167
-8.0859 -2.6699 1.291 78
-12.085899999999999 -3.9922000000000004 2.2363 110
-2.9863 -0.9751000000000001 -0.5464 63
-3.0195 -0.9858 -0.478 238
-3.3301 -1.0879 0.12050000000000001 168
-9.1562 -2.9882999999999997 0.5576 107
-9.1328 -2.9824 0.7812 158
-12.3594 -4.0352 1.3622999999999998 29
-12.1953 -3.9805 1.6444999999999999 221
-8.4766 -2.7676 1.3525 225
-12.101600000000001 -3.9512 2.2363 50
-2.9785000000000004 -0.9614 -0.5444 218
-3.0332 -0.9790000000000001 -0.47950000000000004 160
-3.3301 -1.0752 0.1204 20
-3.1757999999999997 -1.0254 -0.4236 7
-9.125 -2.9452999999999996 0.5552 36
-9.1797 -2.9648000000000003 0.7847 5
-12.3594 -3.9901999999999997 1.3603999999999998 10
-12.1953 -3.9355 1.6425999999999998 227
-8.7969 -2.8398000000000003 1.4033000000000002 126
-8.8906 -2.8711 1.6406 153
-2.9844 -0.9521 -0.5449 204
-3.0312 -0.9673 -0.47850000000000004 180
-3.3535000000000004 -1.0703 0.1211 146
-3.1776999999999997 -1.0146 -0.4236 19
-9.1094 -2.9082 0.5537 194
-14.781199999999998 -4.7188 1.2637 193
-12.351600000000001 -3.9414 1.3584 5
-12.1875 -3.8906 1.6406 32
-12.0781 -3.8555 2.2285 158
-2.9745999999999997 -0.938 -0.5425 160
-3.0254000000000003 -0.9536 -0.4771 253
-3.3339999999999996 -1.0508 0.12029999999999999 251
-9.1016 -2.8691000000000004 0.5527000000000001 221
-14.9375 -4.7109 1.2754 191
-12.351600000000001 -3.8945 1.3563999999999998 255
-12.1719 -3.8379000000000003 1.6366999999999998 252
-12.0703 -3.8066000000000004 2.2246 53
-2.9901999999999997 -0.9316 -0.5449 145
-3.0077999999999996 -0.937 -0.4739 167
-3.3262 -1.0361 0.1199 32
-9.1016 -2.8358999999999996 0.5522 67
-15.1406 -4.7188 1.291 198
-12.343800000000002 -3.8457 1.3544999999999998 38
-12.1172 -3.7773000000000003 1.6269999999999998 48
-12.085899999999999 -3.7676 2.2246 59
-2.9863 -0.9179999999999999 -0.5435 254
-3.0176 -0.9277 -0.47490000000000004 128
-3.2988 -1.0146 0.11869999999999999 242
-9.1016 -2.7988 0.5513 179
-15.273399999999999 -4.6953 1.3018 216
-12.3594 -3.7988 1.3544999999999998 180
-12.1328 -3.7305 1.6269999999999998 133
-8.8906 -2.7344 1.4121000000000001 164
-12.085899999999999 -3.7168 2.2227 158
-2.9785000000000004 -0.9043000000000001 -0.5415 142
-3.0156 -0.9155 -0.47409999999999997 108
-3.2988 -1.002 0.1186 132
-9.1094 -2.7656 0.5513 128
-9.1172 -2.7695 0.7748999999999999 197
-12.335899999999999 -3.7461 1.3506 39
-12.164100000000001 -3.6933999999999996 1.6299000000000001 165
-8.9219 -2.7089999999999996 1.416 245
-12.085899999999999 -3.6699 2.2207 66
-2.9707 -0.8916 -0.5396 105
-3.0254000000000003 -0.9077 -0.4753 134
-3.3026999999999997 -0.9906999999999999 0.1186 249
-9.125 -2.7363 0.5513 166
-9.1172 -2.7344 0.7734000000000001 0
-12.343800000000002 -3.7031 1.3496000000000001 248
-12.1719 -3.6523000000000003 1.6288999999999998 4
-11.8594 -3.5586 1.8818000000000001 1
-12.0781 -3.625 2.2168 128
-2.9745999999999997 -0.8813 -0.5396 125
-3.0117000000000003 -0.8926000000000001 -0.4727 69
-3.2988 -0.9775 0.1183 132
-15.4375 -4.5742 0.9340999999999999 161
-9.125 -2.7051 0.7734000000000001 143
-9.0859 -2.6933999999999996 0.9917 187
-12.1719 -3.6074 1.6279 222
-11.835899999999999 -3.5077999999999996 1.876 173
-12.085899999999999 -3.582 2.2148 211
-2.9805 -0.8715999999999999 -0.5405 135
-3.0039 -0.8784000000000001 -0.4707 234
-3.3086 -0.9678 0.1186 59
-3.2031 -0.9365000000000001 -0.4236 52
-15.460899999999999 -4.5195 0.9346 92
-9.1328 -2.6719 0.7734000000000001 184
-9.0781 -2.6562 0.9897 17
-12.1719 -3.5586 1.626 131
-11.8047 -3.4531 1.8691 233
-8.8203 -2.5781 1.6122999999999998 81
-2.9824 -0.8608 -0.54 47
-3.0156 -0.8701000000000001 -0.4719 185
-3.2695 -0.9438 0.11710000000000001 166
-15.656199999999998 -4.5195 0.9453 62
-9.1875 -2.6504000000000003 0.7773 181
-9.1094 -2.6289 0.9917 167
-8.9766 -2.5918 1.1963 92
-11.8047 -3.4062 1.8672 98
-12.085899999999999 -3.4882999999999997 2.2109 85
-2.9844 -0.8501000000000001 -0.5396 254
-3.0137 -0.8584 -0.4714 68
-3.2773000000000003 -0.9336 0.11720000000000001 102
-15.4844 -4.4102 0.9340999999999999 46
-15.460899999999999 -4.4023 1.3096 199
-12.3672 -3.5214999999999996 1.3466999999999998 1
-8.9609 -2.5527 1.1934 136
-8.8828 -2.5312 1.4022999999999999 173
-12.085899999999999 -3.4433999999999996 2.209 11
-2.9629000000000003 -0.833 -0.5356000000000001 206
-3.0176 -0.8481000000000001 -0.4714 184
-3.2733999999999996 -0.9198999999999999 0.11689999999999999 149
-15.4219 -4.3359 0.9292 105
-15.4531 -4.3438 1.3075999999999999 143
-9.2812 -2.6094 1.0088 209
-8.9609 -2.5176 1.1914 251
-8.9453 -2.5137 1.4102000000000001 146
-12.0703 -3.3926 2.2031 173
-2.9745999999999997 -0.8247 -0.5366 173
-3.0077999999999996 -0.8345 -0.46950000000000003 105
-3.2832 -0.9106000000000001 0.11720000000000001 115
-21.9375 -6.082000000000001 1.3213 74
-15.4531 -4.2852 1.3066 34
-9.2891 -2.5762 1.0088 240
-12.1875 -3.3808999999999996 1.6211000000000002 58
-11.835899999999999 -3.2832 1.8672 194
-12.0703 -3.3476999999999997 2.2012 252
-2.9805 -0.8154 -0.5376 161
-3.0 -0.8208 -0.4678 222
-3.2637 -0.8931 0.1164 99
-21.9375 -6.0 1.3203 159
-15.4453 -4.2266 1.3047 117
-9.3125 -2.5469 1.0098 167
-12.1875 -3.3339999999999996 1.6191 132
-11.8047 -3.2285000000000004 1.8594 242
-12.085899999999999 -3.3066000000000004 2.2012 180
-2.9844 -0.8051999999999999 -0.5376 114
-2.9941000000000004 -0.8081 -0.46659999999999996 160
-3.2558999999999996 -0.8784000000000001 0.11599999999999999 249
-20.7969 -5.609400000000001 1.25 152
-15.4453 -4.168 1.3037 112
-9.3125 -2.5117 1.0088 5
-12.226600000000001 -3.2988 1.6230000000000002 167
-8.8125 -2.3789 1.3857 118
-12.085899999999999 -3.2598000000000003 2.1992 22
-2.9785000000000004 -0.7925 -0.5361 39
-3.0058999999999996 -0.7998000000000001 -0.4678 79
-3.2812 -0.873 0.1168 25
-19.5312 -5.199199999999999 1.1738 62
-15.4531 -4.1133 1.3027000000000002 122
-9.3281 -2.4824 1.0098 33
-12.226600000000001 -3.2539 1.6221 182
-8.9844 -2.3906 1.4111000000000002 253
-12.0625 -3.2108999999999996 2.1934 84
-2.9726999999999997 -0.7798 -0.5342 38
-3.0098000000000003 -0.7896 -0.46799999999999997 155
-3.2422000000000004 -0.8506 0.1152 145
-3.2266000000000004 -0.8467 -0.4236 238
-19.7344 -5.175800000000001 1.1845999999999999 180
-15.4453 -4.0508 1.3008000000000002 31
-9.3594 -2.4551 1.0127 83
-12.210899999999999 -3.2051 1.6191 2
-9.0703 -2.3789 1.4228999999999998 144
-8.6641 -2.2734 1.5722999999999998 129
-2.9648000000000003 -0.7670999999999999 -0.5327000000000001 227
-3.0058999999999996 -0.7773 -0.4668 204
-3.2870999999999997 -0.8501000000000001 0.1168 20
-3.1074 -0.8037000000000001 -0.4075 28
-12.406199999999998 -3.2089999999999996 0.7432 51
-3.1738 -0.8208 -0.3398 73
-12.468800000000002 -3.2245999999999997 1.0479 206
-9.3906 -2.4277 1.0146 245
-12.2031 -3.1562 1.6162 100
-11.8047 -3.0526999999999997 1.8535 159
-8.6875 -2.2461 1.5741999999999998 121
-2.9766000000000004 -0.7598 -0.5342 208
-2.9922000000000004 -0.7637 -0.4644 173
-3.248 -0.8291 0.1152 216
-12.375 -3.1582 0.7402 17
-3.1289 -0.7988 -0.335 87
-12.414100000000001 -3.168 1.043 98
-3.0938 -0.79 -0.2571 103
-9.4062 -2.4004 1.0156 113
-12.218800000000002 -3.1191000000000004 1.6162 71
-11.789100000000001 -3.0098000000000003 1.8486000000000002 35
-12.0078 -3.0645 2.1777 82
-2.9844 -0.7509999999999999 -0.5352 57
-3.002 -0.7559 -0.4656 211
-3.2382999999999997 -0.8154 0.1148 55
-12.351600000000001 -3.1094 0.7383 78
-3.1406 -0.7905 -0.3357 64
-12.3281 -3.1035000000000004 1.0342 209
-3.1464999999999996 -0.792 -0.2615 79
-9.4453 -2.3789 1.0195 216
-3.123 -0.7861 -0.18469999999999998 36
-12.218800000000002 -3.0762 1.6152000000000002 20
-3.1933999999999996 -0.8037000000000001 -0.11320000000000001 10
-11.781199999999998 -2.9668 1.8457 156
-11.914100000000001 -2.998 2.1582 198
-2.9668 -0.7354 -0.5317000000000001 127
-3.0117000000000003 -0.7461 -0.46659999999999996 26
-3.2441000000000004 -0.8042 0.1149 134
-12.343800000000002 -3.0586 0.7373000000000001 176
-3.1426 -0.7787999999999999 -0.3357 250
-12.351600000000001 -3.0605 1.0361 180
-3.127 -0.7748999999999999 -0.2595 59
-9.4609 -2.3457 1.0195 33
-12.2344 -3.0332 1.6162 13
-3.2344 -0.8018000000000001 -0.11460000000000001 114
-11.773399999999999 -2.918 1.8428 247
-3.2129000000000003 -0.7964 -0.0378 15
-11.835899999999999 -2.9336 2.1426 149
-2.9648000000000003 -0.7241 -0.5307999999999999 182
-3.0077999999999996 -0.7343999999999999 -0.4656 99
-3.2598000000000003 -0.7959 0.11539999999999999 167
-12.343800000000002 -3.0137 0.7363 152
-3.1191000000000004 -0.7612000000000001 -0.3328 188
-12.3906 -3.0254000000000003 1.0381 49
-3.1289 -0.7642 -0.2595 0
-9.5469 -2.3301 1.0283 158
-12.218800000000002 -2.9844 1.6122999999999998 72
-11.8281 -2.8887 1.8496000000000001 135
-3.1562 -0.7709999999999999 -0.0371 210
-9.1719 -2.2383 1.6572 68
-2.9688 -0.7129000000000001 -0.5307999999999999 147
-3.2656 -0.7837000000000001 0.0384 96
-3.002 -0.7206999999999999 -0.46409999999999996 72
-3.2793 -0.7870999999999999 0.11599999999999999 245
-12.375 -2.9726999999999997 0.7378 106
-3.1211 -0.7495 -0.3328 209
-12.414100000000001 -2.9805 1.0391 175
-3.1094 -0.7465999999999999 -0.2576 163
-12.406199999999998 -2.9785000000000004 1.3369 24
-9.6484 -2.3164 1.2715 237
-9.6562 -2.3184 1.5078 173
-9.1875 -2.2051 1.6582 248
-2.9707 -0.7017 -0.5307999999999999 2
-2.9961 -0.7075 -0.4629 129
-3.2598000000000003 -0.77 0.1152 34
-12.4297 -2.9375 0.7406999999999999 11
-3.1523000000000003 -0.7445999999999999 -0.3357 65
-12.5156 -2.9551 1.0469 50
-3.1074 -0.7339 -0.2571 105
-12.4453 -2.9395 1.3397999999999999 162
-9.6484 -2.2773 1.2695 194
-9.6484 -2.2793 1.5059 144
-9.2188 -2.1777 1.6631 124
-2.9726999999999997 -0.6919 -0.5307999999999999 36
-2.9941000000000004 -0.6968000000000001 -0.46240000000000003 248
-3.2577999999999996 -0.7578 0.115 50
-12.5078 -2.9101999999999997 0.7445999999999999 81
-3.123 -0.7265999999999999 -0.3325 48
-13.476600000000001 -3.1348000000000003 1.126 160
-3.1016000000000004 -0.7222 -0.2566 58
-12.5078 -2.9101999999999997 1.3447 158
-9.6641 -2.248 1.2705 222
-9.6641 -2.248 1.5059 242
-11.7656 -2.7382999999999997 2.123 194
-2.9688 -0.6797 -0.5293 231
-3.0117000000000003 -0.6899 -0.4648 27
-3.252 -0.7445999999999999 0.11470000000000001 132
-3.1289 -0.7162999999999999 -0.4075 224
-13.476600000000001 -3.0858999999999996 0.8018000000000001 4
-3.1094 -0.7123999999999999 -0.3308 148
-13.468800000000002 -3.0839999999999996 1.125 33
-3.0898000000000003 -0.7075 -0.2551 128
-13.476600000000001 -3.0858999999999996 1.4482 227
-9.6797 -2.2168 1.2715 29
-9.6875 -2.2188 1.5097999999999998 13
-9.6016 -2.1992 1.7294999999999998 125
-2.957 -0.6675 -0.5268999999999999 178
-2.9961 -0.6762999999999999 -0.4617 126
-3.2461 -0.7329000000000001 0.1144 246
-3.0995999999999997 -0.6997 -0.4033 170
-13.468800000000002 -3.0410000000000004 0.8008 123
-3.1113 -0.7026 -0.3308 234
-13.476600000000001 -3.043 1.125 161
-3.0801 -0.6953 -0.25420000000000004 250
-13.4844 -3.043 1.4482 240
-3.2617000000000003 -0.7363 -0.19190000000000002 191
-12.2422 -2.7637 1.6094 177
-9.75 -2.2012 1.5175999999999998 192
-9.5781 -2.1621 1.7236000000000002 237
-2.9629000000000003 -0.6587000000000001 -0.5278 165
-3.002 -0.667 -0.46240000000000003 168
-3.2401999999999997 -0.7202 0.11410000000000001 243
-3.1016000000000004 -0.6895 -0.4033 89
-13.468800000000002 -2.9941000000000004 0.8003 237
-3.0879000000000003 -0.6859999999999999 -0.32789999999999997 21
-13.468800000000002 -2.9922000000000004 1.123 123
-3.125 -0.6943 -0.25780000000000003 95
-13.4844 -2.998 1.4472999999999998 55
-3.2656 -0.7256 -0.19190000000000002 216
-12.218800000000002 -2.7168 1.6055000000000001 137
-9.8516 -2.1895 1.5322 72
-9.5938 -2.1309 1.7246000000000001 165
-2.9688 -0.6484000000000001 -0.5283 134
-2.9901999999999997 -0.6528 -0.46020000000000005 23
-3.2324 -0.7061 0.1137 222
-3.0664 -0.6694 -0.3982 109
-13.468800000000002 -2.9414 0.7998000000000001 97
-3.0858999999999996 -0.6738 -0.3274 29
-13.460899999999999 -2.9414 1.1220999999999999 9
-3.0995999999999997 -0.6772 -0.2556 168
-13.4922 -2.9452999999999996 1.4463 105
-3.1699 -0.6923999999999999 -0.18600000000000003 23
-12.2344 -2.6719 1.6055000000000001 251
-9.8828 -2.1582 1.5361000000000002 130
-9.5938 -2.0957 1.7246000000000001 240
-2.9745999999999997 -0.6392 -0.5293 97
-3.0039 -0.645 -0.4619 245
-3.2148000000000003 -0.6904 0.113 142
-3.0801 -0.6616 -0.3997 204
-13.476600000000001 -2.8945 0.7993000000000001 120
-3.0957 -0.665 -0.3281 188
-13.468800000000002 -2.8926 1.1220999999999999 55
-3.1074 -0.667 -0.2559 63
-13.476600000000001 -2.8926 1.4434 180
-3.207 -0.6890000000000001 -0.1882 186
-12.2422 -2.6289 1.6055000000000001 83
-12.031199999999998 -2.5839999999999996 1.8700999999999999 31
-9.8906 -2.125 1.7763999999999998 219
-2.9589999999999996 -0.624 -0.5259 242
-3.0077999999999996 -0.6343 -0.46240000000000003 99
-3.2441000000000004 -0.6846 0.114 57
-3.0469 -0.6426000000000001 -0.395 21
-13.476600000000001 -2.8418 0.7988 231
-3.0976999999999997 -0.6533 -0.3281 42
-13.476600000000001 -2.8418 1.1211 176
-3.0858999999999996 -0.6509 -0.2539 118
-13.460899999999999 -2.8398000000000003 1.4413999999999998 9
-3.1582 -0.6665000000000001 -0.1852 174
-12.2578 -2.5839999999999996 1.6055000000000001 162
-12.0547 -2.543 1.8730000000000002 154
-9.8672 -2.0801 1.7705000000000002 170
-2.9492000000000003 -0.6113000000000001 -0.5234000000000001 197
-3.0117000000000003 -0.6245 -0.46259999999999996 100
-3.2129000000000003 -0.6659999999999999 0.1128 106
-3.0370999999999997 -0.6299 -0.3936 81
-13.4531 -2.7891000000000004 0.7968999999999999 133
-3.1132999999999997 -0.645 -0.3296 58
-13.5156 -2.8026999999999997 1.124 255
-3.1191000000000004 -0.6465000000000001 -0.2566 191
-13.4844 -2.7949 1.4424000000000001 50
-3.1191000000000004 -0.6465000000000001 -0.1826 73
-12.2344 -2.5352 1.6016 178
-12.085899999999999 -2.5039 1.875 121
-11.7422 -2.4336 2.1074 153
-2.9629000000000003 -0.604 -0.5259 206
-3.0 -0.6118 -0.4604 175
-3.2382999999999997 -0.6597 0.11359999999999999 59
-3.0273000000000003 -0.6172 -0.3921 65
-13.531199999999998 -2.7577999999999996 0.8008 132
-3.0839999999999996 -0.6284000000000001 -0.3262 207
-13.5469 -2.7617000000000003 1.126 101
-3.0976999999999997 -0.6313 -0.2546 40
-13.468800000000002 -2.7441000000000004 1.4404 233
-3.2773000000000003 -0.6679999999999999 -0.19190000000000002 3
-12.2344 -2.4941 1.6006 195
-3.2266000000000004 -0.6572 -0.11320000000000001 111
-12.093800000000002 -2.4648 1.875 132
-11.75 -2.3965 2.1074 123
-2.9589999999999996 -0.5928 -0.5244 5
-3.0 -0.6011 -0.46 250
-3.2188 -0.645 0.1128 251
-3.0762 -0.6167 -0.3982 207
-13.5781 -2.7207 0.8031999999999999 154
-3.2148000000000003 -0.644 -0.3398 202
-13.5703 -2.7188 1.127 215
-3.1191000000000004 -0.625 -0.2561 152
-13.468800000000002 -2.6992000000000003 1.4394999999999998 147
-3.0995999999999997 -0.6211 -0.1812 16
-12.226600000000001 -2.4512 1.5986000000000002 209
-3.1289 -0.627 -0.1097 183
-12.085899999999999 -2.4219 1.8730000000000002 196
-3.1660000000000004 -0.6343 -0.0369 55
-11.7578 -2.3555 2.1074 206
-2.9688 -0.583 -0.5259 3
-3.2324 -0.6347999999999999 0.037599999999999995 4
-2.9961 -0.5884 -0.45899999999999996 253
-3.2245999999999997 -0.6333 0.113 38
-13.585899999999999 -2.668 0.8031999999999999 234
-13.5781 -2.6660000000000004 1.127 221
-13.468800000000002 -2.6445 1.4375 166
-12.2656 -2.4082 1.6025 10
-12.085899999999999 -2.373 1.8711000000000002 77
-3.2012 -0.6284000000000001 -0.037200000000000004 118
-11.7656 -2.3105 2.1074 48
-2.9589999999999996 -0.5703 -0.5239 251
-3.25 -0.6265 0.0378 49
-3.0077999999999996 -0.5796 -0.4604 79
-3.2344 -0.6235 0.11320000000000001 1
-13.585899999999999 -2.6191000000000004 0.8022 170
-13.6094 -2.623 1.1289 176
-13.460899999999999 -2.5957 1.4365 79
-12.2578 -2.3613 1.5996000000000001 141
-12.0547 -2.3242 1.8662 215
-11.773399999999999 -2.2695 2.1074 236
-2.9452999999999996 -0.5576 -0.521 6
-3.0077999999999996 -0.5693 -0.46020000000000005 230
-3.2012 -0.606 0.11199999999999999 231
-13.5781 -2.5702999999999996 0.8018000000000001 180
-13.6094 -2.5762 1.1279000000000001 83
-13.460899999999999 -2.5488 1.4355000000000002 165
-12.2344 -2.3164 1.5957 245
-11.8594 -2.2441 1.8330000000000002 193
-11.781199999999998 -2.2305 2.1074 20
-2.9589999999999996 -0.5498 -0.5234000000000001 92
-3.002 -0.5581 -0.45899999999999996 2
-3.2305 -0.6006 0.113 102
-13.5781 -2.5254 0.8012999999999999 60
-13.5781 -2.5254 1.125 96
-13.460899999999999 -2.502 1.4346 132
-12.2422 -2.2754 1.5966999999999998 130
-11.851600000000001 -2.2031 1.8319999999999999 222
-11.781199999999998 -2.1895 2.1055 252
-2.957 -0.5386 -0.5225 30
-2.998 -0.5459 -0.45799999999999996 28
-3.2285000000000004 -0.5879 0.1128 42
-13.585899999999999 -2.4746 0.8008 168
-13.5781 -2.4727 1.123 199
-13.468800000000002 -2.4531 1.4346 20
-12.2422 -2.2285 1.5947 150
-11.8594 -2.1582 1.8311000000000002 139
-11.781199999999998 -2.1445 2.1035 139
-2.9668 -0.5293 -0.5239 187
-3.0 -0.5352 -0.45799999999999996 247
-3.2089999999999996 -0.5728 0.1121 184
-13.593800000000002 -2.4258 0.8003 243
-13.5781 -2.4238 1.123 195
-13.476600000000001 -2.4043 1.4346 37
-12.25 -2.1875 1.5957 235
-11.906199999999998 -2.125 1.8378999999999999 191
-11.773399999999999 -2.1016 2.1016 77
-2.9531 -0.5171 -0.521 128
-3.002 -0.5254 -0.45799999999999996 139
-3.2051 -0.561 0.1118 38
-13.5703 -2.377 0.7988 104
-13.5781 -2.377 1.1220999999999999 3
-13.476600000000001 -2.3594 1.4336000000000002 203
-12.2656 -2.1484 1.5966999999999998 11
-12.1094 -2.1211 1.8681999999999999 195
-11.7578 -2.0586 2.0977 148
-2.9492000000000003 -0.5063 -0.52 62
-3.0058999999999996 -0.5161 -0.4587 58
-3.2344 -0.5552 0.1128 234
-13.5703 -2.3281 0.7983 41
-13.5781 -2.3301 1.1211 199
-13.4922 -2.3164 1.4346 155
-12.25 -2.1016 1.5928 108
-12.1094 -2.0801 1.8672 5
-11.7578 -2.0176 2.0957 74
-2.9531 -0.49560000000000004 -0.5205 70
-2.9961 -0.5029 -0.4568 255
-3.2382999999999997 -0.5439 0.11289999999999999 186
-13.5625 -2.2773 0.7979 59
-13.5703 -2.2793 1.1201 105
-13.5 -2.2676 1.4346 20
-12.25 -2.0566 1.5928 235
-12.1094 -2.0332 1.8652000000000002 170
-11.75 -1.9727000000000001 2.0938 157
-2.9608999999999996 -0.4863 -0.5215 70
-2.9922000000000004 -0.4917 -0.4561 38
-3.2148000000000003 -0.5283 0.11199999999999999 92
-13.5625 -2.2285 0.7968999999999999 146
-13.5625 -2.2285 1.1191 247
-13.5156 -2.2207 1.4355000000000002 85
-12.2578 -2.0137 1.5918 223
-12.1094 -1.9893 1.8643 183
-11.773399999999999 -1.9336000000000002 2.0957 96
-2.9629000000000003 -0.4763 -0.522 135
-2.9863 -0.48 -0.4548 166
-3.2129000000000003 -0.5161 0.1118 187
-13.5547 -2.1777 0.7959 66
-13.531199999999998 -2.1758 1.1162 106
-13.4844 -2.166 1.4306999999999999 83
-12.2656 -1.9716999999999998 1.5928 123
-12.1094 -1.9453 1.8633000000000002 45
-11.7578 -1.8896000000000002 2.0918 232
-2.9492000000000003 -0.46340000000000003 -0.519 164
-3.0039 -0.4719 -0.4573 124
-3.2226999999999997 -0.5063 0.1121 181
-13.476600000000001 -2.1172 0.7909999999999999 251
-13.476600000000001 -2.1172 1.1104 65
-13.4219 -2.1094 1.4228999999999998 24
-12.273399999999999 -1.9277000000000002 1.5928 128
-12.1172 -1.9033000000000002 1.8633000000000002 161
-11.7578 -1.8477000000000001 2.0918 90
-2.9452999999999996 -0.4524 -0.5181 224
-3.002 -0.46090000000000003 -0.45649999999999996 155
-3.2129000000000003 -0.4932 0.1117 116
-13.4297 -2.0625 0.7881 125
-13.4531 -2.0664 1.1084 172
-13.4531 -2.0664 1.4258000000000002 227
-12.273399999999999 -1.8847999999999998 1.5918 75
-12.1094 -1.8594 1.8613 238
-11.7578 -1.8056999999999999 2.0898 208
-2.9551 -0.44310000000000005 -0.5195000000000001 172
-2.9901999999999997 -0.4485 -0.4546 234
-3.2266000000000004 -0.4839 0.1121 183
-13.4375 -2.0156 0.7881 77
-13.4453 -2.0156 1.1064 196
-13.460899999999999 -2.0195 1.4258000000000002 175
-12.273399999999999 -1.8408000000000002 1.5908000000000002 8
-12.1172 -1.8174000000000001 1.8622999999999998 87
-11.7656 -1.7646000000000002 2.0898 23
-2.9492000000000003 -0.4316 -0.5181 99
-2.9863 -0.4375 -0.4539 82
-3.2108999999999996 -0.4702 0.1116 109
-13.4375 -1.9678 0.7876000000000001 54
-13.4297 -1.9668 1.1055 226
-13.4531 -1.9697 1.4238 83
-12.273399999999999 -1.7969 1.5897999999999999 65
-12.101600000000001 -1.7715 1.8584 31
-11.7578 -1.7216999999999998 2.0879 136
-2.957 -0.4226 -0.5195000000000001 86
-2.998 -0.4285 -0.45530000000000004 36
-3.1895 -0.4556 0.1107 153
-13.4531 -1.9219 0.7881 209
-13.4453 -1.9209 1.1055 178
-13.4297 -1.9188999999999998 1.4209 57
-12.281199999999998 -1.7549000000000001 1.5908000000000002 150
-12.101600000000001 -1.7285 1.8574000000000002 12
-11.7578 -1.6797 2.0879 229
-2.9473000000000003 -0.4106 -0.5176 237
-2.9922000000000004 -0.4167 -0.45409999999999995 90
-3.1914 -0.4446 0.1107 182
-13.4297 -1.8711000000000002 0.7866 66
-13.4375 -1.8721 1.1045 138
-13.4297 -1.8711000000000002 1.4209 66
-12.281199999999998 -1.71 1.5888999999999998 250
-12.1094 -1.6875 1.8584 96
-11.7578 -1.6377000000000002 2.0859 160
-2.9375 -0.3987 -0.5151 28
-2.9961 -0.4067 -0.4546 194
-3.2089999999999996 -0.4355 0.11130000000000001 80
-13.4297 -1.8222999999999998 0.7856000000000001 185
-13.4453 -1.8252000000000002 1.1045 242
-12.2656 -1.665 1.5869 42
-12.125 -1.6455000000000002 1.8594 73
-11.7578 -1.5957 2.084 250
-2.9473000000000003 -0.38939999999999997 -0.5166 255
-2.9941000000000004 -0.396 -0.45409999999999995 105
-3.1973000000000003 -0.4229 0.1108 103
-13.4375 -1.7763999999999998 0.7856000000000001 210
-12.5078 -1.6533000000000002 1.0264 146
-12.5156 -1.6543 1.3222999999999998 5
-12.2656 -1.6221 1.5869 168
-12.1328 -1.6035 1.8594 229
-11.7344 -1.5508000000000002 2.0801 65
-2.9551 -0.3801 -0.5181 173
-2.9824 -0.38380000000000003 -0.4521 219
-3.1952999999999996 -0.4111 0.1107 33
-12.5156 -1.6103999999999998 0.7314 16
-12.5 -1.6074000000000002 1.0254 105
-12.523399999999999 -1.6113 1.3222999999999998 57
-12.2656 -1.5781 1.5859 164
-12.125 -1.5596 1.8574000000000002 80
-11.7656 -1.5127000000000002 2.084 16
-2.9608999999999996 -0.3699 -0.5186 224
-2.9901999999999997 -0.3735 -0.45289999999999997 9
-3.2012 -0.39990000000000003 0.1108 196
-12.5156 -1.5635 0.731 12
-12.4844 -1.5586000000000002 1.0234 143
-12.3828 -1.5459 1.3066 65
-12.2656 -1.5322 1.585 229
-11.8828 -1.4844 1.8193000000000001 123
-11.7578 -1.4687999999999999 2.082 51
-2.9512 -0.3582 -0.5166 18
-2.9941000000000004 -0.36329999999999996 -0.4534 239
-3.1875 -0.38670000000000004 0.1103 245
-12.343800000000002 -1.4980000000000002 0.7206999999999999 45
-12.3672 -1.501 1.0137 157
-12.335899999999999 -1.4971 1.3018 115
-12.273399999999999 -1.4893 1.585 76
-11.875 -1.4413999999999998 1.8184 113
-11.7422 -1.4247999999999998 2.0781 67
-2.9316000000000004 -0.3464 -0.5132 160
-3.0 -0.35450000000000004 -0.45409999999999995 244
-3.2108999999999996 -0.3796 0.11109999999999999 129
-12.3125 -1.4550999999999998 0.7182999999999999 116
-12.3203 -1.4561000000000002 1.0098 217
-12.2969 -1.4531 1.2969 129
-12.2656 -1.4491999999999998 1.5830000000000002 132
-11.8906 -1.4053 1.8193000000000001 193
-11.7422 -1.3877000000000002 2.0781 252
-2.9452999999999996 -0.3381 -0.5151 185
-2.9922000000000004 -0.3435 -0.4526 132
-3.1855 -0.3657 0.11019999999999999 52
-12.281199999999998 -1.4102000000000001 0.7168000000000001 164
-12.2969 -1.4111000000000002 1.0068000000000001 136
-12.3047 -1.4131 1.2969 19
-12.2578 -1.4072 1.5811000000000002 218
-11.9297 -1.3700999999999999 1.8252000000000002 94
-11.75 -1.3496000000000001 2.0781 141
-2.9433999999999996 -0.3271 -0.5151 145
-2.9824 -0.33149999999999996 -0.4512 184
-3.1952999999999996 -0.355 0.1104 236
-12.3047 -1.3672 0.7173 127
-12.289100000000001 -1.3652000000000002 1.0068000000000001 172
-12.3047 -1.3672 1.2969 162
-12.2578 -1.3622999999999998 1.5811000000000002 144
-12.093800000000002 -1.3437999999999999 1.8496000000000001 208
-11.75 -1.3056999999999999 2.0762 157
-2.957 -0.3181 -0.5171 183
-2.9882999999999997 -0.3215 -0.4517 148
-3.1952999999999996 -0.34380000000000005 0.1104 93
-12.3125 -1.3241999999999998 0.7178 58
-12.3281 -1.3262 1.0098 130
-12.343800000000002 -1.3281 1.3008000000000002 106
-12.2656 -1.3203 1.5819999999999999 181
-12.093800000000002 -1.3018 1.8486000000000002 231
-11.7578 -1.2646 2.0781 130
-2.9473000000000003 -0.3066 -0.5151 80
-2.9941000000000004 -0.3115 -0.4526 50
-3.2051 -0.3335 0.1107 249
-12.3281 -1.2832 0.7182999999999999 194
-12.3906 -1.2891 1.0137 31
-12.3828 -1.2881 1.3037 45
-12.2656 -1.2764 1.5811000000000002 96
-12.101600000000001 -1.2588 1.8486000000000002 213
-11.7578 -1.2236 2.0762 115
-2.9355 -0.2952 -0.5127 224
-2.9961 -0.3013 -0.4526 132
-3.1973000000000003 -0.3215 0.1104 63
-12.3594 -1.2422 0.7202 6
-12.476600000000001 -1.2539 1.0205 176
-12.460899999999999 -1.2529000000000001 1.3125 225
-12.4297 -1.25 1.6016 245
-12.1094 -1.2178 1.8496000000000001 81
-11.7422 -1.1806999999999999 2.0742 226
-2.9414 -0.2852 -0.5136999999999999 123
-2.9726999999999997 -0.2883 -0.449 57
-3.2031 -0.31079999999999997 0.1106 39
-12.4844 -1.2109 0.7271 16
-12.4922 -1.2119 1.0215 171
-12.4922 -1.2119 1.3144999999999998 171
-12.351600000000001 -1.1973 1.5897999999999999 168
-12.1094 -1.1748 1.8496000000000001 210
-11.7422 -1.1396 2.0742 23
-2.9531 -0.2761 -0.5156000000000001 46
-2.9844 -0.2791 -0.45039999999999997 20
-3.1952999999999996 -0.2988 0.1103 244
-12.5 -1.168 0.728 123
-12.4922 -1.168 1.0215 166
-12.5 -1.168 1.3144999999999998 131
-12.4453 -1.1631 1.6025 60
-12.1172 -1.1328 1.8496000000000001 105
-11.75 -1.0977 2.0723 188
-2.9512 -0.26539999999999997 -0.5151 9
-2.9824 -0.2683 -0.45020000000000004 10
-3.1895 -0.2869 0.11 194
-12.5 -1.125 0.7275 84
-12.4844 -1.123 1.0205 223
-12.4922 -1.123 1.3135 101
-12.4844 -1.123 1.6063999999999998 216
-12.3281 -1.1084 1.8809 183
-11.7422 -1.0556999999999999 2.0703 246
-2.9395 -0.25420000000000004 -0.5127 80
-2.9901999999999997 -0.2585 -0.4512 111
-3.1973000000000003 -0.2764 0.1103 164
-12.4844 -1.0791 0.7265999999999999 25
-12.5 -1.0801 1.0215 30
-12.468800000000002 -1.0781 1.3115 7
-12.4922 -1.0801 1.6074000000000002 200
-12.335899999999999 -1.0664 1.8818000000000001 79
-11.7344 -1.0146 2.0703 71
-2.9316000000000004 -0.2432 -0.5112 112
-2.9863 -0.2477 -0.45039999999999997 99
-3.2031 -0.2656 0.1104 1
-12.476600000000001 -1.0342 0.7256 7
-12.468800000000002 -1.0342 1.0186 120
-12.4297 -1.0312000000000001 1.3066 46
-12.4297 -1.0312000000000001 1.5996000000000001 37
-12.343800000000002 -1.0234 1.8818000000000001 83
-11.7344 -0.9731000000000001 2.0684 128
-2.9375 -0.23329999999999998 -0.5122 13
-2.9805 -0.2366 -0.4495 150
-3.2129000000000003 -0.2551 0.1107 240
-12.4375 -0.9878 0.7231000000000001 229
-12.4531 -0.9887999999999999 1.0166 158
-12.4844 -0.9917 1.3125 26
-12.4453 -0.9883 1.6006 4
-12.343800000000002 -0.9804999999999999 1.8818000000000001 213
-11.7344 -0.9316 2.0684 170
-2.9452999999999996 -0.2241 -0.5136999999999999 150
-2.9844 -0.2271 -0.45 2
-3.1973000000000003 -0.2432 0.11019999999999999 25
-12.4844 -0.9497 0.7261 91
-12.476600000000001 -0.9492 1.0186 147
-12.4844 -0.9497 1.3115 224
-12.468800000000002 -0.9487000000000001 1.6035 195
-12.335899999999999 -0.938 1.8799000000000001 129
-11.726600000000001 -0.8920999999999999 2.0664 148
-2.9433999999999996 -0.214 -0.5127 187
-2.9824 -0.2169 -0.4495 189
-3.1719 -0.23070000000000002 0.1093 172
-12.5 -0.9092 0.7265999999999999 15
-12.4922 -0.9081999999999999 1.0195 13
-12.4844 -0.9081999999999999 1.3115 27
-12.476600000000001 -0.9077 1.6035 106
-12.3281 -0.8965000000000001 1.8779 144
-11.7344 -0.8534999999999999 2.0664 75
-2.9355 -0.2028 -0.5112 21
-2.9901999999999997 -0.2064 -0.45039999999999997 109
-3.1797000000000004 -0.21960000000000002 0.1096 62
-12.4844 -0.8623000000000001 0.7256 3
-12.4844 -0.8618000000000001 1.0186 153
-12.4844 -0.8623000000000001 1.3105000000000002 36
-12.4844 -0.8618000000000001 1.6044999999999998 38
-12.398399999999999 -0.856 1.8887 148
-11.726600000000001 -0.8096 2.0645 87
-2.9276999999999997 -0.19190000000000002 -0.5103 3
-2.9882999999999997 -0.1959 -0.45020000000000004 25
-3.1952999999999996 -0.2095 0.11 157
-12.476600000000001 -0.8179000000000001 0.7251000000000001 150
-12.4922 -0.8188 1.0195 183
-12.4844 -0.8184 1.3105000000000002 176
-12.468800000000002 -0.8173999999999999 1.6016 141
-12.476600000000001 -0.8179000000000001 1.9003999999999999 206
-12.0156 -0.7876000000000001 2.1152 196
-2.9375 -0.18230000000000002 -0.5112 19
-2.9882999999999997 -0.18530000000000002 -0.45 110
-3.2051 -0.1989 0.1104 181
-12.4844 -0.7744 0.7251000000000001 163
-12.4922 -0.7748999999999999 1.0186 34
-12.4922 -0.7754000000000001 1.3115 174
-12.468800000000002 -0.7739 1.6016 150
-12.4219 -0.7705 1.8906 221
-12.3672 -0.7676000000000001 2.1777 176
-2.9375 -0.172 -0.5112 81
-2.9745999999999997 -0.1741 -0.44780000000000003 111
-3.1855 -0.1864 0.1096 82
-12.4844 -0.731 0.7251000000000001 53
-12.4844 -0.7304999999999999 1.0176 72
-12.4922 -0.731 1.3105000000000002 36
-12.476600000000001 -0.73 1.6016 61
-12.468800000000002 -0.73 1.8984 133
-10.1484 -0.5942000000000001 1.7852000000000001 250
-2.9414 -0.16190000000000002 -0.5122 90
-2.9648000000000003 -0.1632 -0.44630000000000003 57
-3.1797000000000004 -0.17489999999999997 0.1094 18
-12.4922 -0.6875 0.7256 230
-12.476600000000001 -0.6865000000000001 1.0166 246
-12.5 -0.688 1.3105000000000002 1
-12.476600000000001 -0.6865000000000001 1.6025 121
-12.468800000000002 -0.6859999999999999 1.8975 9
-10.2031 -0.5615 1.7938999999999998 105
-2.9433999999999996 -0.1516 -0.5122 48
-2.9766000000000004 -0.1533 -0.44780000000000003 27
-3.1719 -0.1635 0.1091 196
-12.4844 -0.6431 0.7245999999999999 175
-12.4922 -0.6436 1.0176 82
-12.476600000000001 -0.6431 1.3086000000000002 8
-12.476600000000001 -0.6431 1.6016 147
-12.460899999999999 -0.6420999999999999 1.8965 78
-12.3672 -0.6377 2.1758 160
-2.9316000000000004 -0.1407 -0.5103 37
-2.9901999999999997 -0.1437 -0.45 96
-3.1952999999999996 -0.1534 0.1099 102
-12.468800000000002 -0.5991 0.7236 212
-12.4844 -0.5996 1.0176 108
-12.4844 -0.5996 1.3086000000000002 109
-12.476600000000001 -0.5991 1.6006 218
-12.468800000000002 -0.5991 1.8975 109
-10.2344 -0.4917 1.7988 247
-2.9355 -0.1307 -0.5107 32
-2.9785000000000004 -0.13269999999999998 -0.4482 72
-3.1895 -0.142 0.1097 55
-12.468800000000002 -0.5552 0.7236 128
-12.476600000000001 -0.5557 1.0166 39
-12.4922 -0.5562 1.3096 175
-12.460899999999999 -0.5552 1.5996000000000001 49
-12.476600000000001 -0.5557 1.8984 36
-10.2109 -0.4548 1.7949000000000002 215
-2.9433999999999996 -0.12179999999999999 -0.5122 186
-2.9707 -0.12300000000000001 -0.447 112
-3.1816000000000004 -0.1317 0.1094 250
-12.4844 -0.5166 0.7241 6
-12.468800000000002 -0.5161 1.0156 52
-12.4922 -0.5171 1.3096 15
-12.468800000000002 -0.5161 1.5996000000000001 36
-12.476600000000001 -0.5166 1.8975 13
-12.3828 -0.5122 2.1777 136
-2.9395 -0.1119 -0.5112 25
-2.9785000000000004 -0.1134 -0.4482 127
-3.1699 -0.1207 0.10890000000000001 198
-12.4844 -0.4753 0.7241 89
-12.476600000000001 -0.47490000000000004 1.0156 215
-12.4922 -0.4756 1.3096 8
-12.468800000000002 -0.47490000000000004 1.5996000000000001 74
-12.460899999999999 -0.4744 1.8944999999999999 149
-12.3828 -0.4714 2.1777 176
-2.9355 -0.1005 -0.5103 151
-2.9805 -0.102 -0.4482 196
-3.1738 -0.10859999999999999 0.1091 39
-12.476600000000001 -0.42700000000000005 0.7236 44
-12.476600000000001 -0.42700000000000005 1.0166 101
-12.4844 -0.42719999999999997 1.3075999999999999 98
-12.476600000000001 -0.4268 1.5996000000000001 137
-12.468800000000002 -0.4268 1.8965 164
-12.375 -0.4236 2.1758 135
-2.9297000000000004 -0.09 -0.5093 147
-2.9824 -0.0916 -0.4485 9
-3.1738 -0.0975 0.1091 240
-12.468800000000002 -0.3833 0.7231000000000001 60
-12.4922 -0.38380000000000003 1.0166 188
-12.476600000000001 -0.3833 1.3075999999999999 126
-12.468800000000002 -0.3833 1.5996000000000001 186
-12.468800000000002 -0.3831 1.8955000000000002 83
-12.3672 -0.3799 2.1738 169
-2.9297000000000004 -0.0803 -0.5093 140
-2.9766000000000004 -0.0816 -0.4475 107
-3.2031 -0.08779999999999999 0.1101 223
-12.468800000000002 -0.3418 0.7231000000000001 11
-12.468800000000002 -0.34159999999999996 1.0146 159
-12.476600000000001 -0.342 1.3075999999999999 142
-12.460899999999999 -0.34159999999999996 1.5986000000000002 145
-12.4844 -0.3423 1.8984 31
-10.0391 -0.2751 1.7627000000000002 126
-2.9336 -0.0707 -0.5103 96
-2.9668 -0.07150000000000001 -0.446 243
-3.1719 -0.0764 0.10890000000000001 90
-12.476600000000001 -0.3005 0.7236 52
-12.4531 -0.3 1.0137 108
-12.4844 -0.30079999999999996 1.3075999999999999 166
-12.468800000000002 -0.3003 1.5986000000000002 184
-12.460899999999999 -0.3003 1.8944999999999999 86
-12.3828 -0.2983 2.1758 239
-2.9375 -0.06 -0.5107 46
-2.9726999999999997 -0.060700000000000004 -0.447 164
-3.1757999999999997 -0.0649 0.1091 23
-12.476600000000001 -0.25489999999999996 0.7236 168
-12.468800000000002 -0.2546 1.0156 4
-12.476600000000001 -0.2546 1.3066 46
-12.468800000000002 -0.2546 1.5996000000000001 61
-12.468800000000002 -0.2546 1.8944999999999999 58
-12.3906 -0.2532 2.1777 117
-2.9297000000000004 -0.0496 -0.5093 155
-2.9805 -0.050499999999999996 -0.4482 18
-3.1757999999999997 -0.0538 0.1091 228
-12.476600000000001 -0.2112 0.7231000000000001 51
-12.4844 -0.2113 1.0156 203
-12.460899999999999 -0.2109 1.3056999999999999 89
-12.468800000000002 -0.2112 1.5986000000000002 165
-12.460899999999999 -0.21109999999999998 1.8944999999999999 234
-12.3828 -0.2096 2.1758 109
-2.9257999999999997 -0.0393 -0.5088 19
-2.9707 -0.039900000000000005 -0.4465 243
-3.1757999999999997 -0.042699999999999995 0.1091 98
-12.468800000000002 -0.16760000000000003 0.7227 164
-12.4844 -0.1678 1.0166 205
-12.460899999999999 -0.1675 1.3056999999999999 191
-12.460899999999999 -0.1675 1.5977000000000001 180
-12.468800000000002 -0.16760000000000003 1.8944999999999999 75
-12.3672 -0.1661 2.1738 224
-2.9257999999999997 -0.0291 -0.5088 135
-2.9785000000000004 -0.0296 -0.44780000000000003 149
-3.1797000000000004 -0.0316 0.1093 128
-12.460899999999999 -0.124 0.7222 106
-12.460899999999999 -0.124 1.0146 202
-12.468800000000002 -0.1241 1.3066 57
-12.4531 -0.12390000000000001 1.5966999999999998 90
-12.476600000000001 -0.1241 1.8965 15
-12.3828 -0.1232 2.1758 118
-2.9355 -0.0184 -0.5103 110
-2.9726999999999997 -0.0187 -0.447 136
-3.1641000000000004 -0.0199 0.10869999999999999 160
-12.460899999999999 -0.0783 0.7227 140
-12.460899999999999 -0.0783 1.0137 167
-12.468800000000002 -0.0783 1.3056999999999999 246
-12.4531 -0.0782 1.5966999999999998 155
-12.460899999999999 -0.0783 1.8936000000000002 29
-12.3672 -0.07769999999999999 2.1738 120
-2.9433999999999996 -0.008199999999999999 -0.5112 34
-2.9629000000000003 -0.0083 -0.44530000000000003 36
-3.1757999999999997 -0.0089 0.1091 159
-12.476600000000001 -0.0349 0.7231000000000001 22
-12.460899999999999 -0.0348 1.0146 206
-12.4844 -0.0349 1.3075999999999999 237
-12.460899999999999 -0.0348 1.5977000000000001 46
-12.4453 -0.0348 1.8916 40
-12.375 -0.0345 2.1738 69
-2.9316000000000004 0.002 -0.5093 74
-2.9901999999999997 0.0021 -0.4495 120
-3.168 0.0022 0.10880000000000001 161
-12.4375 0.0087 0.7212000000000001 106
-12.539100000000001 0.0088 1.0205 65
-12.5547 0.0088 1.3154 226
-12.468800000000002 0.0087 1.5977000000000001 176
-12.460899999999999 0.0087 1.8936000000000002 7
-12.3594 0.0086 2.1719 3
-2.9238 0.012199999999999999 -0.5078 117
-2.9863 0.0125 -0.4487 182
-3.1836 0.013300000000000001 0.1094 195
-12.5703 0.0526 1.0234 138
-12.5703 0.0526 1.3163999999999998 252
-12.4531 0.052199999999999996 1.5957 222
-12.4531 0.052199999999999996 1.8925999999999998 108
-12.351600000000001 0.0518 2.1719 215
-2.9316000000000004 0.0215 -0.5093 38
-2.9745999999999997 0.0218 -0.4473 155
-3.1914 0.023399999999999997 0.1097 27
-12.5625 0.09210000000000002 0.728 31
-12.6328 0.09269999999999999 1.0283 35
-12.75 0.0934 1.3359 113
-12.4531 0.09119999999999999 1.5957 105
-12.460899999999999 0.09140000000000001 1.8944999999999999 255
-12.3594 0.0906 2.1719 238
-2.9336 0.031200000000000002 -0.5103 153
-2.9707 0.0316 -0.4465 68
-3.1641000000000004 0.0337 0.10869999999999999 32
-12.7578 0.1359 0.7397 206
-12.75 0.13570000000000002 1.0381 153
-12.781199999999998 0.1361 1.3388999999999998 55
-12.4531 0.1326 1.5966999999999998 206
