# .PCD v0.7 - Point Cloud Data file format
VERSION 0.7
FIELDS x y z intensity
SIZE 4 4 4 4
TYPE F F F F
COUNT 1 1 1 1
WIDTH 1440
HEIGHT 1
VIEWPOINT 0 0 0 1 0 0 0
POINTS 1440
DATA ascii
3.3672000000000004 13.1172 -1.1025 19
4.25 16.5469 -0.9917 92
7.613300000000001 29.6562 3.9336 92
8.6719 33.7812 5.3086 103
8.0547 31.375 5.707000000000001 178
1.8594 7.140599999999999 -1.2938999999999998 201
2.1074 8.0859 -1.2676 94
13.218800000000002 50.75 1.8291 60
2.4043 9.2344 -1.2217 153
2.8202999999999996 10.8281 -1.1719 104
3.4160000000000004 13.1172 -1.1035 36
4.3125 16.5469 -0.9926999999999999 196
7.707000000000001 29.5938 3.9276999999999997 129
8.7266 33.5 5.2734000000000005 168
7.988300000000001 30.6719 5.582000000000001 226
1.8877000000000002 7.1523 -1.2969 195
2.1348 8.0859 -1.2686 199
9.1641 34.7188 1.252 7
2.4395 9.2422 -1.2236 44
2.8535000000000004 10.8047 -1.1699 192
3.457 13.093800000000002 -1.1025 248
4.375 16.5625 -0.9945999999999999 195
11.7578 44.5312 5.917999999999999 197
7.8477 29.7188 4.6797 23
9.1953 34.8125 -0.4204 109
8.6172 32.6562 5.9453 174
1.915 7.1484000000000005 -1.2978999999999998 79
13.3281 49.75 0.6015999999999999 129
2.1602 8.0625 -1.2666 165
13.3125 49.6875 1.7949000000000002 38
2.4707 9.2188 -1.2227 0
9.2891 34.6875 2.0859 143
2.8945 10.8047 -1.1709 213
13.281199999999998 49.5625 4.1875 122
3.5058999999999996 13.0781 -1.1025 47
4.4492 16.6094 -0.9976 224
7.9062 29.5 4.6523 214
7.8047 29.125 5.3086 5
1.9413999999999998 7.144500000000001 -1.2978999999999998 234
13.335899999999999 49.0938 0.5938 253
2.1914 8.0625 -1.2676 106
2.502 9.2109 -1.2227 193
2.9336 10.7969 -1.1709 205
13.4297 49.4062 4.1797 139
3.5586 13.101600000000001 -1.1055 76
16.125 59.3125 6.457000000000001 121
4.5117 16.6094 -0.9984999999999999 157
16.0938 59.25 7.890599999999999 74
8.0312 29.5625 4.6641 122
16.0469 59.0625 10.781199999999998 87
1.9647999999999999 7.1328 -1.2978999999999998 0
13.3125 48.3125 0.5854 131
2.2207 8.0625 -1.2686 241
2.5352 9.2031 -1.2227 170
2.9726999999999997 10.789100000000001 -1.1719 66
8.8125 32.0 2.707 223
3.6035000000000004 13.0781 -1.1045 213
16.3438 59.375 6.4688 242
4.5703 16.5938 -0.9990000000000001 166
9.4219 34.2188 4.5586 95
8.0625 29.2812 4.625 213
9.375 34.0312 6.2188 135
1.9883000000000002 7.1211 -1.2959 246
13.289100000000001 47.5938 0.5771000000000001 159
2.252 8.0703 -1.2705 209
15.25 54.625 1.9785 20
2.5723000000000003 9.2109 -1.2246 62
3.0117000000000003 10.789100000000001 -1.1729 250
8.9141 31.9375 2.7051 1
3.6464999999999996 13.0625 -1.1035 185
4.6445 16.625 -1.002 254
9.7266 34.8438 4.6484 149
9.6719 34.6562 5.4765999999999995 159
2.0137 7.113300000000001 -1.2959 123
10.281199999999998 36.3438 0.4407 234
2.2793 8.0547 -1.2705 128
15.351600000000001 54.25 1.9668 211
2.6094 9.2266 -1.2275 38
3.0449 10.7656 -1.1709 56
8.9922 31.7656 2.6933999999999996 44
3.6992000000000003 13.0703 -1.1055 82
4.7188 16.6719 -1.0059 248
9.9141 35.0312 4.6797 105
9.0625 32.0312 5.0703 71
8.1484 28.8125 5.2734000000000005 57
2.0391 7.109400000000001 -1.2969 13
10.406199999999998 36.2812 0.4404 26
2.3086 8.0547 -1.2705 23
2.6445 9.2188 -1.2285 220
14.8594 51.8438 3.1348000000000003 13
3.0858999999999996 10.7656 -1.1729 184
9.1328 31.8594 2.7031 55
3.7461 13.0625 -1.1064 120
8.9141 31.0781 3.3926 13
4.7656 16.625 -1.0029000000000001 139
8.8281 30.7812 4.1133 12
9.1641 31.9531 5.0625 91
10.3828 36.2188 -0.4397 125
8.1641 28.4531 5.2148 83
2.0664 7.109400000000001 -1.2978999999999998 49
10.531199999999998 36.25 0.4407 131
2.334 8.0391 -1.2695 38
15.039100000000001 51.7812 1.8809 174
2.6738 9.2031 -1.2275 113
15.0 51.6562 3.127 221
3.127 10.7578 -1.1729 112
9.1484 31.4844 2.6738 168
3.7910000000000004 13.0547 -1.1064 98
4.8242 16.6094 -1.0039 246
8.9453 30.7969 4.1211 66
8.5625 29.4531 4.6719 92
10.5547 36.3438 -0.44170000000000004 55
8.2734 28.4844 5.2227 77
2.0879 7.0977 -1.2969 106
10.6719 36.2812 0.4412 149
2.3691 8.0547 -1.2734 185
15.1719 51.5625 1.875 229
2.6973000000000003 9.1641 -1.2236 134
15.156199999999998 51.5 3.1211 201
3.168 10.7656 -1.1748 185
9.2656 31.4844 2.6776999999999997 125
3.8339999999999996 13.023399999999999 -1.1055 100
4.8867 16.5938 -1.0039 14
9.7578 33.1562 4.4375 202
7.917999999999999 26.9062 -0.9775 249
9.1719 31.1719 4.9492 193
9.4453 32.0938 -0.3901 135
8.4531 28.7344 5.2734000000000005 69
2.1133 7.0898 -1.2969 242
2.3945 8.0312 -1.2715 233
15.3281 51.4375 1.8721 204
2.7344 9.1719 -1.2256 32
15.3047 51.3438 3.1151999999999997 124
3.2108999999999996 10.773399999999999 -1.1768 136
14.7344 49.4062 4.207 120
3.8887 13.0469 -1.1084 65
4.9453 16.5781 -1.0039 202
9.875 33.125 4.4414 100
10.2266 34.3125 5.453099999999999 177
9.1797 30.7812 -0.37479999999999997 141
8.5312 28.625 5.2578 186
2.1387 7.0859000000000005 -1.2978999999999998 205
13.2969 44.0312 0.5371 231
2.4277 8.0391 -1.2744 151
14.9922 49.6562 1.8096 77
2.7637 9.1562 -1.2246 69
14.968800000000002 49.5938 3.0098000000000003 194
3.25 10.7656 -1.1777 195
14.9219 49.4062 4.2148 26
3.9395 13.0469 -1.1094 161
5.0078 16.5938 -1.0059 112
10.398399999999999 34.4375 4.625 65
9.7344 32.25 5.1289 235
9.2812 30.7344 -0.37450000000000006 91
8.2266 27.25 5.0117 11
2.166 7.0938 -1.2997999999999998 41
2.4492 8.0156 -1.2725 119
13.0 42.5312 1.5518 100
2.793 9.1406 -1.2246 191
9.5156 31.1406 1.8916 112
3.2851999999999997 10.75 -1.1768 19
15.093800000000002 49.4062 4.2188 254
3.9707 13.0 -1.1064 87
9.8438 32.2188 3.5370999999999997 38
5.0781 16.6094 -1.0078 228
8.2656 27.0469 -0.9858 51
9.4844 31.0312 -0.3784 189
2.1895 7.0859000000000005 -1.2997999999999998 235
9.6719 31.2969 0.3821 59
2.4844 8.0391 -1.2764 5
13.023399999999999 42.125 1.5381 87
2.8281 9.1484 -1.2256 205
9.5859 31.0 1.8857 73
3.3281 10.7656 -1.1797 101
4.0195 13.0 -1.1074 28
5.1289 16.5938 -1.0078 251
8.3516 27.0156 -0.9854 208
9.625 31.1406 -0.3801 23
8.4219 27.25 5.0234 184
2.2148 7.0703 -1.2988 188
2.5195 8.0469 -1.2793 49
9.7344 31.0781 1.1357 248
2.8574 9.125 -1.2246 202
9.6797 30.9062 1.8818000000000001 219
3.3711 10.7656 -1.1806999999999999 50
9.6406 30.7812 2.6308999999999996 74
4.0664 12.9844 -1.1074 136
15.125 48.2812 5.3164 146
5.1953 16.5938 -1.0088 198
9.5156 30.3906 4.0898 25
8.375 26.7344 -0.9765999999999999 24
9.1719 29.2969 -0.3582 40
2.2402 7.0703 -1.2997999999999998 141
2.5469 8.0312 -1.2783 129
9.8203 30.9844 1.1328 44
2.8926 9.125 -1.2256 27
3.3964999999999996 10.718800000000002 -1.1768 183
9.75 30.75 2.6308999999999996 146
4.1289 13.023399999999999 -1.1123 69
5.265599999999999 16.6094 -1.0107 29
9.6328 30.375 4.0938 44
8.4375 26.6094 -0.9731000000000001 95
8.6328 27.2344 4.3516 119
9.1797 28.9531 -0.3542 248
8.6328 27.2344 5.0312 74
2.2637 7.0625 -1.2997999999999998 199
9.2656 28.8906 0.354 227
2.5625 7.9922 -1.2734 0
9.9297 30.9688 1.1338 95
2.9297000000000004 9.1328 -1.2285 206
3.4395 10.726600000000001 -1.1787 218
4.1758 13.023399999999999 -1.1133 159
9.8203 30.6094 3.375 148
5.324199999999999 16.5938 -1.0117 215
10.0625 31.3906 4.2344 129
8.4844 26.4531 -0.9682999999999999 28
8.7344 27.2344 4.3555 8
9.2812 28.9375 -0.35450000000000004 14
8.7266 27.2188 5.0312 187
2.291 7.0625 -1.3018 133
2.5918 7.9922 -1.2744 3
8.9141 27.5 1.0078 217
2.9608999999999996 9.125 -1.2285 189
8.9219 27.5 1.6797 47
3.4824 10.7422 -1.1816 243
4.2188 13.0078 -1.1133 47
5.3828 16.5938 -1.0127 240
10.1641 31.3438 4.2305 164
8.5312 26.2969 -0.9634 166
8.8281 27.2344 4.3594 105
8.9062 27.4531 -0.3367 215
8.8281 27.2344 5.0391 181
2.3203 7.0664 -1.3047 160
2.627 7.9961 -1.2773 192
9.0 27.4062 1.0059 195
2.9901999999999997 9.1094 -1.2275 163
8.9922 27.3906 1.6747999999999998 23
3.5254000000000003 10.7344 -1.1826 49
4.2695 13.0 -1.1143 76
5.4648 16.6406 -1.0166 219
8.9688 27.3125 3.6933999999999996 7
8.5781 26.125 -0.9584999999999999 196
8.9375 27.2188 4.3633 191
9.5 28.9219 -0.3552 136
8.9453 27.2344 5.0469 61
2.3398 7.042999999999999 -1.3018 219
9.6172 28.9375 0.3557 214
2.6562 7.9961 -1.2783 23
13.0156 39.1875 1.4394999999999998 96
3.0176 9.0781 -1.2256 188
3.5605 10.718800000000002 -1.1826 232
8.9844 27.0312 2.3242 183
4.3164 12.9844 -1.1143 145
8.9688 26.9844 2.9844 190
5.5234000000000005 16.625 -1.0166 247
10.1016 30.4062 4.1172 98
8.6406 26.0 -0.9545999999999999 77
9.0469 27.2344 4.3711 48
9.6094 28.9219 -0.3555 82
9.0469 27.2344 5.0508 1
2.3672 7.0352 -1.3018 90
2.6836 7.980499999999999 -1.2773 120
12.9297 38.4375 1.415 141
3.0566000000000004 9.0859 -1.2275 136
9.125 27.125 1.6621000000000001 217
3.5995999999999997 10.7031 -1.1816 251
9.0625 26.9375 2.3184 23
4.3672 12.9844 -1.1152 165
9.0547 26.9219 2.9824 89
5.5898 16.625 -1.0176 60
10.2188 30.3906 4.1172 186
8.7188 25.9062 -0.9526 36
9.1641 27.25 4.3789 220
9.7266 28.9219 -0.35600000000000004 149
9.1484 27.2188 5.0547 167
2.3945 7.0352 -1.3027000000000002 241
2.7148000000000003 7.980499999999999 -1.2783 54
12.9453 38.0625 1.4013999999999998 54
3.0938 9.0938 -1.2305 81
9.2109 27.0625 1.6611000000000002 110
3.6367000000000003 10.6875 -1.1816 145
9.1562 26.9219 2.3184 166
4.418 12.9844 -1.1172 38
9.1406 26.875 2.9785000000000004 180
5.6562 16.625 -1.0195 82
11.5781 34.0312 4.6172 53
8.7891 25.8281 -0.9506999999999999 182
9.2656 27.25 4.3828 61
12.8672 37.8125 -0.46630000000000005 112
9.2656 27.2188 5.0625 163
2.4238 7.042999999999999 -1.3056999999999999 167
2.7461 7.9765999999999995 -1.2803 136
12.9297 37.5625 1.3857 30
3.123 9.0703 -1.2285 7
9.3281 27.1094 1.665 123
3.6797000000000004 10.6953 -1.1845999999999999 205
4.4727 13.0 -1.1191 58
9.2734 26.9375 2.9901999999999997 8
5.7188 16.625 -1.0195 102
11.6328 33.8125 4.5938 25
8.8516 25.7188 -0.9481999999999999 207
9.375 27.2344 4.3867 17
9.3672 27.2188 5.0664 156
2.4473 7.0312 -1.3047 187
2.7714999999999996 7.9648 -1.2793 51
12.9453 37.1875 1.374 242
3.1601999999999997 9.0781 -1.2314 180
9.4219 27.0781 1.665 224
3.7245999999999997 10.7031 -1.1865 251
4.5156 12.968800000000002 -1.1181999999999999 88
5.7852 16.625 -1.0215 59
11.75 33.75 4.5938 99
8.9453 25.7031 -0.9487000000000001 145
9.4766 27.2344 4.3906 106
9.4766 27.2188 5.0742 110
2.4668 7.019500000000001 -1.3047 143
2.7988 7.9609000000000005 -1.2803 132
3.1855 9.0625 -1.2305 200
3.7656 10.710899999999999 -1.1885 167
4.5547 12.960899999999999 -1.1181999999999999 140
11.2031 31.875 3.5469 170
5.828099999999999 16.5781 -1.0195 10
9.0312 25.6875 -0.9487000000000001 59
9.5781 27.2344 4.3945 197
9.5703 27.2188 5.0781 165
2.4922 7.011699999999999 -1.3047 148
2.8262 7.953099999999999 -1.2803 156
3.2168 9.0547 -1.2305 1
3.7988 10.6875 -1.1875 88
4.6055 12.960899999999999 -1.1201 72
11.289100000000001 31.7812 3.5410000000000004 36
5.886699999999999 16.5781 -1.0205 73
9.1406 25.7344 -0.9517 53
9.6562 27.1875 5.082 225
2.5195 7.0078 -1.3056999999999999 104
2.8535000000000004 7.9336 -1.2793 221
12.8906 35.8438 1.3281 156
3.2558999999999996 9.0547 -1.2314 71
3.8418 10.6875 -1.1885 147
4.6562 12.9453 -1.1201 26
5.9609000000000005 16.5781 -1.0225 124
11.898399999999999 33.0938 4.5156 101
9.2422 25.6875 -0.9517 10
2.5488 7.011699999999999 -1.3075999999999999 49
2.8867000000000003 7.9414 -1.2822 15
3.2870999999999997 9.0469 -1.2324 255
3.8926 10.710899999999999 -1.1934 6
4.6992 12.9297 -1.1201 48
6.0234000000000005 16.5625 -1.0225 18
12.0 33.0 4.5117 17
9.3281 25.6562 -0.9517 27
2.5781 7.015599999999999 -1.3105000000000002 177
2.9120999999999997 7.925800000000001 -1.2812000000000001 93
12.8281 34.9062 1.2969 158
3.3145 9.0156 -1.2305 9
3.9316000000000004 10.6953 -1.1934 25
4.7578 12.9453 -1.123 127
6.0938 16.5781 -1.0244 105
12.125 32.9688 4.5156 65
9.4297 25.6562 -0.9526 23
10.5703 28.75 4.6641 69
2.6016000000000004 7.0039 -1.3096 86
12.8125 34.5 0.4292 245
2.9452999999999996 7.9297 -1.2832 4
12.8047 34.4688 1.2822 187
3.3535000000000004 9.0234 -1.2334 67
3.9707 10.6875 -1.1934 157
4.793 12.898399999999999 -1.1201 37
6.1484000000000005 16.5469 -1.0244 177
9.5156 25.625 -0.9526 9
10.5 28.2656 4.5898 204
12.7578 34.3438 -0.4275 185
11.3203 30.4688 5.7227 117
2.6308999999999996 7.0039 -1.3115 102
2.9785000000000004 7.9336 -1.2861000000000002 117
12.898399999999999 34.3438 1.2793 137
3.3867000000000003 9.0156 -1.2334 232
12.8828 34.3125 2.1309 1
4.0039 10.664100000000001 -1.1934 197
4.8477 12.906199999999998 -1.123 0
6.2188 16.5625 -1.0273 78
9.6406 25.6875 -0.9561 206
10.601600000000001 28.2344 4.5898 59
12.781199999999998 34.0312 -0.4243 39
2.6562 7.0 -1.3135 81
3.002 7.9102 -1.2832 180
12.8047 33.75 1.2588 129
3.4199 9.0078 -1.2344 247
4.043 10.648399999999999 -1.1934 200
4.8867 12.875 -1.1211 247
6.2890999999999995 16.5781 -1.0283 105
9.7422 25.6719 -0.9570000000000001 184
12.7578 33.625 -0.41969999999999996 68
10.625 28.0 5.2734000000000005 244
2.6855 7.0 -1.3144999999999998 207
3.0370999999999997 7.917999999999999 -1.2861000000000002 88
3.4551 9.0078 -1.2354 21
12.906199999999998 33.6562 2.0938 111
4.0859 10.656199999999998 -1.1943000000000001 248
4.9297 12.8594 -1.1211 81
6.355499999999999 16.5781 -1.0303 140
9.8281 25.6406 -0.9570000000000001 237
11.0469 28.7969 4.6953 179
10.648399999999999 27.7656 5.238300000000001 1
2.707 6.988300000000001 -1.3144999999999998 147
3.0605 7.8984000000000005 -1.2852000000000001 151
3.4901999999999997 9.0078 -1.2373 62
4.1367 10.6719 -1.1982 80
4.9805 12.8594 -1.123 120
6.4140999999999995 16.5625 -1.0303 255
9.9375 25.6406 -0.9584999999999999 113
10.531199999999998 27.1875 5.1328 199
2.7266000000000004 6.9688 -1.3115 240
3.0898000000000003 7.8984000000000005 -1.2861000000000002 225
3.5176 8.9922 -1.2363 157
4.1758 10.6719 -1.2002 50
5.0352 12.8672 -1.125 39
6.480499999999999 16.5625 -1.0322 37
10.0391 25.6406 -0.96 13
12.7344 32.5625 -0.408 191
10.593800000000002 27.0781 5.1172 118
2.752 6.9609000000000005 -1.3125 114
3.1211 7.9023 -1.2891 146
3.5566000000000004 9.0 -1.2393 255
4.2148 10.664100000000001 -1.2002 132
5.0742 12.843800000000002 -1.124 166
6.5312 16.5312 -1.0312000000000001 172
10.1172 25.5938 -0.9595 122
10.664100000000001 26.9844 5.1094 203
2.7832 6.9688 -1.3154 116
3.1504000000000003 7.886699999999999 -1.2881 15
3.5938 9.0 -1.2412 7
12.773399999999999 32.0 2.002 70
4.25 10.6406 -1.1992 31
5.125 12.835899999999999 -1.125 38
18.1719 45.5 5.144500000000001 246
6.6015999999999995 16.5312 -1.0332 156
10.2109 25.5781 -0.96 141
18.375 46.0 8.7266 210
2.8105 6.9648 -1.3163999999999998 198
12.7578 31.625 0.3979 244
3.1836 7.890599999999999 -1.291 186
12.7422 31.5781 1.1875 179
3.6289 8.9922 -1.2422 165
12.7578 31.625 1.9813999999999998 14
4.2852 10.625 -1.1992 219
5.171900000000001 12.8203 -1.125 170
18.3594 45.5312 5.1523 148
6.6836 16.5625 -1.0361 46
10.2969 25.5312 -0.9595 96
19.8125 49.125 9.3281 30
2.8339999999999996 6.9609000000000005 -1.3174000000000001 88
3.2051 7.8672 -1.2891 93
12.8594 31.5781 1.1885 24
3.6543 8.9766 -1.2412 241
12.835899999999999 31.5156 1.9775 142
4.332 10.6406 -1.2031 216
5.207000000000001 12.789100000000001 -1.124 56
6.7227 16.5 -1.0342 24
10.3906 25.5156 -0.9604 246
11.531199999999998 28.3125 5.3828 153
2.8555 6.9453 -1.3163999999999998 236
12.710899999999999 30.9219 0.3899 143
3.2344 7.8672 -1.291 155
12.6797 30.8438 1.1631 122
3.6836 8.9609 -1.2412 131
12.835899999999999 31.2188 1.9609 193
4.375 10.6406 -1.2051 124
5.261699999999999 12.7969 -1.126 7
6.7812 16.5 -1.0352 158
10.460899999999999 25.4531 -0.9590000000000001 111
12.6875 30.8438 -0.3892 104
2.875 6.917999999999999 -1.3135 202
3.2676 7.863300000000001 -1.2919999999999998 239
12.8125 30.8281 1.1641 152
3.7245999999999997 8.9688 -1.2431999999999999 241
12.7969 30.7969 1.9375 25
4.418 10.6406 -1.2061 17
5.3164 12.7969 -1.1279000000000001 134
6.8515999999999995 16.5 -1.0361 71
10.5703 25.4375 -0.9604 72
12.6953 30.5469 -0.386 89
11.585899999999999 27.8906 5.3164 116
2.9082 6.9336 -1.3184 196
3.2969 7.859400000000001 -1.2930000000000001 43
3.7577999999999996 8.9531 -1.2441 243
4.4492 10.601600000000001 -1.2041 113
12.460899999999999 29.7031 2.6289 149
5.3672 12.789100000000001 -1.1289 76
6.917999999999999 16.4844 -1.0381 109
10.656199999999998 25.3906 -0.96 230
12.6719 30.2031 -0.3821 88
11.7031 27.8906 5.328099999999999 168
2.9355 6.9297 -1.3193000000000001 72
3.3223000000000003 7.8398 -1.2919999999999998 64
3.7969 8.9609 -1.2470999999999999 92
4.4922 10.6094 -1.2061 255
5.4062 12.7656 -1.1289 200
6.988300000000001 16.5 -1.04 211
10.7422 25.3594 -0.9595 165
12.6719 29.9062 -0.3789 164
11.8047 27.8594 5.328099999999999 132
2.9688 6.9375 -1.3232 10
3.3535000000000004 7.8398 -1.2938999999999998 135
3.8262 8.9453 -1.2461 150
12.7031 29.6875 1.876 185
4.5352 10.601600000000001 -1.207 165
12.4453 29.0938 2.582 208
5.453099999999999 12.75 -1.1289 62
7.046900000000001 16.4688 -1.04 65
10.8281 25.3125 -0.9595 92
12.656199999999998 29.5781 -0.37549999999999994 233
11.835899999999999 27.6719 5.300800000000001 68
2.9844 6.9102 -1.3203 48
3.3887 7.8477 -1.2969 130
12.726600000000001 29.4688 1.1191 190
3.8516000000000004 8.9141 -1.2441 58
12.710899999999999 29.4375 1.8633000000000002 145
4.5742 10.593800000000002 -1.208 211
5.5078 12.75 -1.1309 86
7.1172 16.4844 -1.042 128
12.8828 29.8281 4.1719 13
10.9297 25.3125 -0.9609000000000001 113
12.726600000000001 29.4688 -0.37450000000000006 104
11.968800000000002 27.7188 5.3164 68
3.0137 6.9102 -1.3222999999999998 204
3.4141000000000004 7.832000000000001 -1.2959 1
12.8203 29.3906 1.1181999999999999 58
3.8945 8.9297 -1.248 205
12.789100000000001 29.3281 1.8594 6
4.6094 10.5703 -1.207 98
5.5586 12.75 -1.1318000000000001 221
7.1797 16.4688 -1.043 55
12.968800000000002 29.7344 4.168 208
11.0156 25.25 -0.9604 202
12.8125 29.375 -0.3738 202
3.0370999999999997 6.9023 -1.3222999999999998 227
3.4452999999999996 7.832000000000001 -1.2978999999999998 58
12.8828 29.2812 1.1152 42
3.9297000000000004 8.9297 -1.25 215
12.875 29.2656 1.8574000000000002 185
4.6484 10.5703 -1.209 94
5.613300000000001 12.75 -1.1348 86
7.25 16.4844 -1.0449 95
13.0469 29.6562 4.1602 160
11.1094 25.25 -0.9614 154
12.898399999999999 29.3125 -0.3735 243
19.9219 45.2812 8.7109 139
3.0664 6.9062 -1.3252000000000002 79
3.4805 7.8359000000000005 -1.3008000000000002 121
12.968800000000002 29.2188 1.1143 80
3.9629000000000003 8.9297 -1.251 83
12.968800000000002 29.2031 1.8563999999999998 26
4.6797 10.539100000000001 -1.207 205
5.6484000000000005 12.726600000000001 -1.1338 108
7.3125 16.4688 -1.0459 227
13.1172 29.5469 4.1523 232
11.1719 25.1719 -0.96 59
12.976600000000001 29.2344 -0.37329999999999997 177
3.0938 6.8984000000000005 -1.3262 34
13.1328 29.2812 0.37450000000000006 101
3.5098000000000003 7.828099999999999 -1.3018 129
13.0547 29.125 1.1123 193
4.0078 8.9375 -1.2539 207
13.0469 29.0938 1.8525 15
4.7148 10.5156 -1.207 232
5.6953 12.7031 -1.1328 39
7.3672 16.4375 -1.0449 82
13.210899999999999 29.4688 4.1484 114
11.3281 25.2656 -0.9648 215
13.0547 29.1094 -0.3721 12
3.1094 6.8711 -1.3222999999999998 131
3.5683999999999996 7.8828 -1.3135 129
13.125 29.0 1.1104 20
4.0312 8.9062 -1.252 178
13.1328 29.0156 1.8506 139
4.7617 10.523399999999999 -1.21 92
5.75 12.7031 -1.1348 185
7.4336 16.4219 -1.0459 40
13.2969 29.375 4.1445 117
11.3828 25.1562 -0.9623999999999999 146
3.1348000000000003 6.8672 -1.3241999999999998 239
3.5938 7.8711 -1.3135 61
13.2344 28.9844 1.1113 210
4.0664 8.9062 -1.2539 196
13.218800000000002 28.9375 1.8486000000000002 166
4.7969 10.5078 -1.209 222
5.792999999999999 12.6875 -1.1357 14
7.5039 16.4375 -1.0479 160
13.375 29.2969 4.1367 89
20.6562 45.25 8.7656 105
3.1641000000000004 6.8711 -1.3262 86
13.3125 28.9062 0.3711 45
3.5938 7.8047 -1.3037 209
13.2969 28.875 1.1084 36
4.1055 8.9141 -1.2568000000000001 218
13.3125 28.9062 1.8496000000000001 241
4.8359 10.5 -1.21 50
5.8477 12.6953 -1.1377 144
13.5547 29.4219 3.4004000000000003 232
7.550800000000001 16.3906 -1.0479 9
13.4531 29.2031 4.1289 27
11.523399999999999 25.0312 -0.9604 92
13.3125 28.9062 -0.3713 86
3.1933999999999996 6.8711 -1.3281 37
13.4453 28.9219 0.3721 251
3.6211 7.7890999999999995 -1.3037 241
13.3906 28.7969 1.1074 21
4.1406 8.9062 -1.2578 1
13.4219 28.875 1.8496000000000001 48
4.8789 10.5 -1.2119 82
5.8828 12.656199999999998 -1.1367 133
7.6172 16.3906 -1.0488 17
13.531199999999998 29.1094 4.125 84
11.656199999999998 25.0781 -0.9639 177
3.2207 6.8711 -1.3311000000000002 225
3.6523000000000003 7.7890999999999995 -1.3056999999999999 206
13.460899999999999 28.7031 1.1055 250
4.168 8.8906 -1.2578 37
13.4844 28.75 1.8447 102
4.9102 10.476600000000001 -1.2109 145
5.925800000000001 12.6406 -1.1367 234
7.6953 16.4062 -1.0518 196
13.6094 29.0312 4.1211 129
11.7031 24.9688 -0.9609000000000001 98
13.4844 28.75 -0.37060000000000004 88
3.248 6.859400000000001 -1.3311000000000002 178
13.5625 28.6562 0.3699 17
3.6855 7.7852 -1.3066 210
13.523399999999999 28.5625 1.1016 159
4.1992 8.8672 -1.2568000000000001 116
13.5781 28.6875 1.8437999999999999 143
4.957 10.476600000000001 -1.2129 62
5.988300000000001 12.656199999999998 -1.1396 194
7.761699999999999 16.3906 -1.0527 92
13.7031 28.9531 4.1172 204
11.8047 24.9375 -0.9619 50
13.4922 28.5 -0.3677 125
3.2656 6.8359000000000005 -1.3281 107
3.7089999999999996 7.765599999999999 -1.3056999999999999 66
13.5625 28.3906 1.0977 77
4.2422 8.875 -1.2598 160
13.648399999999999 28.5781 1.8397999999999999 216
4.9922 10.4531 -1.2129 80
12.9219 27.0469 2.4453 152
6.0273 12.625 -1.1387 44
7.828099999999999 16.3906 -1.0547 149
13.781199999999998 28.8594 4.1094 50
11.9375 24.9844 -0.9653 17
13.531199999999998 28.3281 -0.36619999999999997 123
3.2969 6.8398 -1.3311000000000002 255
3.7401999999999997 7.7578 -1.3066 247
4.2695 8.8594 -1.2598 123
13.7344 28.4844 1.8369 23
5.043 10.4531 -1.2158 25
6.0859000000000005 12.6172 -1.1406 70
7.8984000000000005 16.375 -1.0556999999999999 101
13.8672 28.7656 4.1016 143
12.0 24.8906 -0.9634 114
13.601600000000001 28.2031 -0.3652 194
21.7969 45.2188 8.8438 186
3.3242000000000003 6.832000000000001 -1.3319999999999999 106
3.7733999999999996 7.7578 -1.3086000000000002 241
13.656199999999998 28.0781 1.0889 182
4.3125 8.8672 -1.2627 226
13.8047 28.375 1.834 48
5.0742 10.4375 -1.2148 99
6.125 12.593800000000002 -1.1396 14
7.9727 16.3906 -1.0576 176
13.9453 28.6719 4.0977 222
12.1094 24.8906 -0.9648 88
13.664100000000001 28.0781 -0.3643 21
21.9844 45.2188 8.8594 155
3.3535000000000004 6.832000000000001 -1.335 122
3.8066000000000004 7.7539 -1.3105000000000002 242
13.718800000000002 27.9531 1.085 209
4.3398 8.8359 -1.2607 214
13.898399999999999 28.3125 1.8330000000000002 93
5.1211 10.4375 -1.2178 19
6.167999999999999 12.5703 -1.1396 171
8.0234 16.3594 -1.0576 43
14.031199999999998 28.5938 4.0938 190
12.2031 24.875 -0.9653 134
14.6953 29.9375 -0.3892 118
22.1875 45.1875 8.8672 253
3.377 6.8203 -1.335 206
14.781199999999998 29.8594 0.3887 215
3.8339999999999996 7.7461 -1.3115 173
18.6719 37.7188 1.4678 226
4.3711 8.8281 -1.2617 183
13.976600000000001 28.2188 1.8300999999999998 120
5.171900000000001 10.4531 -1.2207 171
6.2188 12.5625 -1.1416 102
8.0859 16.3281 -1.0576 42
14.125 28.5156 4.0898 136
12.289100000000001 24.8125 -0.9653 249
14.781199999999998 29.8594 -0.3887 40
3.3926 6.792999999999999 -1.3319999999999999 21
14.8594 29.75 0.38789999999999997 160
3.8651999999999997 7.738300000000001 -1.3125 207
4.4219 8.8516 -1.2676 0
14.0469 28.125 1.8271000000000002 30
5.203099999999999 10.4219 -1.2197 184
6.2773 12.5625 -1.1436 57
22.6406 45.3438 5.324199999999999 186
8.1641 16.3438 -1.0605 69
14.1953 28.4219 4.082 238
12.3672 24.7656 -0.9648 200
22.5625 45.1562 8.8906 5
3.4238 6.796900000000001 -1.335 106
3.8964999999999996 7.734400000000001 -1.3144999999999998 205
14.1406 28.0625 1.0957 18
4.4492 8.8281 -1.2666 102
5.238300000000001 10.398399999999999 -1.2187999999999999 151
6.3359000000000005 12.5781 -1.1465 115
8.2578 16.3906 -1.0654000000000001 137
14.281199999999998 28.3438 4.0781 135
12.476600000000001 24.7656 -0.9662999999999999 206
14.1406 28.0781 -0.3667 247
3.4512 6.796900000000001 -1.3369 29
14.2031 27.9688 0.366 170
3.9219 7.7227 -1.3144999999999998 105
14.1953 27.9531 1.0928 228
4.4805 8.8281 -1.2676 196
14.210899999999999 27.9844 1.8241999999999998 246
5.2812 10.398399999999999 -1.2217 35
6.355499999999999 12.5156 -1.1426 156
8.3125 16.3594 -1.0654000000000001 18
14.351600000000001 28.2656 4.0703 135
12.5625 24.75 -0.9673 113
13.0156 25.625 4.375 250
14.210899999999999 27.9844 -0.36619999999999997 52
3.4766000000000004 6.7890999999999995 -1.3378999999999999 206
3.9551 7.7227 -1.3163999999999998 74
14.273399999999999 27.875 1.0918 160
4.5117 8.8125 -1.2676 114
14.289100000000001 27.9062 1.8213 101
5.3164 10.3828 -1.2217 247
6.421900000000001 12.539100000000001 -1.1475 180
8.375 16.3594 -1.0664 226
14.4219 28.1719 4.0664 128
12.6797 24.7812 -0.9702 205
13.0781 25.5469 4.3672 51
14.2656 27.8594 -0.3652 146
3.502 6.7773 -1.3378999999999999 118
3.9844 7.7148 -1.3174000000000001 75
14.335899999999999 27.75 1.0889 120
4.5508 8.8047 -1.2695 240
14.3281 27.75 1.8144999999999998 106
5.363300000000001 10.3828 -1.2236 182
6.4609000000000005 12.5078 -1.1465 22
8.4375 16.3438 -1.0674 181
14.5156 28.1094 4.0625 231
12.8203 24.8125 -0.9736 75
13.2031 25.5625 4.3789 214
14.335899999999999 27.75 -0.36450000000000005 15
3.5293 6.7773 -1.3397999999999999 42
4.0117 7.703099999999999 -1.3184 52
14.414100000000001 27.6719 1.0879 5
4.582 8.7969 -1.2705 154
14.398399999999999 27.6406 1.8105000000000002 187
5.394500000000001 10.351600000000001 -1.2227 182
6.5312 12.539100000000001 -1.1514 224
8.5 16.3125 -1.0674 203
14.593800000000002 28.0156 4.0586 81
12.906199999999998 24.7656 -0.9731000000000001 254
13.226600000000001 25.375 4.3594 181
14.4219 27.6875 -0.3643 140
3.5566000000000004 6.765599999999999 -1.3408000000000002 208
4.0391 7.6797 -1.3163999999999998 55
14.5 27.5938 1.0869 233
4.6211 8.7969 -1.2725 104
14.4922 27.5781 1.8096 233
5.4375 10.343800000000002 -1.2236 13
6.5859000000000005 12.531199999999998 -1.1523 11
8.5547 16.2656 -1.0664 112
14.6719 27.9062 4.0508 31
13.023399999999999 24.7812 -0.9756 98
13.335899999999999 25.3594 4.3633 59
14.5078 27.6094 -0.3638 96
3.5938 6.7773 -1.3457 243
4.0664 7.671900000000001 -1.3174000000000001 8
14.5703 27.4844 1.085 44
4.6523 8.7812 -1.2725 247
14.5781 27.5 1.8086000000000002 251
5.480499999999999 10.335899999999999 -1.2246 221
6.613300000000001 12.468800000000002 -1.1494 166
8.6172 16.2656 -1.0684 8
14.75 27.8281 4.0469 11
13.164100000000001 24.8281 -0.98 146
13.476600000000001 25.4219 4.3828 32
14.5781 27.5 -0.363 237
3.6191000000000004 6.769500000000001 -1.3466999999999998 4
4.0938 7.6640999999999995 -1.3184 11
14.656199999999998 27.4375 1.084 43
4.6914 8.7812 -1.2754 37
14.648399999999999 27.4219 1.8056999999999999 251
5.5234000000000005 10.335899999999999 -1.2275 3
6.6562 12.460899999999999 -1.1504 142
8.7031 16.2812 -1.0723 221
14.843800000000002 27.7656 4.0469 214
13.25 24.7969 -0.98 136
13.6172 25.4844 4.3984 143
14.648399999999999 27.4219 -0.3625 78
13.4922 25.25 5.0391 111
3.6348000000000003 6.75 -1.3447 144
4.1367 7.6797 -1.3232 19
14.710899999999999 27.3125 1.0811 113
4.7109 8.75 -1.2725 130
14.710899999999999 27.3125 1.8027000000000002 237
5.5703 10.335899999999999 -1.2295 104
6.707000000000001 12.4531 -1.1514 114
8.7578 16.25 -1.0713 100
13.8672 25.7344 3.7558999999999996 67
12.8594 23.875 -0.9448000000000001 39
13.773399999999999 25.5625 4.4219 93
14.75 27.3906 -0.3628 52
13.6094 25.2656 5.0508 241
3.6582 6.734400000000001 -1.3447 40
4.1641 7.667999999999999 -1.3241999999999998 79
12.8828 23.7188 0.9409000000000001 78
4.75 8.7422 -1.2744 92
14.8047 27.25 1.8018 213
5.5977 10.3047 -1.2275 191
6.7578 12.4375 -1.1523 225
15.1172 27.8281 3.3242000000000003 2
8.8281 16.25 -1.0732 20
13.898399999999999 25.5781 3.7401999999999997 196
13.843800000000002 25.4844 4.418 218
14.851600000000001 27.3438 -0.363 98
13.656199999999998 25.1406 5.0391 170
3.6855 6.734400000000001 -1.3457 143
4.1797 7.636699999999999 -1.3213 232
14.9453 27.2969 1.085 122
4.7891 8.7422 -1.2773 46
14.9219 27.25 1.8056999999999999 38
5.6328 10.289100000000001 -1.2285 86
6.800800000000001 12.4219 -1.1533 77
22.9531 41.9375 5.0195 244
8.8672 16.1875 -1.0713 110
13.9453 25.4688 3.7285000000000004 152
13.6172 24.8594 -0.9883 36
12.968800000000002 23.6875 4.1133 38
14.9531 27.3125 -0.36329999999999996 177
13.773399999999999 25.1562 5.0508 127
3.7245999999999997 6.7422 -1.3506 82
15.0703 27.2812 0.3635 21
4.2188 7.6328 -1.3232 138
15.039100000000001 27.2188 1.084 70
4.832 8.7422 -1.2793 205
15.0469 27.2344 1.8075999999999999 167
5.667999999999999 10.2578 -1.2275 144
6.8477 12.398399999999999 -1.1533 156
8.9766 16.25 -1.0771 193
14.1094 25.5469 3.748 212
13.656199999999998 24.7188 -0.9843999999999999 96
13.125 23.75 4.1328 90
15.093800000000002 27.3281 -0.3643 70
13.75 24.8906 5.0078 0
3.748 6.730499999999999 -1.3506 149
13.7656 24.7031 0.3298 67
4.2539 7.636699999999999 -1.3262 131
15.1797 27.25 1.0869 220
4.8516 8.7109 -1.2773 31
18.0469 32.4062 2.1562 20
5.7188 10.2656 -1.2305 244
6.9023 12.3906 -1.1543 134
22.6562 40.6875 4.8906 140
9.0156 16.1875 -1.0752 126
14.210899999999999 25.5156 3.75 164
13.710899999999999 24.6094 -0.9823999999999999 215
13.1406 23.5938 4.1133 53
15.210899999999999 27.3125 -0.36469999999999997 26
13.226600000000001 23.75 4.7852 31
3.7832 6.734400000000001 -1.3544999999999998 204
13.8828 24.7188 0.3306 80
4.293 7.640599999999999 -1.3300999999999998 154
4.8867 8.7031 -1.2783 168
18.1719 32.3438 2.1562 148
5.761699999999999 10.2578 -1.2314 230
6.953099999999999 12.3828 -1.1562000000000001 112
9.0938 16.1875 -1.0781 244
15.3203 27.2812 4.0195 238
13.6406 24.2812 -0.9706999999999999 245
13.210899999999999 23.5312 4.1094 208
13.6094 24.2344 -0.324 83
13.273399999999999 23.625 4.7695 124
3.7969 6.703099999999999 -1.3516 34
13.968800000000002 24.6719 0.3308 184
4.3164 7.625 -1.3291 248
4.9258 8.7031 -1.2803 24
18.3281 32.375 2.1621 127
5.792999999999999 10.2266 -1.2305 204
7.0078 12.375 -1.1582 47
9.1641 16.1875 -1.0801 36
13.6094 24.0469 3.5488 1
13.3828 23.6406 -0.9468000000000001 205
13.3047 23.5 4.1094 246
13.3281 23.5469 -0.3154 148
13.351600000000001 23.5781 4.7695 171
3.8358999999999996 6.7227 -1.3574000000000002 216
14.101600000000001 24.7188 0.332 201
4.332 7.5898 -1.3262 113
4.9609 8.6953 -1.2822 17
18.4844 32.375 2.166 189
5.828099999999999 10.2109 -1.2314 227
7.0586 12.3672 -1.1592 87
21.7812 38.1562 4.6133 229
9.1953 16.125 -1.0771 119
15.460899999999999 27.0938 4.0078 232
13.718800000000002 24.0469 -0.9648 89
13.5156 23.6875 4.1523 17
13.6719 23.9531 -0.3218 177
13.625 23.875 4.8398 234
3.8574 6.707000000000001 -1.3574000000000002 197
4.3594 7.5859000000000005 -1.3271000000000002 189
5.0 8.6953 -1.2841999999999998 204
18.5625 32.2812 2.1641 167
5.8711 10.2109 -1.2334 64
7.105499999999999 12.351600000000001 -1.1602 40
9.2969 16.1719 -1.082 84
13.75 23.9062 3.543 8
13.8125 24.0156 -0.9653 223
13.7344 23.8906 4.1953 228
13.781199999999998 23.9688 -0.3225 197
13.460899999999999 23.4062 4.7539 46
3.8827999999999996 6.6953 -1.3574000000000002 15
15.835899999999999 27.3125 0.3682 45
4.4062 7.5938 -1.3319999999999999 30
15.7969 27.25 1.0977 28
5.0312 8.6719 -1.2841999999999998 11
15.8281 27.2969 1.8330000000000002 171
5.9062 10.1875 -1.2334 149
7.1602 12.343800000000002 -1.1621 97
21.7969 37.5938 4.5625 106
9.3906 16.1875 -1.0859 218
15.6172 26.9219 3.998 122
13.9453 24.0469 -0.9688 234
13.6953 23.625 4.1562 189
13.8906 23.9531 -0.32299999999999995 216
13.656199999999998 23.5469 4.793 166
3.9082 6.6875 -1.3584 147
4.4375 7.5938 -1.335 135
15.9297 27.25 1.1006 224
5.0625 8.6562 -1.2841999999999998 23
15.9297 27.25 1.8330000000000002 49
5.953099999999999 10.1797 -1.2354 165
7.203099999999999 12.3281 -1.1621 234
13.7656 23.5469 2.8613 228
9.4141 16.0938 -1.082 195
15.710899999999999 26.875 4.0 97
14.0547 24.0469 -0.9706999999999999 250
13.914100000000001 23.7969 4.1953 254
13.9922 23.9375 -0.3235 93
13.601600000000001 23.2656 4.7461 253
3.9336 6.675800000000001 -1.3584 192
4.4492 7.550800000000001 -1.3300999999999998 153
30.9062 52.4375 2.125 59
5.1055 8.6641 -1.2881 136
16.0469 27.2344 1.8369 26
5.9922 10.1719 -1.2363 64
7.2539 12.3125 -1.1631 114
13.8281 23.4688 2.8594 2
9.4844 16.0938 -1.084 226
14.343800000000002 24.3438 3.6289 65
14.648399999999999 24.8594 -1.0059 26
13.9219 23.625 4.1758 153
16.0781 27.2969 -0.3696 52
13.6172 23.1094 4.7227 164
3.9668 6.6797 -1.3622999999999998 151
4.4922 7.5625 -1.335 4
31.125 52.4062 2.127 176
5.140599999999999 8.6484 -1.2891 105
16.1719 27.2344 1.8397999999999999 75
6.0352 10.1641 -1.2373 105
7.324199999999999 12.335899999999999 -1.168 247
13.914100000000001 23.4219 2.8594 46
9.5625 16.1094 -1.0869 136
14.281199999999998 24.0312 -0.9745999999999999 159
13.9844 23.5469 4.168 157
16.2188 27.2969 -0.3704 5
13.75 23.1562 4.7422 107
3.9922000000000004 6.671900000000001 -1.3633000000000002 61
18.5156 30.9375 0.4207 133
4.5078 7.5352 -1.3319999999999999 140
5.175800000000001 8.6484 -1.29 201
16.3125 27.25 1.8447 165
6.0625 10.1328 -1.2363 116
7.355499999999999 12.289100000000001 -1.166 170
13.960899999999999 23.3281 2.8516000000000004 103
9.6016 16.0469 -1.0859 7
13.9531 23.3125 3.4901999999999997 7
14.2969 23.8906 -0.9702 226
14.031199999999998 23.4375 4.1602 71
16.3438 27.3125 -0.3713 216
15.148399999999999 25.3125 5.1914 83
4.0156 6.6602 -1.3643 127
4.5469 7.5390999999999995 -1.3359 7
5.203099999999999 8.625 -1.29 162
16.4219 27.2344 1.8486000000000002 16
6.1172 10.1484 -1.2402 49
7.421900000000001 12.3125 -1.1709 125
14.1094 23.4062 2.8672000000000004 245
9.6719 16.0469 -1.0869 183
14.039100000000001 23.2812 3.4922000000000004 171
14.210899999999999 23.5781 -0.9595 15
14.023399999999999 23.25 4.1328 69
14.1797 23.5156 -0.32030000000000003 72
15.2969 25.3594 5.2148 148
4.043 6.6484000000000005 -1.3652000000000002 232
14.2656 23.4688 0.32030000000000003 2
4.5742 7.5273 -1.3369 86
16.5625 27.2344 1.1113 100
5.230499999999999 8.6016 -1.2891 164
16.5469 27.2344 1.8516 6
6.1562 10.125 -1.2412 2
7.4727 12.289100000000001 -1.1709 208
14.1719 23.3125 2.8632999999999997 159
9.7344 16.0156 -1.0879 115
14.218800000000002 23.3906 3.5156 148
14.4844 23.8125 -0.9717 233
14.1875 23.3281 4.1562 114
14.281199999999998 23.4844 -0.3206 19
14.2344 23.4062 4.8242 201
4.0625 6.6328 -1.3643 86
14.3594 23.4219 0.32030000000000003 50
4.6094 7.5234000000000005 -1.3388999999999998 251
16.6719 27.2188 1.1133 140
5.269500000000001 8.5938 -1.2919999999999998 162
16.6875 27.2188 1.8544999999999998 155
6.1914 10.1016 -1.2402 199
7.511699999999999 12.2578 -1.1709 157
14.2656 23.2812 2.8651999999999997 109
9.7812 15.968800000000002 -1.0869 247
14.101600000000001 23.0 3.4648000000000003 120
14.5078 23.6875 -0.9682999999999999 20
14.281199999999998 23.2969 4.1602 143
14.398399999999999 23.5 -0.3215 176
14.25 23.25 4.8008 148
4.0859 6.6172 -1.3643 195
14.476600000000001 23.4375 0.32130000000000003 106
4.6289 7.4961 -1.3369 214
5.3164 8.6094 -1.2959 19
6.230499999999999 10.0859 -1.2422 227
7.578099999999999 12.2656 -1.1738 108
23.2188 37.5938 4.6406 64
9.8281 15.914100000000001 -1.0859 21
14.218800000000002 23.0156 3.4745999999999997 172
14.3594 23.25 4.1602 131
14.539100000000001 23.5469 -0.32280000000000003 179
14.4453 23.3906 4.8398 220
4.1211 6.625 -1.3681999999999999 247
14.6406 23.5156 0.32299999999999995 87
4.6523 7.4727 -1.3359 129
5.3398 8.5781 -1.2949000000000002 88
17.0469 27.375 1.874 139
6.2734000000000005 10.0781 -1.2431999999999999 139
7.6289 12.2578 -1.1758 216
15.3047 24.5938 3.0410000000000004 58
9.8984 15.906199999999998 -1.0879 144
14.2656 22.9219 3.4668 201
14.0625 22.5938 4.0508 128
16.9688 27.2656 -0.37450000000000006 193
14.531199999999998 23.3438 4.8398 122
4.1445 6.609400000000001 -1.3681999999999999 139
4.6914 7.480499999999999 -1.3397999999999999 11
5.3711 8.5625 -1.2949000000000002 226
6.3203 10.0703 -1.2451 190
7.667999999999999 12.226600000000001 -1.1748 165
15.2422 24.2969 3.0098000000000003 30
9.9688 15.8906 -1.0889 143
14.3125 22.8125 3.4589999999999996 186
14.5 23.1094 4.1562 184
17.1094 27.2812 -0.3757 85
13.9453 22.2344 4.6211 228
4.168 6.5977 -1.3681999999999999 219
4.7227 7.4688 -1.3408000000000002 180
5.4102 8.5547 -1.2969 31
17.2344 27.2656 1.874 33
6.359400000000001 10.0625 -1.2470999999999999 52
7.7265999999999995 12.218800000000002 -1.1777 156
15.281199999999998 24.1719 3.002 185
10.0078 15.8281 -1.0869 103
14.3672 22.7344 3.4531 249
16.0625 25.3906 -1.0479 137
13.9375 22.0469 3.9707 38
17.2344 27.2656 -0.3762 190
13.8906 21.9688 4.5742 12
4.1875 6.578099999999999 -1.3681999999999999 155
4.75 7.4648 -1.3428 116
5.4414 8.5469 -1.2978999999999998 43
17.3594 27.2656 1.8779 118
6.4023 10.0547 -1.248 14
7.796900000000001 12.2422 -1.1816 156
15.273399999999999 24.0 2.9844 230
10.0547 15.7969 -1.0869 146
14.460899999999999 22.7188 3.4589999999999996 81
16.1406 25.3438 -1.0479 71
13.968800000000002 21.9531 3.9608999999999996 61
17.3594 27.2656 -0.3772 198
13.875 21.7969 4.5469 42
4.2188 6.578099999999999 -1.3700999999999999 80
17.5312 27.3438 0.37920000000000004 178
4.7695 7.4414 -1.3408000000000002 250
17.4531 27.2188 1.127 153
5.4727 8.5312 -1.2988 1
17.4375 27.2031 1.8779 203
6.4297 10.0312 -1.248 81
7.824199999999999 12.2031 -1.1806999999999999 105
15.3672 23.9688 2.9882999999999997 31
10.125 15.789100000000001 -1.0889 70
14.773399999999999 23.0312 3.5137 96
16.2812 25.375 -1.0508 51
14.0469 21.9062 3.9629000000000003 174
17.4688 27.25 -0.37770000000000004 24
14.0156 21.8594 4.5703 165
4.25 6.574199999999999 -1.3730000000000002 180
4.8008 7.4297 -1.3428 2
32.875 50.875 2.1133 255
5.519500000000001 8.5391 -1.3018 5
6.480499999999999 10.0234 -1.25 207
7.8789 12.1875 -1.1816 138
15.1406 23.4219 2.9257999999999997 36
10.1875 15.7578 -1.0889 109
14.8828 23.0156 3.5214999999999996 63
14.1328 21.8594 3.9629000000000003 165
17.625 27.2656 -0.3789 202
14.093800000000002 21.7969 4.5703 179
4.2812 6.5703 -1.376 182
4.8359 7.425800000000001 -1.3447 170
33.0938 50.8125 2.1172 135
5.546900000000001 8.5156 -1.3018 86
33.5625 51.5312 3.5742000000000003 129
6.5234000000000005 10.0156 -1.251 156
7.9414 12.1875 -1.1845999999999999 39
15.164100000000001 23.2812 2.9160000000000004 106
10.2422 15.718800000000002 -1.0889 233
17.0156 26.125 4.0039 241
14.6172 22.4375 4.0781 54
17.7344 27.2344 -0.37920000000000004 137
14.2031 21.8125 4.582 15
4.2969 6.546900000000001 -1.374 169
4.8672 7.417999999999999 -1.3466999999999998 150
33.3125 50.75 2.1172 224
5.574199999999999 8.4922 -1.3008000000000002 218
33.7812 51.4688 3.5781 70
6.5664 10.0 -1.2529000000000001 83
7.988300000000001 12.1719 -1.1855 157
15.164100000000001 23.0938 2.9004000000000003 74
10.3125 15.718800000000002 -1.0908 171
15.5703 23.7188 3.6445 193
14.7344 22.4531 4.0898 85
17.9062 27.2656 -0.38060000000000005 99
14.101600000000001 21.4844 4.5234 114
4.3164 6.5234000000000005 -1.3721 46
4.9023 7.4102 -1.3486000000000002 254
33.5625 50.75 2.123 101
5.6172 8.4922 -1.3047 84
6.609400000000001 9.9922 -1.2539 188
8.0469 12.164100000000001 -1.1875 210
15.226600000000001 23.0156 2.8964999999999996 196
10.3672 15.6797 -1.0908 1
16.4219 24.8281 3.8223000000000003 183
14.8125 22.3906 4.0859 244
15.7578 23.8281 -0.33299999999999996 253
14.1328 21.3594 4.5078 77
4.3438 6.519500000000001 -1.374 198
4.918 7.3789 -1.3457 175
5.6523 8.4766 -1.3056999999999999 36
18.1406 27.2188 1.9013999999999998 80
6.640599999999999 9.9688 -1.2539 167
8.1016 12.156199999999998 -1.1895 15
15.281199999999998 22.9375 2.8926 183
10.4375 15.664100000000001 -1.0928 51
15.789100000000001 23.6875 3.6562 110
14.4297 21.6562 3.9629000000000003 179
15.726600000000001 23.5938 -0.3308 237
14.2578 21.3906 4.5273 197
4.3789 6.519500000000001 -1.3769999999999998 47
18.2656 27.2188 0.3823 251
4.9453 7.363300000000001 -1.3466999999999998 82
18.2188 27.1406 1.1396 134
5.6836 8.4609 -1.3056999999999999 177
18.2344 27.1562 1.9003999999999999 27
6.6875 9.9609 -1.2568000000000001 179
8.1484 12.1328 -1.1904000000000001 78
15.3594 22.875 2.8906 196
10.4844 15.6094 -1.0908 191
14.5547 21.6719 3.3535000000000004 146
15.8281 23.5781 -0.9897 105
14.476600000000001 21.5625 3.9531 175
15.7969 23.5312 -0.3306 180
14.5078 21.6094 4.582 191
4.4023 6.5078 -1.3779 215
4.9766 7.359400000000001 -1.3477000000000001 27
18.3594 27.1406 1.1426 176
5.7227 8.4531 -1.3075999999999999 215
18.375 27.1562 1.9053 220
6.734400000000001 9.9531 -1.2588 135
8.2031 12.125 -1.1914 133
15.468800000000002 22.875 2.8983999999999996 10
10.5469 15.585899999999999 -1.0928 77
14.6172 21.6094 3.3495999999999997 21
14.5625 21.5156 3.9551 182
15.875 23.4688 -0.33030000000000004 179
14.8125 21.8906 4.6562 71
4.4219 6.488300000000001 -1.3769999999999998 54
5.0078 7.3438 -1.3486000000000002 67
18.5469 27.2031 1.1475 242
5.7422 8.4297 -1.3066 72
18.5 27.1406 1.9091999999999998 161
6.7812 9.9453 -1.2607 214
8.2344 12.0781 -1.1904000000000001 246
15.601600000000001 22.8906 2.9062 242
10.593800000000002 15.539100000000001 -1.0908 243
14.718800000000002 21.5938 3.3555 27
16.0938 23.6094 -0.9961 76
15.1094 22.1562 4.082 176
14.835899999999999 21.7656 4.6367 222
4.4375 6.4648 -1.375 254
5.0312 7.332000000000001 -1.3496000000000001 56
18.6406 27.1562 1.1484 93
5.7890999999999995 8.4297 -1.3096 61
18.6406 27.1406 1.9131 120
6.824199999999999 9.9375 -1.2627 153
8.3125 12.1094 -1.1963 34
15.781199999999998 22.9844 2.9257999999999997 21
10.656199999999998 15.523399999999999 -1.0928 145
14.8594 21.6406 3.3711 192
15.031199999999998 21.8906 4.043 117
16.1719 23.5469 -0.33299999999999996 132
14.875 21.6719 4.625 246
4.4648 6.457000000000001 -1.3769999999999998 34
5.0586 7.3164 -1.3496000000000001 60
18.8281 27.2188 1.1543 130
5.8203 8.4219 -1.3115 185
18.7812 27.1562 1.9188999999999998 136
6.855499999999999 9.9141 -1.2627 57
8.3438 12.0625 -1.1943000000000001 114
15.8594 22.9375 2.9276999999999997 196
10.75 15.5469 -1.0967 87
17.4375 25.2188 3.9395 168
16.8594 24.3906 -1.0332 18
14.781199999999998 21.375 3.957 109
18.9844 27.4531 -0.38939999999999997 226
15.1094 21.8438 4.6758 173
4.4961 6.453099999999999 -1.3788999999999998 57
5.0898 7.3047 -1.3506 239
22.5312 32.3125 1.374 11
5.859400000000001 8.4062 -1.3125 115
18.9688 27.2188 1.9277000000000002 33
6.8984000000000005 9.8984 -1.2637 252
8.4062 12.0625 -1.1973 168
15.914100000000001 22.8438 2.9219 72
10.835899999999999 15.5469 -1.0996 182
17.4688 25.0781 3.9257999999999997 139
16.7969 24.1094 -1.0244 80
14.875 21.3438 3.9608999999999996 42
19.125 27.4375 -0.3901 202
15.125 21.7031 4.6562 242
4.5195 6.4375 -1.3799000000000001 91
5.1289 7.3047 -1.3544999999999998 158
22.5156 32.0625 1.3662 43
5.886699999999999 8.3828 -1.3125 26
19.0156 27.0938 1.9238 6
6.953099999999999 9.9062 -1.2676 74
8.4531 12.039100000000001 -1.1982 101
16.75 23.8594 3.0586 238
10.898399999999999 15.523399999999999 -1.1006 137
17.9688 25.5938 4.0156 174
16.8281 23.9688 -1.0205 59
14.906199999999998 21.2344 3.9492000000000003 43
19.2656 27.4375 -0.3911 211
15.4219 21.9688 4.7266 50
4.543 6.421900000000001 -1.3788999999999998 142
5.1602 7.296900000000001 -1.3563999999999998 117
5.921900000000001 8.375 -1.3144999999999998 49
19.0781 26.9844 1.9209 70
6.9922 9.8828 -1.2686 180
16.6562 23.5625 2.3535 59
8.5156 12.039100000000001 -1.2002 253
10.960899999999999 15.5 -1.1016 106
18.0938 25.5781 4.0234 201
16.8438 23.8125 -1.0166 230
15.414100000000001 21.7969 4.0625 238
19.3906 27.4219 -0.3918 174
15.460899999999999 21.8594 4.7148 90
4.5586 6.3984000000000005 -1.3779 110
5.1836 7.2734000000000005 -1.3555000000000001 196
17.2812 24.2656 1.0391 41
5.9609000000000005 8.3672 -1.3154 74
16.8594 23.6719 1.6885 209
7.0273 9.8672 -1.2686 89
16.75 23.5 2.3535 97
8.5781 12.039100000000001 -1.2031 159
18.2812 25.6562 3.3066000000000004 163
11.0078 15.4531 -1.1016 204
18.1875 25.5156 4.0273 124
16.9062 23.7344 -1.0156 1
15.414100000000001 21.625 4.043 244
19.5469 27.4375 -0.3931 118
15.4375 21.6719 4.6836 246
4.5898 6.394500000000001 -1.3809 78
17.3125 24.125 0.3464 180
5.2148 7.265599999999999 -1.3574000000000002 201
16.9844 23.6562 1.0156 83
5.9961 8.3516 -1.3174000000000001 171
16.9062 23.5625 1.6846 80
7.0664 9.8438 -1.2686 127
17.6562 24.5938 2.4688 134
8.625 12.0156 -1.2041 49
17.875 24.9062 3.2188 200
11.101600000000001 15.460899999999999 -1.1045 50
16.9844 23.6562 3.7401999999999997 185
16.9688 23.6406 -1.0146 100
15.156199999999998 21.1094 3.957 229
17.2656 24.0625 -0.3455 78
15.476600000000001 21.5625 4.6719 22
4.6172 6.386699999999999 -1.3828 33
17.2969 23.9219 0.3442 39
5.234400000000001 7.238300000000001 -1.3555000000000001 227
17.1094 23.6562 1.0176 169
6.0273 8.3359 -1.3174000000000001 103
17.0156 23.5312 1.6865 38
7.113300000000001 9.8359 -1.2715 241
19.4375 26.8906 2.707 6
8.6719 11.9922 -1.2051 124
17.9219 24.7812 3.2108999999999996 90
11.148399999999999 15.414100000000001 -1.1045 10
15.8594 21.9375 3.4766000000000004 132
17.0469 23.5625 -1.0137 206
15.2031 21.0156 3.9492000000000003 194
17.3281 23.9688 -0.345 227
15.585899999999999 21.5625 4.6836 109
4.6484 6.3828 -1.3847999999999998 118
17.3906 23.875 0.34450000000000003 43
5.2773 7.2461 -1.3603999999999998 108
19.7969 27.1719 1.1719 205
6.0547 8.3125 -1.3174000000000001 172
19.7656 27.125 1.9502000000000002 15
7.1602 9.8281 -1.2734 145
19.5781 26.875 2.7108999999999996 27
8.7188 11.976600000000001 -1.2061 111
11.2656 15.460899999999999 -1.1104 34
15.9531 21.8906 3.4785000000000004 62
17.1406 23.5312 -1.0146 89
15.2344 20.9219 3.9395 195
17.4219 23.9062 -0.345 70
15.835899999999999 21.75 4.7344 180
4.668 6.359400000000001 -1.3838 54
17.5625 23.9375 0.3464 49
5.3086 7.234400000000001 -1.3613 2
19.9062 27.125 1.1729 140
6.0977 8.3125 -1.3203 169
19.9062 27.125 1.9550999999999998 64
7.2109000000000005 9.8281 -1.2764 81
8.7812 11.960899999999999 -1.208 110
11.3203 15.4219 -1.1104 90
16.0625 21.875 3.4863 153
17.2344 23.4844 -1.0156 122
15.3672 20.9531 3.9551 146
19.9531 27.2031 -0.3936 138
15.7422 21.4531 4.6836 129
4.6992 6.359400000000001 -1.3866999999999998 152
5.3477 7.234400000000001 -1.3652000000000002 155
20.0469 27.1406 1.1768 231
6.1328 8.2969 -1.3222999999999998 157
20.0312 27.1094 1.9580000000000002 148
7.2461 9.8047 -1.2764 93
19.8594 26.875 2.7245999999999997 23
8.8203 11.9375 -1.209 217
16.8125 22.75 2.9688 158
11.3594 15.375 -1.1094 111
16.1875 21.9062 3.498 188
17.3281 23.4531 -1.0166 36
15.460899999999999 20.9219 3.9608999999999996 137
20.0938 27.1875 -0.3945 167
15.585899999999999 21.0938 4.6172 246
4.7227 6.3477 -1.3877000000000002 52
5.375 7.2227 -1.3662 226
20.1875 27.125 1.1787 139
6.167999999999999 8.2891 -1.3232 235
20.1562 27.0938 1.9619 224
7.2812 9.7891 -1.2773 65
19.9844 26.875 2.7324 156
8.8906 11.9531 -1.2129 37
16.7656 22.5469 2.9492000000000003 66
11.4375 15.375 -1.1123 254
16.2188 21.8125 3.4901999999999997 235
17.4531 23.4531 -1.0195 186
15.835899999999999 21.2812 4.0391 81
20.25 27.2188 -0.3958 170
15.625 21.0 4.6055 99
4.7617 6.3477 -1.3916 77
20.4219 27.25 0.3972 13
5.394500000000001 7.199199999999999 -1.3652000000000002 198
20.4219 27.2344 1.1865 202
6.199199999999999 8.2734 -1.3241999999999998 179
20.3438 27.1406 1.9707 214
7.328099999999999 9.7734 -1.2793 246
8.9375 11.914100000000001 -1.2129 96
16.8594 22.4844 2.9492000000000003 150
11.4922 15.3281 -1.1113 115
15.835899999999999 21.125 3.3906 216
17.5781 23.4375 -1.0215 189
15.8281 21.1094 4.0156 25
20.3906 27.2031 -0.3967 230
15.6797 20.9062 4.6016 147
4.7891 6.3398 -1.3936000000000002 189
20.6094 27.2812 0.39890000000000003 237
5.4297 7.1914 -1.3672 171
20.5781 27.2344 1.1904000000000001 56
6.2265999999999995 8.2422 -1.3232 135
20.4844 27.125 1.9756 223
7.3789 9.7734 -1.2822 120
8.9844 11.898399999999999 -1.2139 72
16.5312 21.8906 2.8789 110
11.5469 15.289100000000001 -1.1123 106
15.898399999999999 21.0469 3.3887 59
17.7656 23.5312 -1.0283 166
15.851600000000001 20.9844 4.0039 245
20.5312 27.1875 -0.3975 52
15.7656 20.875 4.6055 222
4.8086 6.3203 -1.3936000000000002 2
20.7344 27.25 0.3997 196
5.4688 7.1875 -1.3711000000000002 122
20.7188 27.25 1.1934 124
6.261699999999999 8.2344 -1.3252000000000002 204
20.6406 27.125 1.9805000000000001 208
7.421900000000001 9.7578 -1.2841999999999998 235
20.4375 26.8594 2.7539 164
9.0469 11.8906 -1.2168 213
16.5312 21.7188 2.8651999999999997 110
11.6094 15.2578 -1.1133 171
15.914100000000001 20.9219 3.377 96
15.968800000000002 21.0 4.0156 152
20.6562 27.1562 -0.3982 74
15.8594 20.8438 4.6094 190
4.8281 6.300800000000001 -1.3925999999999998 233
5.5039 7.1836 -1.374 126
