# .PCD v0.7 - Point Cloud Data file format
VERSION 0.7
FIELDS x y z intensity
SIZE 4 4 4 4
TYPE F F F F
COUNT 1 1 1 1
WIDTH 1234
HEIGHT 1
VIEWPOINT 0 0 0 1 0 0 0
POINTS 1234
DATA ascii
-8.8594 -3.4082 1.2158 62
-11.843800000000002 -4.5547 1.9277000000000002 183
-12.1094 -4.6562 2.2793 168
-3.0273000000000003 -1.1523 -0.564 108
-3.2577999999999996 -1.2393 0.039900000000000005 198
-3.0410000000000004 -1.1572 -0.48969999999999997 120
-13.523399999999999 -5.144500000000001 0.5034000000000001 2
-3.1191000000000004 -1.1865 -0.4236 11
-13.539100000000001 -5.1523 0.8403 254
-13.531199999999998 -5.1484000000000005 1.1787 137
-9.0078 -3.4276999999999997 1.0088 69
-8.875 -3.377 1.2158 166
-11.8281 -4.5 1.9238 21
-10.0312 -3.8164 1.8847999999999998 49
-3.0273000000000003 -1.1396 -0.563 93
-3.2617000000000003 -1.2285 0.039900000000000005 74
-3.0410000000000004 -1.1445 -0.4888 102
-13.531199999999998 -5.0938 0.5029 184
-3.123 -1.1758 -0.4236 204
-13.539100000000001 -5.0977 0.8393999999999999 152
-13.531199999999998 -5.0938 1.1768 184
-8.9844 -3.3827999999999996 1.0049 148
-8.8984 -3.3495999999999997 1.2178 192
-8.8359 -3.3281 1.4336000000000002 112
-10.0312 -3.7773000000000003 1.8828 69
-3.0156 -1.124 -0.5600999999999999 171
-3.2733999999999996 -1.2197 0.039900000000000005 244
-3.043 -1.1348 -0.4888 37
-13.523399999999999 -5.0391 0.502 233
-3.1719 -1.1816 -0.4299 33
-13.539100000000001 -5.043 0.8379000000000001 37
-13.531199999999998 -5.043 1.1758 199
-8.9766 -3.3457 1.002 98
-12.0469 -4.4922 1.6484 118
-8.8359 -3.293 1.4316 94
-12.101600000000001 -4.5117 2.2715 109
-3.0039 -1.1084 -0.5571 206
-3.2422000000000004 -1.1963 0.0395 131
-3.0488 -1.125 -0.4893 77
-13.531199999999998 -4.9922 0.502 178
-3.1757999999999997 -1.1709 -0.4299 59
-13.531199999999998 -4.9922 0.8364 139
-13.539100000000001 -4.9961 1.1748 101
-9.0 -3.3183999999999996 1.0029000000000001 250
-12.0469 -4.4453 1.6465 17
-8.8594 -3.2676 1.4336000000000002 208
-12.093800000000002 -4.4609 2.2656 103
-3.0117000000000003 -1.0986 -0.5581 68
-3.2207 -1.1748 0.0392 195
-3.0332 -1.1064 -0.4858 21
-13.531199999999998 -4.9336 0.501 56
-3.1348000000000003 -1.1436 -0.4236 250
-13.523399999999999 -4.9336 0.835 63
-13.531199999999998 -4.9375 1.1729 72
-9.0156 -3.2870999999999997 1.0039 124
-12.0547 -4.3984 1.6455000000000002 3
-8.8906 -3.2422000000000004 1.4365 201
-12.093800000000002 -4.4102 2.2617 174
-3.0098000000000003 -1.0859 -0.5571 94
-3.2422000000000004 -1.1699 0.0394 156
-3.043 -1.0977 -0.4868 45
-13.523399999999999 -4.8789 0.5005 106
-3.1387 -1.1328 -0.4236 163
-13.531199999999998 -4.8828 0.8340000000000001 252
-13.5078 -4.875 1.1699 201
-9.0234 -3.2558999999999996 1.0039 74
-12.1953 -4.3984 1.6621000000000001 137
-11.8594 -4.2773 1.916 64
-8.875 -3.2012 1.6562000000000001 202
-3.0137 -1.0752 -0.5571 225
-3.2461 -1.1572 0.0394 83
-3.0410000000000004 -1.085 -0.4858 140
-13.523399999999999 -4.8242 0.49979999999999997 124
-3.1426 -1.1211 -0.4236 147
-13.531199999999998 -4.8281 0.8334999999999999 86
-13.5078 -4.8203 1.168 200
-9.0469 -3.2245999999999997 1.0049 139
-12.2031 -4.3555 1.6611000000000002 136
-11.8125 -4.2148 1.9062000000000001 97
-8.0234 -2.8632999999999997 1.4950999999999999 4
-3.0098000000000003 -1.0615 -0.5552 27
-3.2539 -1.1475 0.0394 95
-3.0410000000000004 -1.0723 -0.4851 152
-13.523399999999999 -4.7695 0.499 84
-3.1464999999999996 -1.1104 -0.4236 124
-13.5156 -4.7695 0.8315 11
-13.5156 -4.7695 1.167 157
-9.0625 -3.1973000000000003 1.0059 5
-12.210899999999999 -4.3047 1.6602000000000001 15
-11.8203 -4.168 1.9043 200
-8.0234 -2.8301 1.4931999999999999 169
-2.9961 -1.0459 -0.5522 62
-3.2266000000000004 -1.126 0.0391 25
-3.0410000000000004 -1.0615 -0.48460000000000003 45
-13.523399999999999 -4.7227 0.4985 106
-3.1504000000000003 -1.0996 -0.4236 168
-13.5156 -4.7148 0.8301000000000001 90
-13.531199999999998 -4.7227 1.167 51
-12.351600000000001 -4.3125 1.3711000000000002 0
-12.2031 -4.2578 1.6572 210
-11.8281 -4.1289 1.9043 74
-8.9141 -3.1094 1.6572 171
-3.0 -1.0361 -0.5522 93
-3.2245999999999997 -1.1133 0.039 24
-3.0449 -1.0508 -0.48460000000000003 126
-13.523399999999999 -4.668 0.4978 182
-3.1543 -1.0889 -0.4236 235
-13.5156 -4.668 0.8295999999999999 156
-9.1328 -3.1523000000000003 0.7852 60
-12.351600000000001 -4.2656 1.3691 93
-9.3047 -3.2129000000000003 1.2607 231
-11.8906 -4.1055 1.9111000000000002 142
-8.2031 -2.8339999999999996 1.5234 69
-3.0137 -1.0283 -0.5542 164
-3.2266000000000004 -1.1016 0.039 27
-3.0312 -1.0342 -0.4819 85
-13.531199999999998 -4.6172 0.4976 188
-3.1094 -1.0605 -0.41700000000000004 1
-13.6328 -4.6523 0.8354 18
-9.1016 -3.1055 0.7817000000000001 242
-9.2891 -3.1699 1.0273 94
-9.3281 -3.1816000000000004 1.2617 255
-9.6953 -3.3086 1.5556999999999999 18
-12.093800000000002 -4.1289 2.2461 62
-3.0058999999999996 -1.0146 -0.5522 27
-3.2266000000000004 -1.0889 0.038900000000000004 42
-3.043 -1.0264 -0.4832 209
-13.6953 -4.6211 0.5029 38
-3.1620999999999997 -1.0664 -0.4236 232
-13.789100000000001 -4.6484 0.8438 86
-9.1016 -3.0702999999999996 0.7807999999999999 225
-9.2344 -3.1132999999999997 1.0195 228
-12.210899999999999 -4.1172 1.6513999999999998 225
-8.0625 -2.7207 1.291 110
-8.0859 -2.7266000000000004 1.4971 59
-2.9961 -0.9984999999999999 -0.5493 16
-3.2461 -1.082 0.0391 132
-3.0488 -1.0166 -0.48340000000000005 163
-3.127 -1.043 -0.41869999999999996 191
-14.1328 -4.7109 0.8643000000000001 225
-9.1172 -3.0410000000000004 0.7812 238
-9.2422 -3.0801 1.0186 57
-12.1953 -4.0664 1.6484 221
-8.0469 -2.6836 1.2871000000000001 46
-8.1094 -2.7051 1.5 103
-2.9901999999999997 -0.9858 -0.5478999999999999 151
-3.2266000000000004 -1.0635 0.0388 214
-3.043 -1.0029000000000001 -0.48219999999999996 26
-3.4336 -1.1318000000000001 0.1245 232
-3.1952999999999996 -1.0527 -0.42719999999999997 190
-14.281199999999998 -4.707 0.8726 150
-9.125 -3.0077999999999996 0.7812 227
-12.3594 -4.0703 1.3633000000000002 228
-12.2031 -4.0195 1.6465 88
-8.0703 -2.6582 1.2891 158
-12.0781 -3.9785000000000004 2.2344 52
-3.002 -0.9775 -0.5493 151
-3.2188 -1.0488 0.0387 246
-3.0332 -0.9878 -0.4797 104
-3.3887 -1.1035 0.12269999999999999 65
-3.1719 -1.0332 -0.4236 221
-9.1406 -2.9766000000000004 0.5566 31
-9.1328 -2.9745999999999997 0.7812 107
-12.3672 -4.0273 1.3622999999999998 213
-12.1797 -3.9668 1.6425999999999998 114
-8.6172 -2.8066000000000004 1.375 70
-12.0781 -3.9336 2.2324 156
-2.998 -0.9648 -0.5478999999999999 141
-3.2305 -1.04 0.0388 122
-3.0332 -0.9765999999999999 -0.47950000000000004 60
-3.373 -1.0859 0.1219 204
-3.1464999999999996 -1.0127 -0.41969999999999996 103
-9.1406 -2.9414 0.5562 136
-9.1875 -2.9551 0.7842 227
-12.3672 -3.9805 1.3613 78
-12.1797 -3.9219 1.6406 239
-8.8281 -2.8418 1.4082 157
-8.8984 -2.8632999999999997 1.6406 252
-3.002 -0.9545999999999999 -0.5478999999999999 184
-3.2382999999999997 -1.0293 0.0388 25
-3.0312 -0.9639 -0.47850000000000004 11
-3.3613 -1.0693000000000001 0.12140000000000001 127
-3.1797000000000004 -1.0107 -0.4236 10
-9.1328 -2.9023000000000003 0.5547 166
-14.8047 -4.707 1.2656 216
-12.351600000000001 -3.9276999999999997 1.3574000000000002 151
-12.1875 -3.877 1.6396000000000002 164
-12.085899999999999 -3.8418 2.2285 232
-2.9961 -0.9409000000000001 -0.5464 151
-3.2363 -1.0166 0.0388 217
-3.0332 -0.9526 -0.4783 47
-3.377 -1.0605 0.12179999999999999 236
-3.1836 -1.0 -0.4236 179
-9.1016 -2.8594 0.5522 131
-14.9922 -4.7109 1.2803 196
-12.343800000000002 -3.877 1.3555000000000001 140
-12.1797 -3.8262 1.6366999999999998 122
-12.0781 -3.793 2.2246 3
-2.9844 -0.9262999999999999 -0.5439 97
-3.2382999999999997 -1.0049 0.0387 30
-3.0449 -0.9453 -0.4797 105
-3.3613 -1.043 0.1211 134
-3.1875 -0.9887999999999999 -0.4236 27
-9.0938 -2.8223000000000003 0.5513 164
-15.1875 -4.7148 1.2949000000000002 187
-12.3594 -3.8339999999999996 1.3555000000000001 162
-12.1172 -3.7598000000000003 1.626 199
-12.0703 -3.7441000000000004 2.2207 60
-2.9941000000000004 -0.9175 -0.5449 114
-3.2148000000000003 -0.9854 0.0384 131
-3.0391000000000004 -0.9316 -0.4783 241
-3.373 -1.0342 0.12140000000000001 148
-9.1016 -2.7891000000000004 0.5513 33
-9.1172 -2.7949 0.7754000000000001 11
-12.3594 -3.7870999999999997 1.3535 188
-12.1406 -3.7207 1.6279 247
-8.9141 -2.7324 1.416 116
-12.0781 -3.7031 2.2207 125
-2.998 -0.9077 -0.5449 213
-3.2285000000000004 -0.978 0.0385 9
-3.0254000000000003 -0.9165000000000001 -0.4756 250
-3.3457 -1.0137 0.12029999999999999 41
-9.1094 -2.7598000000000003 0.5513 172
-9.0938 -2.7558999999999996 0.7725 69
-12.3594 -3.7422000000000004 1.3525 66
-12.156199999999998 -3.6816000000000004 1.6279 42
-8.9141 -2.6992000000000003 1.4141 102
-12.085899999999999 -3.6601999999999997 2.2188 177
-3.0 -0.8979 -0.5449 20
-3.2558999999999996 -0.9741 0.0388 130
-3.0293 -0.9062 -0.4756 94
-3.3438 -1.001 0.1201 54
-9.1484 -2.7363 0.5527000000000001 193
-9.1094 -2.7266000000000004 0.7729 42
-12.414100000000001 -3.7148000000000003 1.3574000000000002 146
-12.1875 -3.6464999999999996 1.6309 244
-11.8594 -3.5488 1.8818000000000001 170
-12.085899999999999 -3.6172000000000004 2.2168 157
-2.9882999999999997 -0.8818 -0.542 23
-3.252 -0.9595 0.0387 50
-3.0410000000000004 -0.8975 -0.4771 215
-3.3398000000000003 -0.9854 0.1198 46
-15.4375 -4.5547 0.9336 251
-9.1406 -2.6973000000000003 0.7744 156
-9.0625 -2.6757999999999997 0.9887999999999999 173
-12.1875 -3.5957 1.6288999999999998 47
-11.835899999999999 -3.4922000000000004 1.875 155
-12.0703 -3.5605 2.2109 187
-2.9901999999999997 -0.8711 -0.5415 140
-3.2656 -0.9512 0.038900000000000004 125
-3.0214999999999996 -0.8804000000000001 -0.47340000000000004 24
-3.3651999999999997 -0.9804999999999999 0.1206 210
-9.1484 -2.6660000000000004 0.7748999999999999 72
-9.0859 -2.6464999999999996 0.9902 226
-12.164100000000001 -3.5449 1.625 21
-11.789100000000001 -3.4336 1.8662 105
-8.8125 -2.5683999999999996 1.6113 84
-2.9785000000000004 -0.8569 -0.5390999999999999 25
-3.25 -0.9351 0.038599999999999995 212
-3.0214999999999996 -0.8691 -0.4729 246
-3.3555 -0.9653 0.1201 132
-3.207 -0.9224 -0.4236 121
-9.2031 -2.6483999999999996 0.7787999999999999 175
-12.3672 -3.5586 1.3486000000000002 242
-8.9531 -2.5762 1.1924 95
-11.835899999999999 -3.4062 1.8721 81
-12.085899999999999 -3.4766000000000004 2.2109 19
-2.9901999999999997 -0.8495999999999999 -0.5405 196
-3.2598000000000003 -0.9262999999999999 0.0387 75
-3.0077999999999996 -0.8545 -0.4702 190
-3.3281 -0.9453 0.11900000000000001 154
-15.4844 -4.3984 0.9340999999999999 174
-15.4375 -4.3867 1.3075999999999999 215
-12.398399999999999 -3.5214999999999996 1.3496000000000001 129
-8.9609 -2.5449 1.1924 135
-8.9141 -2.5332 1.4072 120
-12.085899999999999 -3.4336 2.207 205
-2.998 -0.8398 -0.5415 144
-3.2714999999999996 -0.9165000000000001 0.0388 126
-3.0117000000000003 -0.8438 -0.4705 191
-3.3281 -0.9320999999999999 0.1189 146
-3.2129000000000003 -0.8998999999999999 -0.4236 59
-15.5 -4.3398 0.9336 142
-15.4453 -4.3281 1.3066 68
-9.2891 -2.6016000000000004 1.0088 93
-8.9688 -2.5117 1.1924 230
-8.9297 -2.502 1.4072 203
-12.085899999999999 -3.3848000000000003 2.2051 54
-2.9863 -0.8251999999999999 -0.5390999999999999 35
-3.0214999999999996 -0.835 -0.4714 63
-3.3379000000000003 -0.9229 0.1191 26
-3.2168 -0.8887 -0.4236 70
-21.9375 -6.0625 1.3222999999999998 16
-15.460899999999999 -4.2734 1.3066 112
-9.2656 -2.5625 1.0059 104
-12.2031 -3.373 1.6230000000000002 50
-8.8906 -2.457 1.3994 160
-12.0781 -3.3379000000000003 2.2012 118
-2.9785000000000004 -0.812 -0.5366 76
-3.0332 -0.8267 -0.4729 60
-3.3339999999999996 -0.9092 0.1189 242
-3.2188 -0.8774 -0.4236 165
-21.9531 -5.984400000000001 1.3213 70
-15.468800000000002 -4.2188 1.3056999999999999 160
-9.3203 -2.541 1.0107 228
-12.2031 -3.3262 1.6211000000000002 49
-11.8047 -3.2188 1.8594 142
-12.0703 -3.2910000000000004 2.1992 15
-2.9805 -0.8012999999999999 -0.5366 99
-3.0077999999999996 -0.8086 -0.4683 13
-3.3495999999999997 -0.9004000000000001 0.1193 194
-3.2226999999999997 -0.8662000000000001 -0.4236 34
-20.8125 -5.5977 1.252 53
-15.4531 -4.1562 1.3037 150
-9.3281 -2.5078 1.0107 186
-12.2031 -3.2812 1.6200999999999999 74
-8.8438 -2.3789 1.3896000000000002 224
-12.0703 -3.2461 2.1973 121
-2.9824 -0.7909999999999999 -0.5366 214
-3.0058999999999996 -0.7968999999999999 -0.4678 126
-3.3476999999999997 -0.8876999999999999 0.1191 72
-3.2245999999999997 -0.855 -0.4236 100
-19.5625 -5.1875 1.1748 48
-15.4375 -4.0938 1.3008000000000002 170
-9.3438 -2.4766 1.0107 226
-12.218800000000002 -3.2401999999999997 1.6200999999999999 145
-9.0312 -2.3945 1.4188999999999998 78
-12.085899999999999 -3.2051 2.1973 194
-2.9863 -0.7807999999999999 -0.5366 213
-3.0156 -0.7886 -0.469 225
-3.3007999999999997 -0.8628 0.1174 116
-19.8594 -5.1914 1.1914 197
-15.4531 -4.0391 1.3008000000000002 64
-9.3672 -2.4492 1.0127 4
-12.2344 -3.1992000000000003 1.6211000000000002 177
-9.0625 -2.3691 1.4219 6
-8.6875 -2.2715 1.5752000000000002 243
-2.9766000000000004 -0.7670999999999999 -0.5347 59
-3.0156 -0.7768999999999999 -0.4683 214
-3.3202999999999996 -0.8554999999999999 0.11789999999999999 83
-12.406199999999998 -3.1952999999999996 0.7426999999999999 49
-12.4219 -3.2012 1.0439 60
-9.3828 -2.418 1.0137 2
-12.218800000000002 -3.1483999999999996 1.6181999999999999 146
-11.781199999999998 -3.0370999999999997 1.8486000000000002 14
-12.031199999999998 -3.0995999999999997 2.1836 203
-2.9766000000000004 -0.7559 -0.5342 142
-3.0137 -0.7656000000000001 -0.4678 15
-3.3418 -0.8486 0.1186 48
-12.375 -3.1426 0.7402 40
-12.3906 -3.1464999999999996 1.041 144
-9.4219 -2.3926 1.0166 71
-12.218800000000002 -3.1035000000000004 1.6162 137
-11.789100000000001 -2.9922000000000004 1.8477000000000001 250
-11.976600000000001 -3.0410000000000004 2.1719 194
-2.9785000000000004 -0.7456 -0.5342 7
-3.0156 -0.7544 -0.4675 121
-3.3145 -0.8291 0.1175 28
-3.2363 -0.8101 -0.4236 25
-12.335899999999999 -3.0858999999999996 0.7368000000000001 45
-12.3828 -3.0976999999999997 1.0391 76
-9.4531 -2.3652 1.0195 82
-12.2031 -3.0526999999999997 1.6122999999999998 37
-11.7969 -2.9512 1.8477000000000001 11
-11.8828 -2.9745999999999997 2.1523 124
-2.9844 -0.7358 -0.5347 14
-3.0039 -0.7406999999999999 -0.4653 131
-3.2969 -0.813 0.1168 25
-12.351600000000001 -3.0449 0.7373000000000001 32
-12.3672 -3.0488 1.0371 229
-9.5078 -2.3438 1.0244 137
-12.226600000000001 -3.0156 1.6152000000000002 228
-11.7969 -2.9082 1.8457 191
-11.835899999999999 -2.918 2.1426 192
-2.9882999999999997 -0.7256 -0.5347 193
-3.0098000000000003 -0.731 -0.4658 198
-3.2891000000000004 -0.7983 0.1164 123
-12.3672 -3.0039 0.7378 51
-12.3828 -3.0077999999999996 1.0371 178
-9.5469 -2.3184 1.0283 64
-12.226600000000001 -2.9688 1.6122999999999998 161
-11.8203 -2.8711 1.8486000000000002 55
-9.2031 -2.2344 1.6621000000000001 211
-2.9707 -0.7104 -0.5312 44
-3.0195 -0.7222 -0.4668 55
-3.2910000000000004 -0.7870999999999999 0.1164 73
-12.3906 -2.9629000000000003 0.7387999999999999 85
-12.4297 -2.9726999999999997 1.04 96
-12.3906 -2.9629000000000003 1.335 254
-9.6641 -2.3105 1.2725 100
-9.6719 -2.3125 1.5097999999999998 75
-9.1953 -2.1992 1.6602000000000001 247
-2.9707 -0.6997 -0.5307999999999999 70
-3.0176 -0.7104 -0.46630000000000005 148
-3.293 -0.7754000000000001 0.1164 81
-12.4453 -2.9297000000000004 0.7412000000000001 199
-12.523399999999999 -2.9492000000000003 1.0479 28
-12.4375 -2.9276999999999997 1.3378999999999999 210
-9.6484 -2.2715 1.2695 127
-9.6641 -2.2754 1.5068000000000001 183
-9.1953 -2.166 1.6591999999999998 99
-2.9785000000000004 -0.6904 -0.5317000000000001 3
-3.0039 -0.6962999999999999 -0.4639 87
-3.2733999999999996 -0.7587999999999999 0.1155 28
-3.25 -0.7534000000000001 -0.4236 110
-12.5547 -2.9101999999999997 0.7471 251
-13.476600000000001 -3.123 1.126 55
-13.5078 -3.1308999999999996 1.4521000000000002 83
-9.6484 -2.2363 1.2686 125
-9.6719 -2.2422 1.5078 213
-11.773399999999999 -2.7285000000000004 2.123 37
-2.9805 -0.6807 -0.5317000000000001 20
-3.0 -0.6851 -0.46259999999999996 192
-3.2637 -0.7456 0.1151 186
-13.476600000000001 -3.0781 0.8012999999999999 79
-13.4531 -3.0742000000000003 1.123 10
-13.476600000000001 -3.0801 1.4482 47
-9.6797 -2.2109 1.2715 188
-9.7031 -2.2188 1.5116999999999998 100
-9.5938 -2.1934 1.7285 211
-2.9824 -0.6709 -0.5317000000000001 22
-3.0039 -0.6758 -0.4629 140
-3.2577999999999996 -0.7329000000000001 0.1148 105
-13.4922 -3.0351999999999997 0.8022 167
-13.468800000000002 -3.0293 1.124 157
-13.4844 -3.0332 1.4482 172
-12.2422 -2.7539 1.6084 224
-11.9453 -2.6875 1.8603999999999998 170
-9.5938 -2.1582 1.7266 131
-2.9785000000000004 -0.6581999999999999 -0.5307999999999999 90
-3.0098000000000003 -0.665 -0.4636 19
-3.25 -0.7182999999999999 0.1144 182
-13.4844 -2.9785000000000004 0.8008 70
-13.476600000000001 -2.9785000000000004 1.124 74
-13.468800000000002 -2.9766000000000004 1.4453 17
-12.2422 -2.7051 1.6074000000000002 210
-9.8672 -2.1797 1.5341999999999998 7
-9.5938 -2.1211 1.7256 236
-2.9668 -0.6445000000000001 -0.5278 34
-3.0137 -0.6548 -0.4639 43
-3.2637 -0.7095 0.1148 153
-13.468800000000002 -2.9257999999999997 0.7993000000000001 27
-13.468800000000002 -2.9257999999999997 1.1220999999999999 33
-13.468800000000002 -2.9276999999999997 1.4443000000000001 110
-12.25 -2.6620999999999997 1.6063999999999998 155
-9.9062 -2.1523 1.5391 157
-9.5938 -2.0859 1.7246000000000001 252
-2.9688 -0.6347999999999999 -0.5278 165
-3.0 -0.6416 -0.46140000000000003 80
-3.2617000000000003 -0.6978 0.11470000000000001 169
-13.476600000000001 -2.8808999999999996 0.7988 86
-13.476600000000001 -2.8827999999999996 1.1220999999999999 88
-13.468800000000002 -2.8789 1.4434 18
-12.2422 -2.6172000000000004 1.6044999999999998 44
-12.0547 -2.5781 1.8730000000000002 134
-9.8828 -2.1133 1.7753999999999999 61
-2.9668 -0.624 -0.5268999999999999 205
-3.0039 -0.6323 -0.4617 236
-3.2324 -0.6801999999999999 0.11359999999999999 124
-3.2656 -0.687 -0.4236 38
-13.468800000000002 -2.8339999999999996 0.7983 34
-13.460899999999999 -2.832 1.1201 208
-13.476600000000001 -2.8339999999999996 1.4424000000000001 205
-12.2422 -2.5762 1.6044999999999998 246
-12.0703 -2.5391 1.874 149
-9.8359 -2.0684 1.7646000000000002 154
-2.9844 -0.6162 -0.5297999999999999 96
-3.0039 -0.6201 -0.4612 129
-3.2382999999999997 -0.6689 0.11359999999999999 124
-13.4922 -2.7870999999999997 0.7993000000000001 183
-13.5156 -2.7910000000000004 1.124 3
-13.460899999999999 -2.7812 1.4404 84
-12.25 -2.5293 1.6035 191
-12.0703 -2.4922 1.8730000000000002 2
-11.7656 -2.4297 2.1113 71
-2.9707 -0.6025 -0.5268999999999999 127
-3.0077999999999996 -0.6103999999999999 -0.46140000000000003 146
-3.2714999999999996 -0.6636 0.11470000000000001 11
-13.539100000000001 -2.748 0.8012999999999999 209
-13.5625 -2.752 1.127 240
-13.4531 -2.7305 1.4385 211
-12.2578 -2.4863 1.6035 202
-12.0781 -2.4512 1.8730000000000002 93
-11.7344 -2.3809 2.1055 145
-2.957 -0.5889 -0.5244 250
-3.0156 -0.6001 -0.46240000000000003 118
-3.2266000000000004 -0.6426000000000001 0.1131 107
-13.5781 -2.7031 0.8027 151
-13.5781 -2.7031 1.1279000000000001 118
-13.468800000000002 -2.6816000000000004 1.4385 65
-12.2422 -2.4375 1.5996000000000001 221
-12.101600000000001 -2.4102 1.875 79
-11.773399999999999 -2.3438 2.1094 10
-2.9688 -0.5806 -0.5259 146
-3.0058999999999996 -0.5874 -0.4604 249
-3.2441000000000004 -0.6343 0.11359999999999999 44
-13.5781 -2.6543 0.8022 185
-13.585899999999999 -2.6562 1.127 141
-13.4844 -2.6348000000000003 1.4394999999999998 75
-12.2422 -2.3926 1.5986000000000002 138
-12.1094 -2.3672 1.875 248
-11.7656 -2.3008 2.1074 35
-2.9745999999999997 -0.5713 -0.5268999999999999 64
-2.998 -0.5757 -0.45899999999999996 192
-3.2344 -0.6211 0.11320000000000001 13
-3.1797000000000004 -0.6103999999999999 -0.41090000000000004 74
-13.601600000000001 -2.6113 0.8031999999999999 113
-13.585899999999999 -2.6094 1.126 231
-13.4922 -2.5898000000000003 1.4394999999999998 158
-12.25 -2.3516 1.5986000000000002 110
-11.9453 -2.293 1.8477000000000001 75
-11.781199999999998 -2.2617 2.1074 211
-2.9785000000000004 -0.5615 -0.5268999999999999 135
-3.0039 -0.5664 -0.4597 36
-3.2382999999999997 -0.6108 0.1133 163
-3.123 -0.5889 -0.4033 193
-13.593800000000002 -2.5645 0.8022 20
-13.5781 -2.5605 1.125 91
-13.460899999999999 -2.5391 1.4355000000000002 123
-12.2422 -2.3086 1.5966999999999998 100
-11.843800000000002 -2.2324 1.8311000000000002 130
-11.789100000000001 -2.2227 2.1074 62
-2.9707 -0.5483 -0.5254 240
-3.0077999999999996 -0.5552 -0.46 141
-3.2245999999999997 -0.5957 0.1127 159
-3.0938 -0.5713 -0.3992 204
-13.585899999999999 -2.5078 0.8012999999999999 111
-13.585899999999999 -2.5078 1.125 78
-13.4531 -2.4824 1.4325999999999999 148
-12.2578 -2.2617 1.5977000000000001 40
-11.851600000000001 -2.1875 1.8311000000000002 57
-11.773399999999999 -2.1738 2.1035 125
-2.9608999999999996 -0.5361 -0.5234000000000001 203
-3.0137 -0.5454 -0.4604 25
-3.2324 -0.585 0.11289999999999999 211
-3.0469 -0.5518 -0.39280000000000004 192
-13.5703 -2.4551 0.7998000000000001 95
-3.0995999999999997 -0.561 -0.3267 237
-13.593800000000002 -2.4609 1.125 190
-13.468800000000002 -2.4395 1.4346 53
-12.2656 -2.2207 1.5977000000000001 131
-11.8672 -2.1484 1.8319999999999999 147
-11.773399999999999 -2.1309 2.1016 163
-2.9629000000000003 -0.5259 -0.5234000000000001 216
-3.0098000000000003 -0.5342 -0.4597 44
-3.2382999999999997 -0.5742 0.113 209
-3.0781 -0.5459 -0.3967 0
-13.5781 -2.4082 0.7998000000000001 17
-3.1172000000000004 -0.5532 -0.3281 17
-13.5781 -2.4102 1.123 5
-3.0702999999999996 -0.5444 -0.251 90
-13.476600000000001 -2.3906 1.4346 107
-3.0957 -0.5493 -0.18030000000000002 26
-12.2422 -2.1719 1.5937999999999999 227
-12.023399999999999 -2.1328 1.8555000000000001 164
-11.773399999999999 -2.0879 2.0996 46
-2.9726999999999997 -0.5166 -0.5244 57
-2.998 -0.521 -0.4575 132
-3.2363 -0.5625 0.11289999999999999 110
-3.0723000000000003 -0.5342 -0.39549999999999996 252
-13.585899999999999 -2.3613 0.7998000000000001 250
-3.0645 -0.5327000000000001 -0.3223 168
-13.585899999999999 -2.3613 1.1220999999999999 253
-3.0995999999999997 -0.5386 -0.2532 49
-13.4922 -2.3457 1.4346 22
-3.1738 -0.5513 -0.18469999999999998 223
-12.2578 -2.1309 1.5947 82
-3.1445 -0.5464 -0.1097 255
-12.1172 -2.1055 1.8691 188
-11.773399999999999 -2.0469 2.0996 17
-2.9668 -0.5049 -0.5234000000000001 229
-3.002 -0.5107 -0.4578 171
-3.2266000000000004 -0.5488000000000001 0.1125 88
-3.1016000000000004 -0.5278 -0.3992 181
-13.585899999999999 -2.3125 0.7993000000000001 79
-3.0938 -0.5268999999999999 -0.32520000000000004 51
-13.5781 -2.3105 1.1211 106
-3.1016000000000004 -0.5278 -0.2532 228
-13.4922 -2.2969 1.4336000000000002 178
-12.2656 -2.0879 1.5947 228
-3.2461 -0.5522 -0.11320000000000001 111
-12.1094 -2.0605 1.8662 164
-3.1543 -0.5371 -0.0365 41
-11.781199999999998 -2.0039 2.0996 35
-2.9629000000000003 -0.49369999999999997 -0.5225 193
-3.2363 -0.5396 0.0375 7
-3.0156 -0.5024000000000001 -0.4597 189
-3.2344 -0.5386 0.1127 216
-3.0332 -0.5054 -0.3899 242
-13.5781 -2.2617 0.7983 163
-3.0957 -0.5161 -0.32520000000000004 250
-13.5781 -2.2617 1.1201 112
-3.1035000000000004 -0.5171 -0.2532 24
-13.4922 -2.248 1.4325999999999999 132
-12.2656 -2.043 1.5937999999999999 190
-12.101600000000001 -2.0176 1.8652000000000002 24
-11.773399999999999 -1.9619 2.0977 98
-2.9551 -0.4827 -0.5205 164
-3.0176 -0.4929 -0.4597 179
-3.2266000000000004 -0.5273 0.1124 31
-3.0664 -0.501 -0.39399999999999996 216
-13.5469 -2.2129 0.7959 72
-3.0898000000000003 -0.5049 -0.3245 102
-13.5703 -2.2168 1.1191 222
-3.1151999999999997 -0.5093 -0.25420000000000004 181
-13.5078 -2.207 1.4336000000000002 36
-3.3007999999999997 -0.5390999999999999 -0.19190000000000002 160
-12.25 -2.002 1.5918 43
-12.1172 -1.9794999999999998 1.8662 228
-11.7578 -1.9209 2.0918 49
-2.9688 -0.47490000000000004 -0.5225 246
-3.0 -0.48 -0.4568 109
-3.2422000000000004 -0.519 0.11289999999999999 183
-3.0273000000000003 -0.48460000000000003 -0.3889 36
-13.531199999999998 -2.166 0.7948999999999999 19
-3.0566000000000004 -0.489 -0.3208 120
-13.523399999999999 -2.1641 1.1152 99
-3.0938 -0.4951 -0.2522 167
-13.476600000000001 -2.1562 1.4297 198
-3.1641000000000004 -0.5063 -0.1837 212
-12.2578 -1.9609 1.5918 67
-3.25 -0.52 -0.11320000000000001 71
-12.125 -1.9404 1.8662 172
-11.7656 -1.8818000000000001 2.0938 198
-2.9668 -0.46240000000000003 -0.522 27
-2.9961 -0.467 -0.4561 48
-3.2108999999999996 -0.5005 0.1117 240
-3.0526999999999997 -0.47609999999999997 -0.3921 83
-13.468800000000002 -2.0996 0.7905 255
-3.0702999999999996 -0.47850000000000004 -0.322 253
-13.4375 -2.0957 1.1074 15
-3.127 -0.4875 -0.25489999999999996 25
-13.460899999999999 -2.0977 1.4277000000000002 16
-3.2051 -0.49979999999999997 -0.18600000000000003 138
-12.2578 -1.9111000000000002 1.5908000000000002 120
-12.1172 -1.8887 1.8633000000000002 217
-11.7656 -1.834 2.0918 94
-2.9707 -0.4521 -0.5225 201
-3.0039 -0.457 -0.4568 58
-3.2089999999999996 -0.48829999999999996 0.1116 79
-3.0312 -0.4612 -0.3889 39
-13.4531 -2.0469 0.7890999999999999 239
-3.0762 -0.4678 -0.3223 160
-13.4375 -2.0449 1.1064 203
-3.0898000000000003 -0.47 -0.25170000000000003 11
-13.4531 -2.0469 1.4258000000000002 158
-3.168 -0.4819 -0.1837 121
-12.273399999999999 -1.8672 1.5918 109
-12.101600000000001 -1.8408000000000002 1.8603999999999998 203
-11.781199999999998 -1.7919999999999998 2.0938 106
-2.957 -0.4399 -0.52 123
-3.0058999999999996 -0.447 -0.4568 238
-3.2108999999999996 -0.4775 0.1116 102
-3.0137 -0.4482 -0.3865 7
-13.4453 -2.0 0.7881 102
-3.0839999999999996 -0.4587 -0.3232 34
-13.4453 -2.0 1.1064 157
-3.0995999999999997 -0.46090000000000003 -0.2522 168
-13.4375 -1.999 1.4238 81
-3.1113 -0.46259999999999996 -0.18030000000000002 225
-12.273399999999999 -1.8262 1.5908000000000002 85
-12.1094 -1.8018 1.8613 188
-11.7578 -1.749 2.0898 96
-2.9512 -0.4285 -0.5186 102
-3.0058999999999996 -0.4363 -0.45649999999999996 249
-3.2305 -0.469 0.11220000000000001 70
-3.0254000000000003 -0.43920000000000003 -0.38770000000000004 23
-13.4375 -1.9502000000000002 0.7870999999999999 229
-3.0742000000000003 -0.44630000000000003 -0.322 241
-13.4531 -1.9531 1.1064 13
-3.0625 -0.4443 -0.249 255
-13.4531 -1.9531 1.4238 40
-3.1367000000000003 -0.45530000000000004 -0.1816 183
-12.2656 -1.7812000000000001 1.5888999999999998 56
-12.1172 -1.7588 1.8603999999999998 158
-11.7578 -1.7069999999999999 2.0879 51
-2.9551 -0.4194 -0.5186 81
-3.0039 -0.4265 -0.45630000000000004 245
-3.2305 -0.4585 0.1121 230
-3.0370999999999997 -0.43119999999999997 -0.3889 223
-13.4375 -1.9082 0.7870999999999999 78
-3.0683999999999996 -0.4355 -0.321 218
-13.4375 -1.9082 1.1055 21
-3.123 -0.4434 -0.2539 58
-13.4531 -1.9102000000000001 1.4238 8
-3.1933999999999996 -0.4531 -0.18489999999999998 156
-12.2656 -1.7412 1.5878999999999999 87
-12.125 -1.7207 1.8603999999999998 254
-11.75 -1.6680000000000001 2.0859 44
-2.9589999999999996 -0.4102 -0.5195000000000001 166
-3.0 -0.4158 -0.45530000000000004 112
-3.2148000000000003 -0.4456 0.1116 234
-3.0370999999999997 -0.42090000000000005 -0.3889 202
-13.4375 -1.8622999999999998 0.7866 218
-3.0507999999999997 -0.4226 -0.3191 65
-13.4297 -1.8613 1.1035 57
-3.0839999999999996 -0.4275 -0.2507 5
-13.4531 -1.8643 1.4228999999999998 29
-3.1151999999999997 -0.4316 -0.18030000000000002 88
-12.2656 -1.7002000000000002 1.5878999999999999 231
-12.1172 -1.6797 1.8594 36
-11.7578 -1.6288999999999998 2.0859 113
-2.9648000000000003 -0.3994 -0.52 100
-2.9961 -0.4036 -0.4546 63
-3.1895 -0.4294 0.1106 5
-3.0137 -0.4058 -0.3857 44
-13.4375 -1.8096 0.7861 115
-3.0664 -0.4131 -0.3208 237
-13.4297 -1.8096 1.1035 154
-3.0702999999999996 -0.4133 -0.2494 190
-12.476600000000001 -1.6797 1.3184 48
-3.1055 -0.4182 -0.1796 19
-12.273399999999999 -1.6533000000000002 1.5878999999999999 16
-12.101600000000001 -1.6299000000000001 1.8555000000000001 37
-11.7578 -1.584 2.084 204
-2.9512 -0.387 -0.5176 129
-3.0077999999999996 -0.3943 -0.4561 181
-3.2266000000000004 -0.42310000000000003 0.1118 132
-3.0098000000000003 -0.3945 -0.385 17
-12.5078 -1.6406 0.7314 183
-3.0762 -0.4033 -0.3215 247
-12.5 -1.6396000000000002 1.0264 50
-3.0918 -0.4053 -0.251 244
-12.4922 -1.6377000000000002 1.3193000000000001 47
-3.1055 -0.4072 -0.1796 220
-12.273399999999999 -1.6094 1.5869 87
-3.2637 -0.428 -0.11320000000000001 8
-12.1172 -1.5888999999999998 1.8563999999999998 189
-11.75 -1.541 2.082 132
-2.9473000000000003 -0.37670000000000003 -0.5166 240
-3.0098000000000003 -0.3845 -0.45630000000000004 238
-3.2188 -0.4111 0.1115 84
-3.0137 -0.385 -0.38549999999999995 108
-12.5 -1.5966999999999998 0.7304999999999999 95
-3.0898000000000003 -0.3948 -0.32280000000000003 40
-12.5156 -1.5986000000000002 1.0273 23
-3.0723000000000003 -0.3926 -0.2494 24
-12.4922 -1.5957 1.3184 35
-3.1191000000000004 -0.39840000000000003 -0.18030000000000002 133
-12.2656 -1.5663999999999998 1.585 192
-3.2266000000000004 -0.4121 -0.1118 67
-12.093800000000002 -1.5449000000000002 1.8525 1
-3.2422000000000004 -0.41409999999999997 -0.0373 36
-11.7344 -1.5 2.0801 169
-2.9531 -0.3674 -0.5176 57
-2.998 -0.3728 -0.45409999999999995 251
-3.2129000000000003 -0.3997 0.11130000000000001 19
-3.0547000000000004 -0.3799 -0.3906 190
-12.476600000000001 -1.5518 0.7290000000000001 192
-3.0957 -0.385 -0.3232 112
-12.4453 -1.5478999999999998 1.0205 72
-3.1289 -0.3892 -0.2539 255
-12.375 -1.5391 1.3056999999999999 225
-3.0976999999999997 -0.38530000000000003 -0.1788 187
-12.2578 -1.5244 1.5830000000000002 109
-3.1406 -0.3906 -0.10869999999999999 125
-11.898399999999999 -1.4794999999999998 1.8213 78
-3.168 -0.39399999999999996 -0.0364 21
-11.7578 -1.4628999999999999 2.082 31
-2.9589999999999996 -0.3564 -0.5181 75
-3.2031 -0.3857 0.0368 246
-2.9805 -0.3589 -0.4512 184
-3.2148000000000003 -0.3872 0.11130000000000001 165
-3.1151999999999997 -0.37549999999999994 -0.3982 99
-12.335899999999999 -1.4863 0.7202 20
-12.351600000000001 -1.4883000000000002 1.0127 78
-12.3281 -1.4853999999999998 1.3008000000000002 194
-12.2578 -1.4775 1.5830000000000002 172
-3.2676 -0.39380000000000004 -0.11320000000000001 26
-11.8828 -1.4316 1.8184 91
-3.168 -0.3818 -0.0364 155
-11.7656 -1.4169999999999998 2.082 84
-2.9589999999999996 -0.34619999999999995 -0.5181 67
-2.9941000000000004 -0.35009999999999997 -0.4534 92
-3.2051 -0.37479999999999997 0.1108 46
-12.3203 -1.4404 0.7188 251
-12.3203 -1.4404 1.0098 42
-12.2969 -1.4385 1.2969 51
-12.2656 -1.4346 1.5830000000000002 138
-11.875 -1.3887 1.8163999999999998 137
-11.7578 -1.375 2.0801 22
-2.9452999999999996 -0.3345 -0.5151 220
-3.002 -0.3411 -0.45409999999999995 96
-3.2129000000000003 -0.365 0.11109999999999999 60
-12.289100000000001 -1.3955000000000002 0.7168000000000001 205
-12.3125 -1.3984 1.0088 230
-12.281199999999998 -1.3955000000000002 1.2949000000000002 208
-12.2656 -1.3936000000000002 1.5830000000000002 223
-11.976600000000001 -1.3603999999999998 1.8319999999999999 253
-11.75 -1.334 2.0762 243
-2.9433999999999996 -0.32420000000000004 -0.5146000000000001 130
-3.0 -0.3308 -0.4539 210
-3.207 -0.35350000000000004 0.1108 19
-12.273399999999999 -1.3535 0.7158 146
-12.3125 -1.3574000000000002 1.0088 170
-12.3203 -1.3574000000000002 1.2978999999999998 203
-12.25 -1.3506 1.5800999999999998 181
-12.1094 -1.335 1.8516 37
-11.7344 -1.2930000000000001 2.0742 156
-2.9473000000000003 -0.3135 -0.5151 235
-2.9961 -0.3186 -0.45289999999999997 179
-3.207 -0.3411 0.1108 72
-12.3125 -1.3086000000000002 0.7178 212
-12.3281 -1.3105000000000002 1.0088 100
-12.3594 -1.3144999999999998 1.3018 110
-12.25 -1.3027000000000002 1.5791 121
-12.1172 -1.2881 1.8516 138
-11.7422 -1.249 2.0742 48
-2.9608999999999996 -0.3044 -0.5176 121
-2.9844 -0.3066 -0.4509 128
-3.2168 -0.3308 0.11109999999999999 140
-12.343800000000002 -1.2695 0.7192000000000001 151
-12.398399999999999 -1.2754 1.0146 82
-12.414100000000001 -1.2764 1.3066 130
-12.2422 -1.2588 1.5781 238
-12.101600000000001 -1.2441 1.8486000000000002 129
-11.7422 -1.207 2.0742 134
-2.9589999999999996 -0.2949 -0.5171 29
-2.998 -0.2988 -0.45289999999999997 103
-3.1855 -0.31739999999999996 0.11 195
-12.406199999999998 -1.2363 0.7231000000000001 227
-12.476600000000001 -1.2431999999999999 1.0205 52
-12.468800000000002 -1.2422 1.3125 103
-12.460899999999999 -1.2412 1.6055000000000001 104
-12.093800000000002 -1.2051 1.8466999999999998 154
-11.75 -1.1709 2.0742 50
-2.9531 -0.2842 -0.5156000000000001 59
-2.9922000000000004 -0.28809999999999997 -0.4517 128
-3.2108999999999996 -0.3091 0.1108 79
-12.5 -1.2031 0.728 36
-12.5 -1.2041 1.0225 1
-12.5078 -1.2041 1.3154 91
-12.335899999999999 -1.1875 1.5888999999999998 131
-12.101600000000001 -1.165 1.8477000000000001 15
-11.7422 -1.1309 2.0723 140
-2.9414 -0.272 -0.5136999999999999 110
-3.0039 -0.2776 -0.4536 2
-3.2168 -0.29710000000000003 0.111 255
-12.4844 -1.1533 0.7265999999999999 41
-12.5 -1.1553 1.0215 244
-12.4922 -1.1543 1.3144999999999998 58
-12.468800000000002 -1.1523 1.6055000000000001 149
-12.1797 -1.126 1.8594 111
-11.718800000000002 -1.083 2.0684 58
-2.9473000000000003 -0.262 -0.5142 232
-3.002 -0.2668 -0.45289999999999997 153
-3.2089999999999996 -0.2854 0.1107 150
-12.4922 -1.1104 0.7271 10
-12.4922 -1.1104 1.0205 182
-12.4922 -1.1104 1.3135 246
-12.476600000000001 -1.1084 1.6055000000000001 65
-12.351600000000001 -1.0986 1.8847999999999998 121
-11.7422 -1.0439 2.0723 147
-2.9473000000000003 -0.2522 -0.5142 74
-2.9785000000000004 -0.25489999999999996 -0.4495 166
-3.1952999999999996 -0.2732 0.11019999999999999 121
-12.4922 -1.0684 0.7271 119
-12.4844 -1.0684 1.0195 70
-12.4922 -1.0693000000000001 1.3135 127
-12.476600000000001 -1.0674 1.6055000000000001 248
-12.343800000000002 -1.0556999999999999 1.8818000000000001 207
-11.7422 -1.0039 2.0703 32
-2.9531 -0.2427 -0.5151 67
-2.9863 -0.24559999999999998 -0.45039999999999997 172
-3.1797000000000004 -0.2615 0.1096 192
-12.476600000000001 -1.0254 0.7256 28
-12.4375 -1.0225 1.0156 74
-12.4453 -1.0234 1.3075999999999999 59
-12.4297 -1.0215 1.5986000000000002 26
-12.3281 -1.0137 1.8788999999999998 29
-11.7422 -0.9653 2.0703 201
-2.9452999999999996 -0.23129999999999998 -0.5136999999999999 178
-3.0 -0.23559999999999998 -0.4524 2
-3.1992000000000003 -0.25120000000000003 0.1103 128
-12.468800000000002 -0.9795 0.7251000000000001 237
-12.476600000000001 -0.9795 1.0186 55
-12.4844 -0.98 1.3115 95
-12.468800000000002 -0.9795 1.6035 170
-12.335899999999999 -0.9688 1.8799000000000001 57
-11.718800000000002 -0.9204000000000001 2.0664 152
-2.9336 -0.22010000000000002 -0.5112 84
-2.9941000000000004 -0.22460000000000002 -0.4514 11
-3.1933999999999996 -0.2395 0.11 104
-12.4844 -0.9365000000000001 0.7256 11
-12.5 -0.9375 1.0205 4
-12.4844 -0.937 1.3115 122
-12.468800000000002 -0.9355 1.6035 158
-12.335899999999999 -0.9258 1.8799000000000001 181
-11.726600000000001 -0.8798999999999999 2.0664 172
-2.9395 -0.2096 -0.5122 18
-2.9882999999999997 -0.21309999999999998 -0.45020000000000004 144
-3.1895 -0.2275 0.1099 157
-12.4844 -0.8906000000000001 0.7256 154
-12.5 -0.8916 1.0195 182
-12.5 -0.8916 1.3125 196
-12.468800000000002 -0.8896 1.6025 216
-12.351600000000001 -0.8809 1.8818000000000001 10
-11.7422 -0.8373999999999999 2.0684 105
-2.9473000000000003 -0.2 -0.5136999999999999 223
-2.9805 -0.2021 -0.449 163
-3.1836 -0.2158 0.1096 176
-12.4922 -0.8472 0.7256 198
-12.4922 -0.8472 1.0186 191
-12.4844 -0.8467 1.3105000000000002 250
-12.476600000000001 -0.8462000000000001 1.6025 138
-12.4297 -0.8428 1.8936000000000002 78
-11.7422 -0.7964 2.0684 52
-2.957 -0.1907 -0.5151 161
-2.9824 -0.1924 -0.4495 178
-3.1757999999999997 -0.2048 0.1093 9
-12.4922 -0.8057 0.7256 118
-12.4922 -0.8051999999999999 1.0186 61
-12.4922 -0.8057 1.3105000000000002 62
-12.476600000000001 -0.8047 1.6025 143
-12.4453 -0.8027 1.8955000000000002 63
-12.210899999999999 -0.7876000000000001 2.1504 50
-2.9414 -0.17989999999999998 -0.5122 172
-2.9882999999999997 -0.1827 -0.45 134
-3.1933999999999996 -0.1953 0.1099 151
-12.4922 -0.7637 0.7256 139
-12.4922 -0.7642 1.0186 124
-12.476600000000001 -0.7631999999999999 1.3096 186
-12.476600000000001 -0.7631999999999999 1.6025 38
-12.4531 -0.7617 1.8955000000000002 84
-12.3828 -0.7573000000000001 2.1797 226
-2.9297000000000004 -0.1685 -0.5103 198
-2.998 -0.1724 -0.4514 255
-3.2089999999999996 -0.1844 0.1104 162
-12.476600000000001 -0.7173 0.7245999999999999 129
-12.5 -0.7182999999999999 1.0186 210
-12.4844 -0.7178 1.3096 8
-12.468800000000002 -0.7168000000000001 1.6016 56
-12.476600000000001 -0.7168000000000001 1.8984 254
-10.1406 -0.583 1.7832 144
-2.9336 -0.15839999999999999 -0.5107 164
-2.9882999999999997 -0.16140000000000002 -0.45 125
-3.2089999999999996 -0.1732 0.1104 158
-12.4844 -0.6738 0.7251000000000001 142
-12.476600000000001 -0.6738 1.0176 3
-12.4844 -0.6743000000000001 1.3096 183
-12.476600000000001 -0.6733 1.6016 236
-12.4844 -0.6743000000000001 1.9003999999999999 92
-10.1641 -0.5488000000000001 1.7871000000000001 67
-2.9512 -0.1494 -0.5136999999999999 86
-2.9745999999999997 -0.1506 -0.4475 169
-3.1895 -0.1616 0.1097 159
-12.4922 -0.6328 0.7251000000000001 45
-12.476600000000001 -0.6318 1.0166 69
-12.4844 -0.6323 1.3096 24
-12.468800000000002 -0.6313 1.5996000000000001 157
-12.468800000000002 -0.6318 1.8975 84
-10.25 -0.519 1.8027000000000002 173
-2.9433999999999996 -0.1393 -0.5122 67
-2.9882999999999997 -0.14150000000000001 -0.4497 32
-3.1776999999999997 -0.15039999999999998 0.1093 66
-12.4844 -0.5908 0.7245999999999999 4
-12.4844 -0.5908 1.0176 142
-12.4844 -0.5908 1.3086000000000002 221
-12.4844 -0.5908 1.6016 206
-12.468800000000002 -0.5903 1.8975 216
-10.2188 -0.4839 1.7969 229
-2.9355 -0.1282 -0.5107 87
-2.9882999999999997 -0.1305 -0.4497 215
-3.1992000000000003 -0.1396 0.11 150
-12.4922 -0.5454 0.7245999999999999 131
-12.476600000000001 -0.5444 1.0166 60
-12.476600000000001 -0.5444 1.3075999999999999 54
-12.4844 -0.5449 1.6025 127
-12.460899999999999 -0.5439 1.8955000000000002 105
-12.3672 -0.54 2.1758 118
-2.9297000000000004 -0.1177 -0.5097999999999999 36
-2.9922000000000004 -0.1202 -0.45020000000000004 67
-3.1952999999999996 -0.1283 0.1099 73
-12.476600000000001 -0.501 0.7236 3
-12.476600000000001 -0.501 1.0166 39
-12.4844 -0.5015 1.3086000000000002 212
-12.468800000000002 -0.501 1.5996000000000001 14
-12.476600000000001 -0.501 1.8975 163
-12.3672 -0.4966 2.1738 248
-2.9375 -0.10769999999999999 -0.5107 183
-2.9863 -0.10949999999999999 -0.449 203
-3.2031 -0.1175 0.11019999999999999 201
-12.4844 -0.4575 0.7241 44
-12.476600000000001 -0.4575 1.0166 250
-12.4844 -0.4578 1.3086000000000002 215
-12.460899999999999 -0.4568 1.5986000000000002 69
-12.4844 -0.4578 1.8984 72
-12.3672 -0.4536 2.1758 119
-2.9512 -0.09789999999999999 -0.5132 85
-2.9688 -0.0984 -0.44630000000000003 87
-3.2031 -0.10619999999999999 0.1101 39
-12.4844 -0.41409999999999997 0.7241 106
-12.460899999999999 -0.41359999999999997 1.0146 36
-12.4844 -0.41409999999999997 1.3086000000000002 25
-12.468800000000002 -0.41359999999999997 1.5986000000000002 235
-12.476600000000001 -0.4138 1.8965 197
-12.3828 -0.4106 2.1777 241
-2.9531 -0.0876 -0.5136999999999999 109
-2.9805 -0.08839999999999999 -0.4482 35
-3.1836 -0.09449999999999999 0.1094 188
-12.476600000000001 -0.3704 0.7236 57
-12.4531 -0.3696 1.0146 128
-12.4844 -0.37060000000000004 1.3075999999999999 8
-12.468800000000002 -0.3701 1.5996000000000001 11
-12.460899999999999 -0.3699 1.8944999999999999 89
-12.3828 -0.3674 2.1777 3
-2.9375 -0.07690000000000001 -0.5107 239
-2.9805 -0.0781 -0.4482 54
-3.1797000000000004 -0.0833 0.1093 189
-12.468800000000002 -0.3264 0.7231000000000001 197
-12.4844 -0.32689999999999997 1.0166 115
-12.476600000000001 -0.3267 1.3066 111
-12.476600000000001 -0.3267 1.5996000000000001 157
-12.468800000000002 -0.3264 1.8955000000000002 164
-10.0312 -0.2627 1.7616999999999998 59
-2.9297000000000004 -0.0675 -0.5093 174
-2.9805 -0.0687 -0.4482 85
-3.1875 -0.07339999999999999 0.1096 205
-12.476600000000001 -0.2874 0.7231000000000001 53
-12.4844 -0.2876 1.0166 16
-12.476600000000001 -0.2876 1.3075999999999999 154
-12.468800000000002 -0.2874 1.5986000000000002 98
-12.476600000000001 -0.2874 1.8965 251
-9.9609 -0.2296 1.75 172
-2.9316000000000004 -0.057800000000000004 -0.5097999999999999 218
-2.9688 -0.058600000000000006 -0.44630000000000003 63
-3.2031 -0.0632 0.1101 170
-12.476600000000001 -0.24609999999999999 0.7231000000000001 11
-12.460899999999999 -0.2458 1.0146 175
-12.4844 -0.2462 1.3075999999999999 121
-12.460899999999999 -0.2457 1.5977000000000001 49
-12.476600000000001 -0.24609999999999999 1.8965 10
-12.375 -0.244 2.1738 132
-2.9375 -0.0472 -0.5107 236
-2.9766000000000004 -0.0478 -0.4475 93
-3.1757999999999997 -0.051 0.1091 220
-12.4844 -0.2004 0.7236 185
-12.468800000000002 -0.2002 1.0146 61
-12.4922 -0.2006 1.3086000000000002 182
-12.4531 -0.2 1.5966999999999998 190
-12.468800000000002 -0.2002 1.8944999999999999 245
-12.375 -0.19870000000000002 2.1758 49
-2.9375 -0.0369 -0.5107 215
-2.9766000000000004 -0.0374 -0.4475 213
-3.1601999999999997 -0.0397 0.10859999999999999 41
-12.468800000000002 -0.1567 0.7231000000000001 194
-12.476600000000001 -0.15689999999999998 1.0156 172
-12.4844 -0.15689999999999998 1.3075999999999999 197
-12.460899999999999 -0.1566 1.5977000000000001 68
-12.4531 -0.1565 1.8925999999999998 174
-12.3672 -0.15539999999999998 2.1738 240
-2.9316000000000004 -0.026600000000000002 -0.5093 55
-2.9863 -0.0271 -0.4487 38
-3.1836 -0.028900000000000002 0.1094 159
-12.476600000000001 -0.11320000000000001 0.7231000000000001 109
-12.476600000000001 -0.11320000000000001 1.0156 235
-12.476600000000001 -0.11320000000000001 1.3066 96
-12.468800000000002 -0.11320000000000001 1.5986000000000002 145
-12.4531 -0.113 1.8925999999999998 209
-12.3672 -0.11220000000000001 2.1738 98
-2.9238 -0.0163 -0.5078 63
-2.9766000000000004 -0.0166 -0.4475 177
-3.1757999999999997 -0.0177 0.1091 39
-12.468800000000002 -0.0696 0.7227 71
-12.476600000000001 -0.0697 1.0156 131
-12.460899999999999 -0.0696 1.3056999999999999 218
-12.460899999999999 -0.0696 1.5977000000000001 202
-12.460899999999999 -0.0696 1.8936000000000002 241
-12.3672 -0.069 2.1738 128
-2.9276999999999997 -0.0060999999999999995 -0.5088 237
-2.9688 -0.0062 -0.44630000000000003 87
-3.1699 -0.0066 0.10890000000000001 32
-12.460899999999999 -0.026099999999999998 0.7227 21
-12.460899999999999 -0.026099999999999998 1.0146 245
-12.5156 -0.0262 1.3105000000000002 122
-12.4531 -0.026099999999999998 1.5957 61
-12.468800000000002 -0.026099999999999998 1.8944999999999999 37
-12.375 -0.0259 2.1738 114
-2.9395 0.0040999999999999995 -0.5107 148
-2.957 0.0040999999999999995 -0.4446 15
-3.1776999999999997 0.0044 0.1092 116
-12.5078 0.0175 0.7251000000000001 41
-12.539100000000001 0.0175 1.0205 153
-12.5703 0.0175 1.3163999999999998 139
-12.4531 0.0174 1.5966999999999998 211
-12.460899999999999 0.0174 1.8936000000000002 243
-12.3672 0.0173 2.1738 212
-2.9433999999999996 0.0144 -0.5112 92
-2.9688 0.014499999999999999 -0.44630000000000003 38
-3.1757999999999997 0.0155 0.1091 207
-12.5625 0.061399999999999996 0.728 73
-12.5703 0.061399999999999996 1.0234 153
-12.593800000000002 0.0616 1.3193000000000001 223
-12.460899999999999 0.060899999999999996 1.5966999999999998 101
-12.4531 0.060899999999999996 1.8925999999999998 31
-12.3672 0.0605 2.1738 198
-2.9257999999999997 0.0245 -0.5088 179
-2.9805 0.025 -0.4482 109
-3.1719 0.026600000000000002 0.10890000000000001 228
-12.601600000000001 0.1056 0.7304999999999999 128
-12.726600000000001 0.1066 1.0361 250
-12.75 0.1069 1.3359 32
-12.460899999999999 0.10439999999999999 1.5977000000000001 130
-12.4531 0.1043 1.8925999999999998 173
-12.3672 0.1036 2.1738 225
-2.918 0.0341 -0.5073 89
-2.9805 0.0349 -0.4482 129
-3.1660000000000004 0.037000000000000005 0.10880000000000001 39
-12.7031 0.14859999999999998 0.7363 80
-12.781199999999998 0.1494 1.04 37
-12.773399999999999 0.1494 1.3378999999999999 255
-12.460899999999999 0.1458 1.5977000000000001 246
-12.460899999999999 0.1458 1.8944999999999999 115
-12.351600000000001 0.1444 2.1699 226
-2.9257999999999997 0.043899999999999995 -0.5088 205
-2.9688 0.0446 -0.44630000000000003 207
-3.1776999999999997 0.04769999999999999 0.1092 122
-12.7578 0.19140000000000001 0.7397 16
-12.7578 0.19149999999999998 1.0391 230
-12.7578 0.19140000000000001 1.3359 209
-12.4453 0.1868 1.5957 16
-12.4531 0.1869 1.8925999999999998 211
-12.351600000000001 0.18530000000000002 2.1699 219
-2.9336 0.0548 -0.5103 77
-2.9648000000000003 0.0554 -0.4458 80
-3.1719 0.0592 0.10890000000000001 116
-12.7656 0.2384 0.7402 153
-12.7578 0.23829999999999998 1.0381 227
-12.773399999999999 0.23850000000000002 1.3378999999999999 227
-12.4531 0.2325 1.5966999999999998 57
-12.4531 0.2327 1.8936000000000002 197
-12.3594 0.23079999999999998 2.1719 19
-2.9375 0.06509999999999999 -0.5107 204
-2.9726999999999997 0.0659 -0.447 124
-3.1523000000000003 0.0699 0.10830000000000001 175
-12.7578 0.2827 0.7397 196
-12.773399999999999 0.2832 1.04 230
-12.75 0.2827 1.3359 249
-12.4531 0.2761 1.5966999999999998 238
-12.4453 0.2759 1.8916 159
-12.351600000000001 0.27390000000000003 2.1719 116
-2.9257999999999997 0.0751 -0.5088 48
-2.9766000000000004 0.0764 -0.4475 57
-3.1601999999999997 0.08109999999999999 0.10859999999999999 23
-12.7344 0.32689999999999997 0.7387999999999999 251
-12.773399999999999 0.3276 1.04 44
-12.7578 0.3274 1.3369 30
-12.460899999999999 0.3196 1.5977000000000001 135
-12.4453 0.3193 1.8916 59
-12.351600000000001 0.3171 2.1719 199
-2.9219 0.0852 -0.5078 237
-2.9805 0.08689999999999999 -0.4482 29
-3.1757999999999997 0.0926 0.1092 40
-12.7422 0.3713 0.7387999999999999 185
-12.7656 0.3721 1.0391 95
-12.75 0.3718 1.3359 145
-12.4531 0.363 1.5966999999999998 19
-12.4531 0.363 1.8936000000000002 167
-12.335899999999999 0.35960000000000003 2.1699 251
-2.9219 0.09539999999999998 -0.5078 119
-2.9688 0.0969 -0.44630000000000003 30
-3.1875 0.1041 0.1096 216
-12.7578 0.4165 0.7397 91
-12.7656 0.4167 1.04 47
-12.75 0.4163 1.3369 73
-12.4375 0.40619999999999995 1.5957 248
-12.460899999999999 0.4067 1.8944999999999999 214
-12.351600000000001 0.4033 2.1719 70
-2.9336 0.106 -0.5103 210
-2.9668 0.1072 -0.44630000000000003 124
-3.1601999999999997 0.1142 0.10859999999999999 70
-3.1367000000000003 0.1133 -0.3982 238
-12.664100000000001 0.4575 0.7343999999999999 176
-12.7422 0.4607 1.0381 244
-12.7656 0.46140000000000003 1.3378999999999999 167
-12.4453 0.45 1.5966999999999998 84
-12.4531 0.45 1.8936000000000002 49
-12.351600000000001 0.4465 2.1719 160
-2.9355 0.1159 -0.5107 63
-2.9668 0.11710000000000001 -0.44630000000000003 228
-3.1738 0.1252 0.1091 194
-12.710899999999999 0.5015 0.7378 38
-12.75 0.5034000000000001 1.0391 149
-12.7578 0.5034000000000001 1.3378999999999999 12
-12.4531 0.49119999999999997 1.5977000000000001 26
-12.4375 0.4907 1.8916 124
-12.3672 0.488 2.1738 92
-2.9238 0.1251 -0.5088 15
-2.9668 0.127 -0.44630000000000003 178
-3.1660000000000004 0.1354 0.10880000000000001 101
-12.7344 0.5449 0.7393000000000001 219
-12.7656 0.5464 1.04 101
-12.75 0.5454 1.3369 27
-12.4531 0.5327000000000001 1.5977000000000001 92
-12.4375 0.5322 1.8925999999999998 38
-12.351600000000001 0.5283 2.1719 242
-2.9141000000000004 0.1354 -0.5068 153
-2.9745999999999997 0.1382 -0.4475 248
-3.1699 0.14730000000000001 0.1091 112
-12.7344 0.5918 0.7393000000000001 91
-12.7656 0.5928 1.04 239
-12.7422 0.5918 1.3359 212
-12.4375 0.5776 1.5957 197
-12.4453 0.5781000000000001 1.8936000000000002 154
-12.343800000000002 0.5737 2.1719 2
-2.9276999999999997 0.1462 -0.5093 31
-2.9629000000000003 0.1479 -0.4458 127
-3.1836 0.1591 0.1096 176
-12.718800000000002 0.6353 0.7383 92
-12.75 0.6367 1.0391 178
-12.75 0.6367 1.3369 88
-12.4375 0.6215999999999999 1.5966999999999998 150
-12.4531 0.6221 1.8944999999999999 143
-12.351600000000001 0.6172 2.1738 224
-2.9316000000000004 0.1567 -0.5103 220
-2.9531 0.1578 -0.4446 109
-3.168 0.1693 0.10890000000000001 142
-12.7344 0.6807 0.7393000000000001 105
-12.726600000000001 0.6807 1.0381 233
-12.75 0.6816 1.3369 219
-12.4453 0.665 1.5977000000000001 112
-12.4375 0.665 1.8925999999999998 110
-12.3594 0.6606000000000001 2.1738 206
-2.9355 0.1672 -0.5112 57
-2.9726999999999997 0.1693 -0.4475 61
-3.1543 0.1797 0.10859999999999999 201
-12.75 0.7265999999999999 0.7402 215
-12.75 0.7261 1.0391 197
-12.7422 0.7261 1.3369 23
-12.4531 0.7095 1.5986000000000002 171
-12.4297 0.708 1.8916 122
-12.3594 0.7036 2.1758 183
-2.9219 0.1766 -0.5088 81
-2.9688 0.1794 -0.447 146
