# .PCD v0.7 - Point Cloud Data file format
VERSION 0.7
FIELDS x y z intensity
SIZE 4 4 4 4
TYPE F F F F
COUNT 1 1 1 1
WIDTH 1301
HEIGHT 1
VIEWPOINT 0 0 0 1 0 0 0
POINTS 1301
DATA ascii
25.2969 6.1211 -0.3035 233
25.2812 6.1172 4.5781 100
25.3125 6.0390999999999995 0.3035 234
25.2812 6.0312 0.9057999999999999 110
25.2969 6.0352 1.5107 162
25.2969 6.0352 2.1211 180
25.2969 6.0352 2.7285000000000004 224
25.2656 6.0273 3.3358999999999996 99
25.3906 6.0586 -0.9097 117
25.2969 6.0352 3.9589999999999996 170
25.3281 6.046900000000001 -0.3037 232
25.2969 6.0352 4.5781 203
25.4375 5.980499999999999 0.30469999999999997 206
25.3438 5.957000000000001 0.9072 141
25.3438 5.957000000000001 1.5116999999999998 90
12.6719 2.9805 -1.3643 208
25.3281 5.953099999999999 2.1211 195
25.3438 5.957000000000001 2.7305 48
25.3281 5.953099999999999 3.3418 105
25.3594 5.9609000000000005 3.9668 151
25.5469 6.0039 -0.3059 191
25.375 5.9648 4.5898 215
25.4688 5.890599999999999 0.9111 71
12.6875 2.9355 -1.3643 64
25.4375 5.8789 2.1289 228
12.6797 2.9316000000000004 -1.0595999999999999 247
12.6094 2.9160000000000004 1.3555000000000001 131
12.6797 2.9336 -0.7548999999999999 77
12.585899999999999 2.9101999999999997 1.6562000000000001 29
12.6953 2.9355 -0.4531 55
12.656199999999998 2.9257999999999997 -0.151 252
12.6797 2.8848000000000003 0.15109999999999998 229
12.664100000000001 2.8827999999999996 0.45189999999999997 2
12.726600000000001 2.8964999999999996 0.7568 147
12.6797 2.8848000000000003 -1.3622999999999998 83
12.6953 2.8887 -1.0595999999999999 204
12.601600000000001 2.8691000000000004 1.3544999999999998 195
12.664100000000001 2.8808999999999996 -0.7529 65
12.5781 2.8613 1.6533000000000002 188
12.6953 2.8887 -0.45289999999999997 191
12.656199999999998 2.8808999999999996 -0.1509 26
12.664100000000001 2.8379000000000003 0.1509 194
12.6797 2.8418 0.45189999999999997 235
12.6797 2.8418 -1.3613 49
12.6797 2.8398000000000003 1.0576 12
12.6797 2.8418 -1.0576 117
12.625 2.8281 1.3544999999999998 132
12.656199999999998 2.8358999999999996 -0.752 4
12.5781 2.8183999999999996 1.6533000000000002 227
12.6875 2.8438 -0.4524 248
12.6719 2.8398000000000003 1.9746000000000001 171
12.6719 2.8379000000000003 -0.1509 225
12.6875 2.7988 0.151 150
12.6719 2.7949 0.4514 31
12.6953 2.8007999999999997 0.7539 117
12.6797 2.7988 -1.3603999999999998 136
12.6719 2.7949 1.0566 124
12.6797 2.7969 -1.0566 255
12.6172 2.7832 1.3535 115
12.6719 2.7949 -0.7524 40
12.5781 2.7754000000000003 1.6513999999999998 2
12.6797 2.7969 -0.4517 216
12.664100000000001 2.7949 1.9716999999999998 39
12.6719 2.7949 -0.1508 158
12.6875 2.752 0.1509 73
12.664100000000001 2.748 0.4507 81
12.6875 2.752 0.7529 106
12.6875 2.752 -1.3603999999999998 166
12.6797 2.75 1.0556999999999999 56
12.656199999999998 2.7461 -1.0547 119
12.6094 2.7363 1.3516 31
12.6719 2.748 -0.752 208
12.585899999999999 2.7305 1.6513999999999998 5
12.6797 2.752 -0.4514 251
12.656199999999998 2.7461 1.9678 142
12.664100000000001 2.748 -0.1506 23
12.6797 2.75 2.2793 6
12.6875 2.7089999999999996 0.1509 200
12.6719 2.7051 0.4507 210
12.6797 2.707 0.7515000000000001 185
12.6875 2.7089999999999996 -1.3594 228
12.6875 2.7089999999999996 1.0566 229
12.664100000000001 2.7051 -1.0547 1
12.593800000000002 2.6895 1.3486000000000002 117
12.664100000000001 2.7031 -0.7505 44
12.5781 2.6855 1.6484 130
12.6797 2.7051 -0.4509 147
12.648399999999999 2.7012 1.9658000000000002 161
12.664100000000001 2.7031 -0.1505 235
12.664100000000001 2.7031 2.2754 123
12.6797 2.6543 0.1505 14
12.6797 2.6562 0.4507 63
12.664100000000001 2.6523000000000003 0.75 89
12.6797 2.6562 -1.3574000000000002 114
12.6797 2.6562 1.0547 161
12.6797 2.6562 -1.0547 85
12.6094 2.6406 1.3496000000000001 16
12.648399999999999 2.6483999999999996 -0.7490000000000001 189
12.5781 2.6348000000000003 1.6484 1
12.6875 2.6582 -0.4509 199
12.656199999999998 2.6523000000000003 1.9658000000000002 7
12.6719 2.6543 -0.1505 33
12.648399999999999 2.6504000000000003 2.2715 152
12.6797 2.6094 0.1505 208
12.6719 2.6094 0.45020000000000004 16
12.6797 2.6094 0.7505 140
12.6719 2.6074 -1.3555000000000001 106
12.6719 2.6074 1.0527 202
12.664100000000001 2.6074 -1.0527 79
12.6094 2.5957 1.3486000000000002 174
12.664100000000001 2.6055 -0.7495 6
12.5625 2.5839999999999996 1.6436000000000002 193
12.6797 2.6094 -0.45020000000000004 147
12.664100000000001 2.6074 1.9647999999999999 241
12.6719 2.6074 -0.15039999999999998 111
12.648399999999999 2.6035000000000004 2.2695 119
12.6797 2.5625 0.15039999999999998 209
12.664100000000001 2.5605 0.4495 4
12.6797 2.5625 0.75 115
12.6797 2.5625 -1.3544999999999998 251
12.664100000000001 2.5605 1.0518 82
12.664100000000001 2.5605 -1.0518 42
12.6094 2.5488 1.3477000000000001 191
12.664100000000001 2.5605 -0.7490000000000001 195
12.5703 2.541 1.6444999999999999 237
12.664100000000001 2.5605 -0.4495 89
12.648399999999999 2.5586 1.9619 251
12.6719 2.5625 -0.1503 164
12.656199999999998 2.5586 2.2695 72
12.6875 2.5195 0.15039999999999998 82
12.664100000000001 2.5137 0.44920000000000004 149
12.6797 2.5176 0.7495 17
12.6797 2.5176 -1.3544999999999998 17
12.6719 2.5156 1.0518 191
12.656199999999998 2.5137 -1.0508 182
12.585899999999999 2.498 1.3437999999999999 110
12.664100000000001 2.5137 -0.7484999999999999 105
12.5703 2.4961 1.6436000000000002 91
12.664100000000001 2.5156 -0.44920000000000004 254
12.648399999999999 2.5117 1.96 128
12.664100000000001 2.5137 -0.1501 97
12.648399999999999 2.5117 2.2676 171
12.6719 2.4707 0.1501 133
12.656199999999998 2.4668 0.4487 191
12.6719 2.4707 0.7484999999999999 237
12.6875 2.4727 -1.3544999999999998 233
12.6797 2.4727 1.0518 215
12.664100000000001 2.4688 -1.0508 208
12.593800000000002 2.4551 1.3437999999999999 107
12.6719 2.4688 -0.7484999999999999 130
12.5781 2.4512 1.6436000000000002 56
12.6719 2.4707 -0.449 192
12.648399999999999 2.4648 1.9580000000000002 238
12.656199999999998 2.4668 -0.1499 155
12.6406 2.4648 2.2637 138
12.6797 2.4258 0.15 57
12.6719 2.4238 0.4487 121
12.6719 2.4238 0.7476 128
12.6719 2.4238 -1.3516 109
12.6797 2.4258 1.0508 20
12.6719 2.4238 -1.0508 161
12.593800000000002 2.4082 1.3428 246
12.656199999999998 2.4219 -0.7471 61
12.5703 2.4043 1.6406 25
12.6875 2.4258 -0.44920000000000004 24
12.656199999999998 2.4219 1.959 131
12.656199999999998 2.4219 -0.14980000000000002 67
12.6406 2.418 2.2617 90
12.664100000000001 2.3789 0.14980000000000002 227
12.6719 2.3809 0.4485 209
12.664100000000001 2.3789 0.7471 160
12.664100000000001 2.3789 -1.3496000000000001 52
12.664100000000001 2.3789 1.0488 200
12.6719 2.3809 -1.0498 25
12.593800000000002 2.3652 1.3418 127
12.656199999999998 2.377 -0.7465999999999999 208
12.5625 2.3594 1.6387 48
12.664100000000001 2.3789 -0.44799999999999995 157
12.648399999999999 2.377 1.9561000000000002 109
12.664100000000001 2.3789 -0.14980000000000002 198
12.6328 2.373 2.2598 39
12.6719 2.3359 0.14980000000000002 28
12.656199999999998 2.334 0.4475 114
12.6719 2.3379 0.7471 132
12.664100000000001 2.3359 -1.3486000000000002 14
12.648399999999999 2.334 1.0469 4
12.6719 2.3359 -1.0488 43
12.601600000000001 2.3242 1.3428 242
12.664100000000001 2.3359 -0.7465999999999999 227
12.5625 2.3164 1.6377000000000002 90
12.6719 2.3359 -0.44799999999999995 140
12.648399999999999 2.334 1.9550999999999998 126
12.6719 2.3359 -0.14980000000000002 130
12.648399999999999 2.334 2.2617 217
12.664100000000001 2.2871 0.1495 19
12.648399999999999 2.2852 0.4473 123
12.6797 2.291 0.7471 143
12.6719 2.2891 -1.3486000000000002 11
12.648399999999999 2.2852 1.0459 175
12.664100000000001 2.2871 -1.0479 53
12.5781 2.2734 1.3388999999999998 249
12.664100000000001 2.2891 -0.7461 150
12.5781 2.2715 1.6387 15
12.664100000000001 2.2871 -0.4475 60
12.6406 2.2832 1.9521000000000002 50
12.648399999999999 2.2852 -0.1494 118
12.656199999999998 2.2852 2.2598 175
12.6953 2.2461 0.14980000000000002 123
12.656199999999998 2.2402 0.447 3
12.664100000000001 2.2422 0.7456 15
12.6719 2.2441 -1.3486000000000002 158
12.6719 2.2422 1.0469 244
12.656199999999998 2.2402 -1.0459 147
12.5781 2.2266 1.3378999999999999 129
12.648399999999999 2.2402 -0.7451000000000001 146
12.5625 2.2246 1.6357 236
12.6719 2.2422 -0.4475 161
12.648399999999999 2.2383 1.9521000000000002 120
12.6406 2.2383 -0.1492 108
12.648399999999999 2.2383 2.2578 252
12.656199999999998 2.1953 0.1493 203
12.664100000000001 2.1953 0.447 145
12.656199999999998 2.1953 0.7451000000000001 114
12.664100000000001 2.1973 -1.3466999999999998 216
12.6797 2.1992 1.0479 108
12.6797 2.1992 -1.0479 196
12.585899999999999 2.1836 1.3378999999999999 234
12.648399999999999 2.1934 -0.7441 10
12.5547 2.1777 1.6338 200
12.6797 2.1992 -0.4475 48
12.648399999999999 2.1934 1.9502000000000002 221
12.6406 2.1914 -0.149 153
12.6328 2.1914 2.2539 42
12.656199999999998 2.1504 0.1493 253
12.664100000000001 2.1504 0.4468 44
12.664100000000001 2.1504 0.7445999999999999 142
12.656199999999998 2.1504 -1.3447 157
12.656199999999998 2.1504 1.0449 205
12.6719 2.1523 -1.0459 167
12.585899999999999 2.1387 1.3369 45
12.656199999999998 2.1504 -0.7445999999999999 58
12.5547 2.1328 1.6328 92
12.6719 2.1523 -0.447 136
12.656199999999998 2.1504 1.9512 202
12.648399999999999 2.1484 -0.1492 9
12.6328 2.1465 2.252 164
12.656199999999998 2.1055 0.1492 249
12.656199999999998 2.1035 0.446 83
12.664100000000001 2.1055 0.7441 170
12.664100000000001 2.1055 -1.3447 188
12.656199999999998 2.1035 1.0439 8
12.656199999999998 2.1055 -1.0449 114
12.585899999999999 2.0918 1.3359 96
12.664100000000001 2.1055 -0.7441 58
12.5547 2.0879 1.6318000000000001 35
12.664100000000001 2.1055 -0.44630000000000003 194
12.648399999999999 2.1035 1.9491999999999998 148
12.656199999999998 2.1055 -0.1492 121
12.648399999999999 2.1016 2.252 231
12.6719 2.0605 0.1492 204
12.6406 2.0566 0.4456 8
12.6719 2.0605 0.7441 11
12.664100000000001 2.0605 -1.3437999999999999 120
12.648399999999999 2.0586 1.043 36
12.648399999999999 2.0586 -1.043 253
12.5781 2.0469 1.335 218
12.656199999999998 2.0586 -0.7437 2
12.5625 2.043 1.6318000000000001 56
12.664100000000001 2.0605 -0.44630000000000003 10
12.6406 2.0566 1.9463 72
12.6406 2.0566 -0.14880000000000002 251
12.648399999999999 2.0566 2.252 77
12.656199999999998 2.0156 0.149 152
12.6406 2.0137 0.44530000000000003 23
12.656199999999998 2.0156 0.7432 178
12.664100000000001 2.0176 -1.3428 111
12.656199999999998 2.0156 1.0439 86
12.656199999999998 2.0156 -1.043 27
12.5625 2.002 1.3330000000000002 119
12.656199999999998 2.0156 -0.7426999999999999 56
12.5625 2.0 1.6309 76
12.6719 2.0176 -0.44630000000000003 25
12.648399999999999 2.0137 1.9463 62
12.6328 2.0117 -0.1487 68
12.6406 2.0137 2.25 113
12.656199999999998 1.9727000000000001 0.1489 31
12.664100000000001 1.9736000000000002 0.4458 62
12.656199999999998 1.9727000000000001 0.7426999999999999 35
12.656199999999998 1.9727000000000001 -1.3418 14
12.664100000000001 1.9736000000000002 1.043 27
12.664100000000001 1.9746000000000001 -1.043 30
12.5703 1.96 1.3330000000000002 249
12.6328 1.9697 -0.7412000000000001 238
12.5625 1.9580000000000002 1.6299000000000001 21
12.6719 1.9756 -0.446 2
12.648399999999999 1.9716999999999998 1.9463 215
12.6328 1.9687999999999999 -0.14859999999999998 206
12.625 1.9687999999999999 2.2461 54
12.656199999999998 1.9247999999999998 0.14880000000000002 120
12.648399999999999 1.9247999999999998 0.4451 167
12.656199999999998 1.9247999999999998 0.7422 178
12.656199999999998 1.9258000000000002 -1.3408000000000002 192
12.664100000000001 1.9268 1.043 140
12.664100000000001 1.9268 -1.043 46
12.585899999999999 1.9141 1.3330000000000002 32
12.6406 1.9228999999999998 -0.7412000000000001 70
12.5469 1.9091999999999998 1.6269999999999998 196
12.6719 1.9268 -0.4458 217
12.648399999999999 1.9247999999999998 1.9443000000000001 63
12.648399999999999 1.9238 -0.1487 24
12.625 1.9209 2.2441 101
12.664100000000001 1.8818000000000001 0.14880000000000002 35
12.6406 1.8779 0.4446 220
12.656199999999998 1.8799000000000001 0.7417 130
12.656199999999998 1.8799000000000001 -1.3397999999999999 15
12.656199999999998 1.8799000000000001 1.041 167
12.656199999999998 1.8799000000000001 -1.041 82
12.5781 1.8691 1.3319999999999999 10
12.648399999999999 1.8788999999999998 -0.7412000000000001 80
12.5547 1.8652000000000002 1.6279 63
12.656199999999998 1.8799000000000001 -0.4451 66
12.6406 1.8769999999999998 1.9413999999999998 50
12.648399999999999 1.8788999999999998 -0.14859999999999998 173
12.6406 1.8779 2.2461 53
12.664100000000001 1.8369 0.14880000000000002 243
12.6328 1.8319999999999999 0.44409999999999994 1
12.656199999999998 1.835 0.7417 145
12.664100000000001 1.8359 -1.3397999999999999 158
12.648399999999999 1.834 1.04 63
12.648399999999999 1.834 -1.04 148
12.5703 1.8232 1.3311000000000002 221
12.648399999999999 1.834 -0.7412000000000001 191
12.5625 1.8213 1.6269999999999998 66
12.648399999999999 1.834 -0.4446 201
12.625 1.8311000000000002 1.9394999999999998 125
12.6406 1.8330000000000002 -0.1484 79
12.6328 1.8311000000000002 2.2422 106
12.664100000000001 1.791 0.1487 37
12.6406 1.7881 0.44409999999999994 85
12.656199999999998 1.79 0.7412000000000001 88
12.664100000000001 1.791 -1.3397999999999999 66
12.648399999999999 1.7891 1.04 150
12.6406 1.7871000000000001 -1.0391 105
12.5781 1.7783000000000002 1.3300999999999998 226
12.6328 1.7871000000000001 -0.7397 40
12.5703 1.7772999999999999 1.6269999999999998 170
12.664100000000001 1.791 -0.4448 214
12.6328 1.7861000000000002 1.9385 1
12.6328 1.7861000000000002 -0.1483 157
12.6328 1.7861000000000002 2.2422 206
12.656199999999998 1.749 0.1484 33
12.648399999999999 1.749 0.44409999999999994 20
12.6406 1.7480000000000002 0.7402 226
12.664100000000001 1.75 -1.3388999999999998 82
12.656199999999998 1.749 1.04 134
12.664100000000001 1.75 -1.04 37
12.5703 1.7372999999999998 1.3291 192
12.625 1.7450999999999999 -0.7387999999999999 100
12.5469 1.7344 1.624 11
12.656199999999998 1.75 -0.4443 118
12.6328 1.7461000000000002 1.9385 176
12.6406 1.7471 -0.1483 193
12.625 1.7450999999999999 2.2402 17
12.6406 1.7050999999999998 0.1483 0
12.648399999999999 1.7061000000000002 0.44409999999999994 14
12.648399999999999 1.7061000000000002 0.7402 226
12.656199999999998 1.7061000000000002 -1.3378999999999999 60
12.6406 1.7050999999999998 1.0381 43
12.656199999999998 1.7061000000000002 -1.0391 51
12.5781 1.6953 1.3291 123
12.6328 1.7031 -0.7387999999999999 200
12.5547 1.6934 1.624 255
12.656199999999998 1.7069999999999999 -0.44409999999999994 162
12.6406 1.7041 1.9385 131
12.6406 1.7050999999999998 -0.1483 115
12.6328 1.7031 2.2402 212
12.664100000000001 1.6602000000000001 0.1484 213
12.648399999999999 1.6582 0.4436 132
12.656199999999998 1.6602000000000001 0.7402 111
12.656199999999998 1.6591999999999998 -1.3369 3
12.6328 1.6562000000000001 1.0371 243
12.648399999999999 1.6582 -1.0381 172
12.5781 1.6494 1.3281 62
12.6328 1.6562000000000001 -0.7387999999999999 221
12.5547 1.6465 1.6230000000000002 131
12.648399999999999 1.6591999999999998 -0.44380000000000003 229
12.6328 1.6562000000000001 1.9365 64
12.648399999999999 1.6582 -0.1482 202
12.625 1.6553 2.2383 84
12.656199999999998 1.6143 0.1483 195
12.6328 1.6113 0.4429 53
12.648399999999999 1.6143 0.7393000000000001 250
12.656199999999998 1.6152000000000002 -1.3369 105
12.6328 1.6122999999999998 1.0371 100
12.6328 1.6113 -1.0371 170
12.5625 1.6025 1.3262 241
12.6406 1.6133000000000002 -0.7387999999999999 214
12.5547 1.6016 1.6230000000000002 69
12.648399999999999 1.6133000000000002 -0.4434 74
12.6172 1.6094 1.9325999999999999 41
12.6406 1.6122999999999998 -0.1481 232
12.6328 1.6122999999999998 2.2383 1
12.648399999999999 1.5693000000000001 0.1482 28
12.6406 1.5674000000000001 0.4429 167
12.648399999999999 1.5684 0.7387999999999999 129
12.664100000000001 1.5703 -1.3359 238
12.648399999999999 1.5684 1.0371 144
12.6328 1.5674000000000001 -1.0361 208
12.5547 1.5566 1.3252000000000002 209
12.6328 1.5663999999999998 -0.7378 89
12.5547 1.5575999999999999 1.6221 114
12.656199999999998 1.5693000000000001 -0.4434 198
12.625 1.5663999999999998 1.9336000000000002 249
12.6328 1.5674000000000001 -0.1479 161
12.6094 1.5635 2.2324 227
12.648399999999999 1.5244 0.1481 58
12.648399999999999 1.5234 0.4429 113
12.6328 1.5225 0.7378 163
12.656199999999998 1.5244 -1.335 98
12.648399999999999 1.5244 1.0371 162
12.6406 1.5234 -1.0371 59
12.5625 1.5137 1.3252000000000002 33
12.625 1.5215 -0.7373000000000001 164
12.5469 1.5116999999999998 1.6200999999999999 154
12.664100000000001 1.5253999999999999 -0.4436 122
12.6406 1.5225 1.9346 152
12.625 1.5205000000000002 -0.1478 255
8.1641 0.9834 1.4413999999999998 54
12.6328 1.4775 0.1478 119
12.648399999999999 1.4794999999999998 0.4429 167
12.6406 1.4785 0.7378 39
12.648399999999999 1.4794999999999998 -1.334 14
12.6406 1.4785 1.0361 47
12.648399999999999 1.4794999999999998 -1.0361 218
12.5703 1.4697 1.3252000000000002 32
12.625 1.4766 -0.7373000000000001 61
12.539100000000001 1.4658000000000002 1.6181999999999999 38
12.648399999999999 1.4794999999999998 -0.4429 211
12.625 1.4766 1.9316 183
12.6328 1.4766 -0.1478 152
12.6094 1.4746000000000001 2.2324 105
12.6406 1.4336000000000002 0.1478 245
12.6406 1.4336000000000002 0.4424 39
12.6406 1.4336000000000002 0.7373000000000001 34
12.656199999999998 1.4355000000000002 -1.334 56
12.6406 1.4336000000000002 1.0352 179
12.6406 1.4336000000000002 -1.0352 145
12.5625 1.4247999999999998 1.3241999999999998 157
12.648399999999999 1.4336000000000002 -0.7378 90
12.5469 1.4228999999999998 1.6181999999999999 247
12.6328 1.4325999999999999 -0.4421 252
12.6328 1.4325999999999999 1.9316 102
12.6328 1.4325999999999999 -0.1478 165
12.6406 1.4336000000000002 2.2363 136
12.6406 1.3887 0.1478 90
12.6406 1.3887 0.4421 237
12.648399999999999 1.3896000000000002 0.7378 112
12.656199999999998 1.3906 -1.334 255
12.625 1.3877000000000002 1.0342 251
12.625 1.3877000000000002 -1.0342 53
12.5547 1.3788999999999998 1.3222999999999998 216
12.6406 1.3887 -0.7373000000000001 215
12.5547 1.3788999999999998 1.6191 199
12.6328 1.3877000000000002 -0.4421 92
12.6172 1.3857 1.9287 86
12.6328 1.3877000000000002 -0.1477 220
8.3281 0.9146 1.4697 36
12.656199999999998 1.3457 0.1479 152
12.6406 1.3447 0.4421 229
12.6328 1.3437999999999999 0.7368000000000001 4
12.664100000000001 1.3466999999999998 -1.334 213
12.6406 1.3447 1.0352 243
12.6328 1.3437999999999999 -1.0342 66
12.539100000000001 1.334 1.3213 66
12.6328 1.3428 -0.7363 173
12.5547 1.335 1.6181999999999999 166
12.648399999999999 1.3447 -0.4424 162
8.2031 0.8721 1.251 180
12.6328 1.3428 -0.1476 2
8.3047 0.8833 1.4658000000000002 201
12.6328 1.3018 0.1477 189
12.648399999999999 1.3027000000000002 0.4421 43
12.6328 1.3008000000000002 0.7363 132
12.648399999999999 1.3027000000000002 -1.3319999999999999 191
12.6406 1.3018 1.0342 6
12.648399999999999 1.3027000000000002 -1.0352 28
12.5469 1.2919999999999998 1.3213 49
12.6328 1.3008000000000002 -0.7358 114
12.539100000000001 1.2919999999999998 1.6162 165
12.656199999999998 1.3037 -0.4426 1
12.625 1.3008000000000002 1.9297 241
12.625 1.2997999999999998 -0.1475 34
8.1484 0.8393999999999999 1.4365 238
12.6328 1.2588 0.1476 154
12.6406 1.2598 0.44189999999999996 117
12.625 1.2578 0.7358 209
12.6406 1.2598 -1.3311000000000002 160
12.6406 1.2598 1.0342 240
12.6406 1.2598 -1.0342 157
12.5625 1.252 1.3222999999999998 84
12.625 1.2578 -0.7358 74
12.5469 1.25 1.6162 54
12.6406 1.2598 -0.44189999999999996 132
12.625 1.2578 1.9287 96
12.6328 1.2588 -0.1476 229
8.1875 0.8159000000000001 1.4434 6
12.6328 1.2119 0.1475 92
12.6328 1.2119 0.4414 111
12.6406 1.2129 0.7363 95
12.6406 1.2129 -1.3300999999999998 139
12.625 1.2109 1.0322 81
12.6328 1.2119 -1.0332 220
12.5547 1.2051 1.3213 140
12.6406 1.2129 -0.7363 5
12.539100000000001 1.2031 1.6152000000000002 128
12.6328 1.2119 -0.4414 93
9.0703 0.8701000000000001 1.3828 128
12.6406 1.2129 -0.1476 121
8.2031 0.7870999999999999 1.4453 108
12.656199999999998 1.1689 0.1477 233
12.625 1.167 0.4409 255
12.648399999999999 1.1689 0.7363 106
12.648399999999999 1.1689 -1.3300999999999998 188
12.6328 1.168 1.0332 119
12.625 1.167 -1.0322 8
12.5547 1.1602 1.3203 137
12.6328 1.167 -0.7354 142
12.5469 1.1602 1.6162 237
12.6328 1.168 -0.4414 182
9.0469 0.8364 1.3788999999999998 219
12.6172 1.166 -0.1472 176
7.984400000000001 0.7383 1.4072 209
12.648399999999999 1.124 0.1476 39
12.625 1.1220999999999999 0.4407 156
12.6328 1.123 0.7354 38
12.648399999999999 1.124 -1.3300999999999998 214
12.6328 1.123 1.0322 198
12.6328 1.123 -1.0322 56
12.5469 1.1152 1.3193000000000001 127
12.6328 1.123 -0.7354 180
12.5547 1.1162 1.6162 129
12.6328 1.123 -0.4412 117
12.6172 1.1220999999999999 -0.1472 144
7.9765999999999995 0.7090000000000001 1.4043 245
12.6328 1.0781 0.14730000000000001 42
12.6406 1.0791 0.4412 250
12.625 1.0781 0.7343999999999999 229
12.648399999999999 1.0801 -1.3300999999999998 92
12.6406 1.0791 1.0322 156
12.6406 1.0791 -1.0322 79
12.5547 1.0723 1.3193000000000001 47
12.625 1.0781 -0.7349 184
12.5781 1.0732 1.6181999999999999 226
12.648399999999999 1.0801 -0.44170000000000004 205
8.0547 0.688 1.2266 131
12.625 1.0771 -0.1472 152
7.9453 0.6781999999999999 1.3984 114
12.6328 1.0293 0.14730000000000001 124
12.6406 1.0303 0.4412 198
12.625 1.0293 0.7343999999999999 191
12.6328 1.0293 -1.3271000000000002 30
12.6328 1.0293 1.0312000000000001 88
12.6406 1.0303 -1.0322 173
12.5625 1.0234 1.3193000000000001 188
12.6328 1.0293 -0.7349 67
9.0234 0.7358 1.1592 98
12.6328 1.0303 -0.4409 77
8.0625 0.6567000000000001 1.2266 215
12.625 1.0293 -0.1472 54
7.980499999999999 0.6504000000000001 1.4043 129
12.6406 0.9839 0.14730000000000001 41
12.6328 0.9834 0.4407 73
12.6328 0.9829000000000001 0.7343999999999999 178
12.6406 0.9834 -1.3281 247
12.625 0.9823999999999999 1.0312000000000001 214
12.6328 0.9834 -1.0312000000000001 46
12.5625 0.9775 1.3193000000000001 159
12.6328 0.9829000000000001 -0.7343999999999999 67
9.0156 0.7017 1.1582 252
12.625 0.9829000000000001 -0.4404 34
8.0625 0.6274000000000001 1.2266 46
12.6328 0.9829000000000001 -0.14730000000000001 108
8.0625 0.6274000000000001 1.4188999999999998 44
12.6328 0.9453 0.1472 227
12.6094 0.9438 0.4399 66
12.6406 0.9462999999999999 0.7349 228
12.648399999999999 0.9462999999999999 -1.3281 121
12.625 0.9448000000000001 1.0303 213
12.625 0.9448000000000001 -1.0303 12
9.0312 0.6762999999999999 0.9478 240
12.6406 0.9462999999999999 -0.7349 7
9.0078 0.6743000000000001 1.1562000000000001 212
12.6406 0.9458 -0.4407 74
12.710899999999999 0.9512 1.9365 54
12.6172 0.9443 -0.1471 186
8.0625 0.603 1.4180000000000001 192
12.6406 0.9037999999999999 0.1472 228
12.625 0.9023 0.44020000000000004 223
12.6328 0.9033 0.7339 30
12.648399999999999 0.9043000000000001 -1.3281 157
12.6328 0.9033 1.0312000000000001 192
12.6328 0.9033 -1.0303 216
9.0078 0.644 0.9443 37
12.6172 0.9023 -0.7334 106
9.0078 0.644 1.1562000000000001 177
12.6406 0.9037999999999999 -0.4407 226
12.726600000000001 0.9102 1.9394999999999998 16
12.601600000000001 0.9014 -0.1469 202
7.9297 0.5669 1.3944999999999999 217
12.625 0.8540000000000001 0.1471 140
12.6406 0.855 0.4404 213
12.625 0.8540000000000001 0.7334 95
12.6328 0.855 -1.3262 207
12.6406 0.855 1.0312000000000001 38
12.6406 0.855 -1.0312000000000001 193
8.9922 0.6084 0.9429000000000001 124
12.6172 0.8534999999999999 -0.7329000000000001 248
12.6875 0.8584 1.6309 117
12.6406 0.855 -0.4407 112
12.7578 0.8633 1.9434 245
12.6094 0.853 -0.1469 117
7.8984000000000005 0.5342 1.3887 164
12.6094 0.8090999999999999 0.1469 120
12.625 0.8101 0.44020000000000004 68
12.625 0.8101 0.7334 45
12.625 0.8096 -1.3252000000000002 88
8.9531 0.5742 0.7295 103
12.6328 0.8105 -1.0303 169
9.0078 0.5776 0.9443 56
12.6172 0.8096 -0.7329000000000001 206
12.6797 0.8134999999999999 1.6288999999999998 187
12.625 0.8096 -0.4399 233
12.7344 0.8169 1.9394999999999998 123
12.6172 0.8096 -0.147 99
7.9062 0.5068 1.3896000000000002 10
12.6328 0.7681 0.1471 201
12.625 0.7676000000000001 0.4399 153
12.6328 0.7681 0.7334 6
12.6172 0.7676000000000001 -1.3241999999999998 81
8.9219 0.5429999999999999 0.7265999999999999 31
12.6328 0.7681 -1.0303 78
9.0234 0.5488000000000001 0.9453 34
12.6328 0.7681 -0.7339 155
12.6953 0.772 1.6309 23
12.625 0.7681 -0.4399 226
12.710899999999999 0.7729 1.9355000000000002 6
12.625 0.7676000000000001 -0.147 230
7.984400000000001 0.48560000000000003 1.4033000000000002 151
12.6328 0.7265999999999999 0.1471 102
12.6172 0.7251000000000001 0.4395 111
12.6328 0.7261 0.7334 125
12.6328 0.7261 -1.3252000000000002 160
8.9062 0.5117 0.7245999999999999 242
12.625 0.7256 -1.0293 182
12.5469 0.7212000000000001 1.3163999999999998 4
12.625 0.7261 -0.7334 60
12.7031 0.73 1.6309 203
12.6328 0.7261 -0.4399 239
12.7031 0.73 1.9336000000000002 129
12.6094 0.7251000000000001 -0.1469 30
8.5078 0.489 1.4950999999999999 133
12.6406 0.6820999999999999 0.1471 234
12.6172 0.6812 0.43920000000000003 222
12.6172 0.6812 0.7329000000000001 32
12.6406 0.6820999999999999 -1.3252000000000002 182
8.9141 0.4814 0.7256 91
12.625 0.6816 -1.0293 98
12.5469 0.6772 1.3163999999999998 52
12.625 0.6816 -0.7329000000000001 241
12.7031 0.6855 1.6309 222
12.6328 0.6820999999999999 -0.44020000000000004 191
12.710899999999999 0.6859999999999999 1.9346 122
12.601600000000001 0.6801999999999999 -0.1467 235
8.5625 0.4622 1.5049000000000001 36
12.6172 0.6392 0.1469 35
12.625 0.6396000000000001 0.4397 104
12.6172 0.6392 0.7323999999999999 183
12.6172 0.6392 -1.3232 79
8.9297 0.4524 0.7265999999999999 228
12.6406 0.6401 -1.0303 187
12.5469 0.6357 1.3163999999999998 7
12.6094 0.6392 -0.7319 216
12.6875 0.6426000000000001 1.6288999999999998 55
12.6406 0.6401 -0.44020000000000004 19
12.726600000000001 0.645 1.9365 150
12.601600000000001 0.6386999999999999 -0.1467 218
8.5938 0.4355 1.5107 177
12.6172 0.5928 0.1469 248
12.6328 0.5938 0.4397 196
12.6094 0.5922999999999999 0.7319 114
12.6094 0.5928 -1.3222999999999998 254
12.625 0.5932999999999999 1.0283 69
12.6406 0.5942000000000001 -1.0303 119
12.5547 0.5898 1.3163999999999998 3
12.6172 0.5928 -0.7319 233
12.6875 0.5962 1.6288999999999998 26
12.625 0.5932999999999999 -0.4395 64
8.8203 0.4143 1.3397999999999999 9
12.6094 0.5928 -0.1467 251
8.6094 0.4045 1.5127000000000002 139
12.6094 0.5483 0.1467 60
12.6172 0.5483 0.43920000000000003 204
8.9375 0.3887 0.5176 108
12.6172 0.5488000000000001 -1.3222999999999998 230
12.6172 0.5488000000000001 1.0283 171
12.6172 0.5488000000000001 -1.0283 99
12.5625 0.5459 1.3163999999999998 172
12.6172 0.5488000000000001 -0.7319 22
12.6953 0.5522 1.6288999999999998 138
12.6172 0.5483 -0.43920000000000003 238
8.8047 0.38280000000000003 1.3369 139
12.601600000000001 0.5478999999999999 -0.1466 106
8.6641 0.377 1.5225 105
12.625 0.5049 0.1469 96
12.601600000000001 0.5039 0.4387 38
8.9219 0.3567 0.5166 205
12.6328 0.5049 -1.3241999999999998 36
12.6172 0.5044 1.0273 251
12.6172 0.5044 -1.0283 177
12.5469 0.502 1.3154 184
12.625 0.5049 -0.7323999999999999 3
12.6953 0.5078 1.6288999999999998 215
12.625 0.5049 -0.4395 6
8.7969 0.3518 1.3359 138
12.593800000000002 0.5039 -0.1465 212
8.7109 0.34840000000000004 1.5303 192
12.625 0.4607 0.1469 6
12.6094 0.46020000000000005 0.439 84
8.8984 0.3247 0.5156000000000001 181
12.6328 0.46090000000000003 -1.3241999999999998 26
12.625 0.4607 1.0283 230
12.625 0.4607 -1.0283 44
12.531199999999998 0.4575 1.3135 208
12.601600000000001 0.46 -0.731 98
12.6953 0.46340000000000003 1.6288999999999998 134
12.6328 0.46090000000000003 -0.4395 172
8.8125 0.3218 1.3388999999999998 221
12.593800000000002 0.4595 -0.1465 241
8.8281 0.3223 1.5508000000000002 193
12.6094 0.4138 0.1466 24
12.6172 0.41409999999999997 0.439 63
8.8828 0.2917 0.5146000000000001 84
12.6172 0.4143 -1.3222999999999998 219
12.625 0.4143 1.0283 25
12.6094 0.41409999999999997 -1.0273 147
12.5469 0.4119 1.3154 7
12.6094 0.4138 -0.731 189
12.6953 0.4167 1.6288999999999998 0
12.6328 0.4146 -0.4395 63
8.8672 0.29100000000000004 1.3466999999999998 142
12.593800000000002 0.4133 -0.1464 93
8.8438 0.2903 1.5537 198
12.6094 0.3699 0.1466 47
12.6172 0.3701 0.43920000000000003 71
8.8906 0.2607 0.5146000000000001 25
12.6172 0.3701 -1.3222999999999998 59
12.6172 0.3701 1.0273 243
12.6328 0.37060000000000004 -1.0283 204
12.5469 0.3679 1.3144999999999998 207
12.6094 0.3699 -0.7314 169
8.9531 0.2625 1.1465 51
12.625 0.3704 -0.43920000000000003 102
8.9297 0.262 1.3563999999999998 57
12.601600000000001 0.3696 -0.1466 244
8.8281 0.2588 1.5497999999999998 226
12.6094 0.3281 0.1466 180
12.6094 0.3281 0.4387 47
8.8984 0.2316 0.5156000000000001 37
12.6094 0.3281 -1.3213 76
12.601600000000001 0.32789999999999997 1.0264 253
12.6094 0.32789999999999997 -1.0264 131
12.5469 0.3264 1.3154 62
12.6172 0.3284 -0.7319 94
8.9375 0.2324 1.1445 177
12.6172 0.3281 -0.4387 33
9.0 0.2341 1.3662 28
12.593800000000002 0.3276 -0.1465 169
8.9297 0.2323 1.5674000000000001 145
12.625 0.2866 0.1467 98
12.601600000000001 0.2859 0.4382 127
8.8984 0.20199999999999999 0.5151 88
12.6172 0.2864 -1.3222999999999998 135
12.601600000000001 0.2861 1.0264 255
12.601600000000001 0.2859 -1.0254 224
12.5469 0.2847 1.3144999999999998 120
12.6094 0.2861 -0.7314 132
8.9375 0.2028 1.1436 130
12.6172 0.2864 -0.439 178
9.4062 0.2134 1.4277000000000002 152
12.601600000000001 0.2859 -0.1465 227
9.6016 0.21789999999999998 1.6855000000000002 19
12.625 0.2402 0.1467 83
12.593800000000002 0.2396 0.4382 141
8.8984 0.16920000000000002 0.5151 172
12.6172 0.2401 -1.3222999999999998 60
12.6328 0.2404 1.0283 103
12.6094 0.24 -1.0264 211
12.531199999999998 0.23850000000000002 1.3135 12
12.601600000000001 0.2397 -0.7304999999999999 96
8.9297 0.1699 1.1436 38
12.625 0.2402 -0.43920000000000003 138
9.4922 0.1805 1.4413999999999998 239
12.593800000000002 0.2396 -0.1464 70
9.1953 0.17489999999999997 1.6143 190
12.6172 0.1959 0.1466 28
12.6094 0.1959 0.4387 101
8.8984 0.1383 0.5151 175
12.6094 0.1959 -1.3213 228
12.625 0.196 1.0273 42
12.6094 0.19579999999999997 -1.0264 246
8.9531 0.139 0.9365000000000001 219
12.585899999999999 0.1956 -0.7295 55
8.9297 0.1387 1.1436 235
12.6172 0.196 -0.439 32
9.5 0.1476 1.4424000000000001 251
12.593800000000002 0.1957 -0.1464 183
9.1719 0.1425 1.6103999999999998 183
12.6094 0.15410000000000001 0.1465 187
12.6172 0.1542 0.439 17
8.9062 0.10880000000000001 0.5156000000000001 110
12.6094 0.15410000000000001 -1.3203 21
8.9766 0.1097 0.73 237
12.6172 0.1542 -1.0273 93
8.9375 0.1092 0.9351 193
12.6094 0.15410000000000001 -0.731 126
8.9531 0.1094 1.1455 222
12.6172 0.15410000000000001 -0.4387 197
9.4609 0.11560000000000001 1.4365 220
12.593800000000002 0.1539 -0.1464 63
9.3516 0.1143 1.6416 69
12.601600000000001 0.11220000000000001 0.1465 71
8.9141 0.0793 0.3093 131
8.9141 0.0793 0.5156000000000001 5
12.6094 0.11220000000000001 -1.3203 170
8.9297 0.0795 0.7256 234
12.6094 0.11220000000000001 -1.0264 89
8.9141 0.0793 0.9326000000000001 40
12.6094 0.11220000000000001 -0.731 103
8.9297 0.0795 1.1426 164
12.6094 0.11220000000000001 -0.4385 78
9.3984 0.0836 1.4258000000000002 229
8.9219 0.0794 -0.1035 136
9.1094 0.08109999999999999 1.5996000000000001 240
8.9531 0.046799999999999994 0.1038 137
8.8672 0.0464 -1.3457 151
8.8828 0.04650000000000001 0.30829999999999996 10
8.875 0.04650000000000001 -1.1367 131
8.9062 0.0466 0.5151 37
8.9062 0.0466 -0.9316 164
8.9141 0.0467 0.7241 232
8.9219 0.0467 -0.7251000000000001 48
8.9062 0.0466 0.9316 126
8.9375 0.046799999999999994 -0.5171 138
8.9375 0.046799999999999994 1.1445 32
8.9219 0.0467 -0.3098 133
9.0156 0.0472 1.3681999999999999 65
8.9062 0.0466 -0.1033 6
8.7969 0.0461 1.5430000000000001 59
8.9219 0.015600000000000001 0.1035 158
8.8203 0.0154 -1.3388999999999998 0
8.875 0.0155 0.30829999999999996 135
8.8594 0.0155 -1.1348 55
8.9062 0.0155 0.5156000000000001 151
8.8828 0.0155 -0.9292 202
8.9297 0.015600000000000001 0.7261 81
8.8828 0.0155 -0.7222 63
8.9062 0.0155 0.9316 148
8.8906 0.0155 -0.5146000000000001 155
8.9219 0.015600000000000001 1.1426 169
8.8906 0.0155 -0.30879999999999996 57
8.9844 0.015700000000000002 1.3633000000000002 154
8.8828 0.0155 -0.10300000000000001 111
8.7656 0.015300000000000001 1.5381 90
8.9141 -0.015600000000000001 0.1033 229
8.8047 -0.0154 -1.3369 2
8.8906 -0.0155 0.3086 243
8.8359 -0.0154 -1.1309 129
8.9062 -0.0155 0.5156000000000001 12
8.8516 -0.0154 -0.9258 197
8.9297 -0.015600000000000001 0.7256 183
8.8828 -0.0155 -0.7217 68
8.9375 -0.015600000000000001 0.9346 33
8.875 -0.0155 -0.5136999999999999 234
8.9141 -0.015600000000000001 1.1416 167
8.8984 -0.0155 -0.3091 140
8.9375 -0.015600000000000001 1.3563999999999998 87
8.8906 -0.0155 -0.10310000000000001 223
8.7812 -0.015300000000000001 1.541 78
8.8984 -0.0466 0.10310000000000001 3
8.7891 -0.046 -1.3330000000000002 25
8.8906 -0.04650000000000001 0.3086 221
8.8203 -0.0462 -1.1289 195
8.9219 -0.0467 0.5166 229
8.8359 -0.0463 -0.9243000000000001 198
8.9297 -0.046799999999999994 0.7256 206
8.8672 -0.0464 -0.7206999999999999 185
8.9453 -0.046799999999999994 0.9355 100
8.8672 -0.0464 -0.5136999999999999 76
8.9141 -0.0467 1.1406 182
8.8828 -0.04650000000000001 -0.3086 86
8.9375 -0.046799999999999994 1.3563999999999998 172
8.8984 -0.0466 -0.10310000000000001 38
8.9766 -0.047 1.5762 177
8.9141 -0.0793 0.1033 143
8.7812 -0.0782 -1.3330000000000002 176
8.9141 -0.0793 0.3096 216
8.8125 -0.0785 -1.1289 179
8.9453 -0.0796 0.5176 232
8.8359 -0.0787 -0.9243000000000001 47
8.9609 -0.07980000000000001 0.7284999999999999 235
8.875 -0.079 -0.7212000000000001 46
12.531199999999998 -0.1116 1.3125 7
8.8672 -0.079 -0.5136999999999999 135
8.9219 -0.0794 1.1426 192
8.8828 -0.0791 -0.30829999999999996 18
8.9453 -0.0797 1.3574000000000002 197
8.9062 -0.0793 -0.1033 182
9.0 -0.0801 1.5800999999999998 224
8.9297 -0.1107 0.1035 236
8.7734 -0.10869999999999999 -1.3311000000000002 220
8.9375 -0.1107 0.3103 143
8.8047 -0.1091 -1.127 61
12.625 -0.1565 0.7319 62
8.8359 -0.10949999999999999 -0.9243000000000001 145
12.6094 -0.1562 1.0264 118
8.8594 -0.1097 -0.7197 33
12.539100000000001 -0.15539999999999998 1.3135 195
8.8828 -0.1101 -0.5142 203
12.6797 -0.15710000000000002 1.625 160
8.8906 -0.11019999999999999 -0.3086 73
8.9531 -0.111 1.3584 193
8.8984 -0.1103 -0.10310000000000001 172
8.9375 -0.1108 1.5693000000000001 201
8.9609 -0.1407 0.1039 240
8.7891 -0.1381 -1.334 171
12.6953 -0.19949999999999998 0.44170000000000004 101
8.7969 -0.1383 -1.127 230
12.601600000000001 -0.198 0.731 185
8.8438 -0.1389 -0.9253 153
12.6172 -0.19820000000000002 1.0273 61
8.8594 -0.1392 -0.7202 110
12.539100000000001 -0.19699999999999998 1.3135 236
8.875 -0.1394 -0.5136999999999999 122
12.6875 -0.1993 1.6269999999999998 124
8.9219 -0.1401 -0.3098 84
9.3672 -0.1471 1.4219 240
8.9141 -0.14 -0.10339999999999999 16
8.9766 -0.1411 1.5762 172
12.914100000000001 -0.24559999999999998 0.1501 82
8.8125 -0.1677 -1.3378999999999999 42
12.8125 -0.2438 0.4458 32
8.8281 -0.168 -1.1299 153
12.593800000000002 -0.2396 0.73 35
8.8594 -0.1686 -0.9268000000000001 39
12.6172 -0.2401 1.0273 213
8.875 -0.1689 -0.7217 121
12.531199999999998 -0.2384 1.3125 104
8.9062 -0.16940000000000002 -0.5156000000000001 6
12.6797 -0.2413 1.626 210
9.6094 -0.1827 1.459 215
12.8672 -0.24489999999999998 -0.1497 161
8.9844 -0.171 1.5771000000000002 131
12.773399999999999 -0.2898 0.14859999999999998 106
8.8438 -0.2007 -1.3428 162
12.835899999999999 -0.2913 0.4465 56
8.8516 -0.20079999999999998 -1.1338 0
12.593800000000002 -0.2859 0.7304999999999999 195
12.593800000000002 -0.2859 -1.3193000000000001 63
12.601600000000001 -0.2861 1.0264 19
12.539100000000001 -0.2847 1.3135 213
12.6797 -0.2876 1.626 68
12.7969 -0.2903 -0.44530000000000003 184
12.7031 -0.2883 1.9316 80
12.851600000000001 -0.2917 -0.1494 248
9.0234 -0.2048 1.584 105
12.726600000000001 -0.3333 0.1479 170
12.648399999999999 -0.33130000000000004 0.4399 199
12.6094 -0.3301 0.731 231
12.593800000000002 -0.3298 -1.3193000000000001 165
12.601600000000001 -0.3298 1.0254 207
12.7578 -0.3342 -1.0391 196
12.531199999999998 -0.3281 1.3135 222
12.781199999999998 -0.3347 -0.7412000000000001 69
12.6797 -0.332 1.6269999999999998 31
12.835899999999999 -0.3362 -0.4465 49
12.6953 -0.3325 1.9306999999999999 18
12.914100000000001 -0.3381 -0.1501 83
9.0859 -0.23800000000000002 1.5957 189
12.875 -0.3821 0.1497 49
12.8281 -0.3809 0.44630000000000003 65
12.6094 -0.3743 0.7314 69
12.601600000000001 -0.374 -1.3213 151
12.6094 -0.3743 1.0264 24
12.773399999999999 -0.37920000000000004 -1.04 144
12.531199999999998 -0.3718 1.3125 146
12.710899999999999 -0.3772 -0.7373000000000001 231
12.6875 -0.3765 1.6269999999999998 203
12.664100000000001 -0.3757 -0.4404 181
12.6953 -0.37670000000000003 1.9297 45
12.7656 -0.3789 -0.1484 181
8.8984 -0.2639 1.5615 77
12.7031 -0.4214 0.1478 221
12.6953 -0.4211 0.44170000000000004 61
12.601600000000001 -0.4182 0.731 87
12.6094 -0.4182 -1.3213 21
12.6172 -0.41850000000000004 1.0273 207
12.8047 -0.42479999999999996 -1.043 120
12.5156 -0.415 1.3115 219
12.7969 -0.42460000000000003 -0.7422 118
12.6875 -0.42090000000000005 1.6269999999999998 78
12.851600000000001 -0.4263 -0.4473 214
12.6953 -0.4211 1.9297 111
12.8672 -0.4268 -0.1497 232
8.9375 -0.2966 1.5703 225
12.906199999999998 -0.46880000000000005 0.1501 161
12.773399999999999 -0.4639 0.4446 62
12.593800000000002 -0.4573 0.7304999999999999 56
12.601600000000001 -0.4575 -1.3203 166
12.6094 -0.45799999999999996 1.0273 203
12.710899999999999 -0.4617 -1.0352 244
12.523399999999999 -0.4548 1.3125 53
12.7031 -0.46140000000000003 -0.7368000000000001 217
12.6797 -0.4604 1.6269999999999998 229
12.8281 -0.4661 -0.4465 179
12.7031 -0.4612 1.9316 170
12.8594 -0.467 -0.1495 198
8.9844 -0.3262 1.5771000000000002 146
12.8828 -0.5107 0.1499 84
12.835899999999999 -0.5088 0.4468 181
12.601600000000001 -0.49950000000000006 0.731 195
12.585899999999999 -0.499 -1.3193000000000001 167
12.601600000000001 -0.49950000000000006 1.0264 251
12.8125 -0.5078 -1.0439 91
12.531199999999998 -0.4968 1.3135 36
12.7969 -0.5073 -0.7422 30
12.648399999999999 -0.5015 1.6230000000000002 108
12.7422 -0.5054 -0.4436 115
12.7031 -0.5034000000000001 1.9325999999999999 74
12.710899999999999 -0.5039 -0.1478 186
9.0078 -0.35719999999999996 1.5819999999999999 155
12.7578 -0.5527000000000001 0.1484 117
12.6719 -0.5488000000000001 0.4412 182
12.6094 -0.5464 0.7319 33
12.593800000000002 -0.5454 -1.3203 58
12.585899999999999 -0.5454 1.0254 30
12.7969 -0.5542 -1.042 172
12.5469 -0.5435 1.3154 254
12.7969 -0.5542 -0.7426999999999999 168
12.6719 -0.5488000000000001 1.626 141
12.835899999999999 -0.5562 -0.447 47
12.6797 -0.5493 1.9297 26
12.8281 -0.5557 -0.1493 57
9.7188 -0.42090000000000005 1.7080000000000002 51
12.9375 -0.6054999999999999 0.1506 45
12.8125 -0.5996 0.446 251
12.601600000000001 -0.5898 0.7314 138
12.601600000000001 -0.5898 -1.3213 22
12.601600000000001 -0.5898 1.0273 173
12.726600000000001 -0.5957 -1.0371 126
12.523399999999999 -0.5864 1.3135 60
12.6953 -0.5942000000000001 -0.7368000000000001 49
12.6797 -0.5938 1.6269999999999998 213
12.648399999999999 -0.5922999999999999 -0.4404 214
12.6797 -0.5932999999999999 1.9287 193
12.7344 -0.5962 -0.1482 189
9.7031 -0.45409999999999995 1.7050999999999998 186
12.6797 -0.6382 0.1476 158
12.789100000000001 -0.6436 0.44530000000000003 98
12.593800000000002 -0.6333 0.731 234
12.601600000000001 -0.6338 -1.3213 130
12.6094 -0.6343 1.0273 161
12.789100000000001 -0.6436 -1.042 92
12.5156 -0.6294 1.3125 253
12.8125 -0.6445000000000001 -0.7437 195
12.6797 -0.6382 1.6279 159
12.8125 -0.6445000000000001 -0.44630000000000003 78
12.6719 -0.6377 1.9287 13
12.6797 -0.6382 -0.1476 92
9.7188 -0.4888 1.7080000000000002 123
12.7969 -0.6884999999999999 0.1489 52
12.648399999999999 -0.6807 0.4407 39
12.5781 -0.6768000000000001 0.7304999999999999 226
12.593800000000002 -0.6777 -1.3213 114
12.601600000000001 -0.6777 1.0273 178
12.718800000000002 -0.6840999999999999 -1.0361 95
12.523399999999999 -0.6738 1.3135 194
12.773399999999999 -0.687 -0.7412000000000001 20
12.6719 -0.6820999999999999 1.6269999999999998 127
12.835899999999999 -0.6904 -0.447 20
12.6875 -0.6831 1.9316 207
12.7969 -0.6884999999999999 -0.1489 201
13.101600000000001 -0.7045999999999999 2.3047 117
12.8906 -0.7387999999999999 0.1501 199
12.8281 -0.7349 0.4468 99
12.593800000000002 -0.7217 0.731 214
12.593800000000002 -0.7217 -1.3213 155
12.593800000000002 -0.7217 1.0273 89
12.789100000000001 -0.7329000000000001 -1.043 146
12.523399999999999 -0.7178 1.3135 166
12.773399999999999 -0.7319 -0.7417 63
12.648399999999999 -0.7251000000000001 1.625 91
12.648399999999999 -0.7245999999999999 -0.4404 202
12.6953 -0.7275 1.9316 192
12.6172 -0.7231000000000001 -0.147 232
13.0781 -0.7495 2.3027 184
12.726600000000001 -0.7739 0.1482 157
12.648399999999999 -0.769 0.4407 52
12.585899999999999 -0.7656000000000001 0.731 247
12.601600000000001 -0.7661 -1.3222999999999998 215
12.593800000000002 -0.7661 1.0273 206
12.8047 -0.7783 -1.0439 162
12.523399999999999 -0.7617 1.3135 20
12.8047 -0.7787999999999999 -0.7437 194
12.648399999999999 -0.7695000000000001 1.625 241
12.8125 -0.7787999999999999 -0.44630000000000003 53
12.6797 -0.7709999999999999 1.9306999999999999 228
12.7969 -0.7783 -0.149 80
12.976600000000001 -0.7890999999999999 2.2852 44
12.8828 -0.8286 0.1501 132
12.7656 -0.8212999999999999 0.4451 35
12.601600000000001 -0.8105 0.7319 153
12.601600000000001 -0.8105 -1.3232 159
12.593800000000002 -0.8101 1.0273 138
12.664100000000001 -0.8149 -1.0332 159
12.5156 -0.8047 1.3135 83
12.7344 -0.8193 -0.7397 164
12.656199999999998 -0.8140000000000001 1.626 17
12.8047 -0.8237000000000001 -0.44630000000000003 85
12.6719 -0.8149 1.9297 238
12.8125 -0.8237000000000001 -0.1492 216
12.9375 -0.8320000000000001 2.2773 14
12.906199999999998 -0.875 0.15039999999999998 98
12.789100000000001 -0.8672 0.4458 177
12.585899999999999 -0.8534999999999999 0.7314 197
12.6094 -0.855 -1.3241999999999998 101
12.601600000000001 -0.8545 1.0283 129
12.773399999999999 -0.8667 -1.042 182
12.5078 -0.8481000000000001 1.3125 114
12.8047 -0.8687 -0.7441 159
12.6719 -0.8593999999999999 1.6279 200
12.7656 -0.8656999999999999 -0.4451 3
12.6797 -0.8599 1.9306999999999999 97
12.6875 -0.8608 -0.1478 215
12.9219 -0.8765000000000001 2.2773 224
12.718800000000002 -0.9053 0.1482 178
12.656199999999998 -0.9009 0.4414 129
12.5781 -0.895 0.731 174
12.601600000000001 -0.897 -1.3232 54
12.585899999999999 -0.8955 1.0273 180
12.7578 -0.9077 -1.041 207
12.5078 -0.8901 1.3135 199
12.789100000000001 -0.9102 -0.7437 246
12.656199999999998 -0.9009 1.6269999999999998 77
12.8281 -0.9126000000000001 -0.4473 218
12.6875 -0.9028 1.9336000000000002 237
12.773399999999999 -0.9092 -0.1489 93
12.898399999999999 -0.9179999999999999 2.2734 99
12.875 -0.9590000000000001 0.1501 110
12.7969 -0.9531000000000001 0.44630000000000003 130
12.585899999999999 -0.9375 0.7314 206
12.593800000000002 -0.9384999999999999 -1.3232 10
12.585899999999999 -0.9375 1.0273 187
12.781199999999998 -0.9521 -1.043 205
12.5156 -0.9320999999999999 1.3144999999999998 242
12.6797 -0.9448000000000001 -0.7373000000000001 232
12.648399999999999 -0.9423999999999999 1.626 127
12.648399999999999 -0.9419 -0.4412 170
12.6953 -0.9453 1.9346 246
12.6328 -0.9409000000000001 -0.1472 191
12.914100000000001 -0.9619 2.2773 255
12.6719 -0.9906999999999999 0.1478 41
12.7031 -0.9926999999999999 0.44310000000000005 15
12.585899999999999 -0.9839 0.7319 117
12.601600000000001 -0.9854 -1.3241999999999998 126
12.585899999999999 -0.9839 1.0273 90
12.773399999999999 -0.9984999999999999 -1.043 96
12.5156 -0.9784999999999999 1.3144999999999998 9
12.8047 -1.001 -0.7445999999999999 239
12.648399999999999 -0.9887999999999999 1.6269999999999998 37
12.7969 -1.0 -0.44630000000000003 211
12.6719 -0.9906999999999999 1.9316 80
12.75 -0.9971 -0.1487 88
12.906199999999998 -1.0088 2.2754 242
12.8672 -1.0518 0.1501 237
12.726600000000001 -1.0391 0.44409999999999994 43
12.593800000000002 -1.0293 0.7329000000000001 149
12.6094 -1.0303 -1.3252000000000002 85
12.593800000000002 -1.0283 1.0283 40
12.6797 -1.0361 -1.0352 31
12.5078 -1.0215 1.3144999999999998 57
12.7031 -1.0381 -0.7387999999999999 2
12.656199999999998 -1.0342 1.6279 122
12.789100000000001 -1.0449 -0.44630000000000003 180
12.664100000000001 -1.0342 1.9306999999999999 140
12.773399999999999 -1.0439 -0.149 107
12.914100000000001 -1.0547 2.2773 246
12.8672 -1.0967 0.1501 141
12.773399999999999 -1.0879 0.4458 136
12.585899999999999 -1.0723 0.7323999999999999 241
12.6094 -1.0742 -1.3252000000000002 26
12.585899999999999 -1.0723 1.0283 114
12.789100000000001 -1.0898 -1.0449 49
12.5 -1.0654000000000001 1.3144999999999998 165
12.8125 -1.0918 -0.7451000000000001 143
12.656199999999998 -1.0781 1.6279 247
12.7344 -1.085 -0.4443 249
12.664100000000001 -1.0791 1.9316 1
12.656199999999998 -1.0781 -0.1477 164
12.898399999999999 -1.0986 2.2754 156
12.726600000000001 -1.1289 0.14859999999999998 94
12.6328 -1.1211 0.4412 201
12.585899999999999 -1.1162 0.7323999999999999 187
12.6094 -1.1181999999999999 -1.3262 187
12.601600000000001 -1.1181999999999999 1.0293 235
12.8047 -1.1357 -1.0469 71
12.5 -1.1094 1.3144999999999998 212
12.8203 -1.1377 -0.7461 146
12.648399999999999 -1.1220999999999999 1.6279 112
12.8594 -1.1406 -0.449 44
12.6719 -1.124 1.9336000000000002 215
12.7969 -1.1348 -0.1493 252
12.8906 -1.1436 2.2754 142
12.8594 -1.1904000000000001 0.1501 33
12.7969 -1.1855 0.447 78
12.5781 -1.165 0.7323999999999999 0
12.593800000000002 -1.166 -1.3241999999999998 238
12.585899999999999 -1.165 1.0283 233
12.726600000000001 -1.1787 -1.04 146
12.5078 -1.1582 1.3154 228
12.7031 -1.1768 -0.7397 99
12.648399999999999 -1.1709 1.6288999999999998 35
12.726600000000001 -1.1787 -0.4446 99
12.6797 -1.1738 1.9355000000000002 72
12.8125 -1.1865 -0.1495 81
12.8828 -1.1934 2.2734 87
12.7578 -1.2285 0.1489 40
12.8047 -1.2324 0.4473 7
12.585899999999999 -1.2119 0.7329000000000001 195
12.585899999999999 -1.2119 -1.3241999999999998 38
12.5703 -1.21 1.0273 98
12.710899999999999 -1.2246 -1.04 220
12.5078 -1.2051 1.3163999999999998 8
12.718800000000002 -1.2246 -0.7406999999999999 69
12.648399999999999 -1.2178 1.6288999999999998 75
12.7422 -1.2266 -0.44530000000000003 54
12.6719 -1.2197 1.9346 240
12.726600000000001 -1.2256 -0.14859999999999998 247
12.898399999999999 -1.2422 2.2773 249
12.726600000000001 -1.2637 0.1487 85
12.6875 -1.2598 0.4434 211
12.5781 -1.249 0.7329000000000001 62
12.585899999999999 -1.25 -1.3252000000000002 240
12.5781 -1.249 1.0293 100
12.5781 -1.249 -1.0283 44
12.5078 -1.2422 1.3163999999999998 196
12.6094 -1.252 -0.7343999999999999 93
12.656199999999998 -1.2568000000000001 1.6309 72
12.6953 -1.2598 -0.4436 47
12.664100000000001 -1.2568000000000001 1.9336000000000002 11
12.6953 -1.2598 -0.1483 140
12.898399999999999 -1.2803 2.2773 53
12.710899999999999 -1.3047 0.14859999999999998 78
12.6875 -1.3027000000000002 0.4436 241
12.5703 -1.29 0.7329000000000001 51
12.585899999999999 -1.291 -1.3252000000000002 38
12.5781 -1.291 1.0293 185
12.5703 -1.29 -1.0283 178
12.5 -1.2832 1.3163999999999998 23
12.5781 -1.291 -0.7329000000000001 243
12.656199999999998 -1.2988 1.6318000000000001 180
12.585899999999999 -1.2919999999999998 -0.44020000000000004 85
12.664100000000001 -1.2997999999999998 1.9355000000000002 93
12.5547 -1.2891 -0.1467 233
12.835899999999999 -1.3174000000000001 2.2676 72
12.5781 -1.3378999999999999 0.147 35
12.585899999999999 -1.3388999999999998 0.44020000000000004 107
12.5703 -1.3369 0.7329000000000001 200
12.5703 -1.3369 -1.3241999999999998 206
12.5781 -1.3378999999999999 1.0303 224
12.585899999999999 -1.3378999999999999 -1.0303 5
12.5 -1.3291 1.3163999999999998 101
12.5625 -1.3359 -0.7323999999999999 4
12.648399999999999 -1.3447 1.6309 205
12.585899999999999 -1.3388999999999998 -0.44020000000000004 71
12.6719 -1.3477000000000001 1.9365 163
12.5625 -1.3359 -0.1469 40
12.781199999999998 -1.3584 2.2578 27
12.5703 -1.3809 0.147 166
12.585899999999999 -1.3828 0.44020000000000004 27
12.5703 -1.3809 0.7329000000000001 172
12.5547 -1.3799000000000001 -1.3232 26
12.5703 -1.3809 1.0293 30
12.585899999999999 -1.3828 -1.0303 72
12.5078 -1.374 1.3184 206
12.5625 -1.3799000000000001 -0.7323999999999999 224
12.6406 -1.3887 1.6299000000000001 121
12.585899999999999 -1.3828 -0.44020000000000004 218
12.6719 -1.3916 1.9365 149
12.5703 -1.3809 -0.147 71
12.773399999999999 -1.4033000000000002 2.2598 30
12.5703 -1.4258000000000002 0.1471 105
