# .PCD v0.7 - Point Cloud Data file format
VERSION 0.7
FIELDS x y z intensity
SIZE 4 4 4 4
TYPE F F F F
COUNT 1 1 1 1
WIDTH 1215
HEIGHT 1
VIEWPOINT 0 0 0 1 0 0 0
POINTS 1215
DATA ascii
-12.6953 -7.4023 0.8525 138
-3.168 -1.8477000000000001 -0.3809 218
-12.6719 -7.386699999999999 1.1943000000000001 36
-3.2108999999999996 -1.8711000000000002 -0.2998 95
-12.6875 -7.3984000000000005 1.5391 42
-11.9219 -6.949199999999999 1.7694999999999999 137
-6.449199999999999 -3.7598000000000003 -0.2588 19
-12.101600000000001 -7.0547 2.1289 132
-12.6719 -7.386699999999999 -0.1707 85
-12.148399999999999 -7.082000000000001 2.4727 110
-3.0839999999999996 -1.7832 -0.6211 255
-12.710899999999999 -7.3477 0.17079999999999998 13
-3.1191000000000004 -1.8037 -0.5429999999999999 58
-12.6875 -7.3359000000000005 0.5097999999999999 213
-3.1151999999999997 -1.8018 -0.4573 204
-12.6875 -7.3398 0.8501000000000001 107
-3.1641000000000004 -1.8300999999999998 -0.3796 128
-12.6953 -7.3438 1.1943000000000001 197
-3.1719 -1.834 -0.2957 162
-12.656199999999998 -7.3164 1.5322 12
-11.9297 -6.8984000000000005 1.7675999999999998 45
-6.4609000000000005 -3.7363 -0.2588 212
-12.1094 -7.0039 2.127 161
-12.648399999999999 -7.3164 -0.17 132
-12.148399999999999 -7.0234000000000005 2.4668 250
-3.0683999999999996 -1.7597999999999998 -0.6162 33
-12.6719 -7.269500000000001 0.1699 81
-3.1151999999999997 -1.7871000000000001 -0.5415 200
-12.6797 -7.2734000000000005 0.5088 30
-3.1035000000000004 -1.7803 -0.4548 243
-12.6797 -7.2734000000000005 0.8481000000000001 120
-3.1387 -1.7997999999999998 -0.3757 119
-12.6797 -7.2734000000000005 1.1904000000000001 196
-3.1816000000000004 -1.8252000000000002 -0.2959 23
-12.3047 -7.0586 1.4863 235
-11.9297 -6.8438 1.7637 113
-6.4648 -3.7089999999999996 -0.2585 143
-12.1172 -6.953099999999999 2.123 160
-12.656199999999998 -7.2578 -0.1697 51
-12.148399999999999 -6.9688 2.4609 227
-3.0645 -1.7431999999999999 -0.6143 157
-12.6953 -7.2265999999999995 0.1699 218
-3.082 -1.7538999999999998 -0.5342 99
-12.6875 -7.2188 0.5078 15
-3.0976999999999997 -1.7627000000000002 -0.4531 125
-12.6797 -7.2148 0.8462000000000001 216
-3.1387 -1.7852000000000001 -0.37479999999999997 196
-12.6797 -7.2148 1.1875 3
-3.1816000000000004 -1.8096 -0.2952 56
-12.3047 -7.0 1.4834 105
-3.2617000000000003 -1.8555000000000001 -0.21559999999999999 237
-11.914100000000001 -6.7812 1.7578 56
-6.4609000000000005 -3.6776999999999997 -0.25780000000000003 248
-12.1172 -6.894500000000001 2.1191 14
-12.656199999999998 -7.199199999999999 -0.16940000000000002 220
-12.1328 -6.9023 2.4551 212
-3.0645 -1.7294999999999998 -0.6133 36
-12.7031 -7.171900000000001 0.1697 30
-3.082 -1.7393 -0.5332 211
-12.6875 -7.1602 0.5068 163
-3.1035000000000004 -1.751 -0.45289999999999997 115
-12.6797 -7.1562 0.8447 25
-3.1445 -1.7744 -0.37479999999999997 176
-12.6719 -7.1523 1.1845999999999999 42
-3.1523000000000003 -1.7793 -0.292 23
-12.2969 -6.9414 1.4794999999999998 169
-3.2324 -1.8241999999999998 -0.2133 222
-11.9219 -6.7265999999999995 1.7549000000000001 200
-6.4375 -3.6348000000000003 -0.2563 151
-12.093800000000002 -6.828099999999999 2.1113 91
-12.656199999999998 -7.140599999999999 -0.1691 91
-12.156199999999998 -6.863300000000001 2.4551 44
-3.0605 -1.7138999999999998 -0.6113000000000001 31
-12.710899999999999 -7.113300000000001 0.16940000000000002 169
-3.0879000000000003 -1.7285 -0.5332 28
-12.6797 -7.0977 0.5059 237
-3.1016000000000004 -1.7363 -0.4517 19
-12.6797 -7.0977 0.8428 53
-3.1504000000000003 -1.7637 -0.37479999999999997 212
-12.6719 -7.0938 1.1826 41
-3.1523000000000003 -1.7646000000000002 -0.2913 80
-12.281199999999998 -6.8711 1.4746000000000001 120
-3.2108999999999996 -1.7978999999999998 -0.2114 155
-11.914100000000001 -6.671900000000001 1.751 135
-6.4414 -3.6055 -0.2559 32
-12.085899999999999 -6.765599999999999 2.1055 15
-12.648399999999999 -7.078099999999999 -0.1686 192
-12.1406 -6.796900000000001 2.4473 57
-3.0566000000000004 -1.6972999999999998 -0.6089 215
-12.7031 -7.050800000000001 0.1689 193
-3.0801 -1.71 -0.5307999999999999 179
-12.6875 -7.042999999999999 0.5049 123
-3.0898000000000003 -1.7158000000000002 -0.44920000000000004 130
-12.6719 -7.0352 0.8408 114
-3.1523000000000003 -1.751 -0.37450000000000006 31
-12.6797 -7.0390999999999995 1.1806999999999999 94
-3.1464999999999996 -1.7471 -0.2903 45
-12.2578 -6.8086 1.4697 119
-3.2168 -1.7861000000000002 -0.2114 123
-11.914100000000001 -6.6172 1.7480000000000002 21
-12.085899999999999 -6.7109000000000005 2.1016 198
-12.6406 -7.019500000000001 -0.16820000000000002 168
-12.1406 -6.7422 2.4414 130
-3.0488 -1.6787 -0.6064 233
-12.6797 -6.984400000000001 0.1685 12
-3.0858999999999996 -1.6991999999999998 -0.5307999999999999 21
-12.6719 -6.9765999999999995 0.5034000000000001 122
-3.1094 -1.7128999999999999 -0.4512 59
-12.664100000000001 -6.9765999999999995 0.8389 173
-3.1464999999999996 -1.7324000000000002 -0.373 86
-12.648399999999999 -6.9648 1.1758 242
-3.1504000000000003 -1.7344 -0.29 57
-12.281199999999998 -6.761699999999999 1.4687999999999999 50
-3.1660000000000004 -1.7431999999999999 -0.2075 206
-11.906199999999998 -6.5586 1.7431999999999999 208
-3.2793 -1.8056999999999999 -0.12890000000000001 222
-12.085899999999999 -6.6562 2.0977 238
-12.656199999999998 -6.9688 -0.168 142
-12.1328 -6.6797 2.4355 51
-3.0526999999999997 -1.6680000000000001 -0.606 116
-12.6797 -6.925800000000001 0.168 181
-3.0858999999999996 -1.6855000000000002 -0.5297999999999999 99
-12.6797 -6.925800000000001 0.5029 171
-3.1094 -1.6982 -0.45020000000000004 73
-12.6719 -6.921900000000001 0.8373999999999999 186
-3.1445 -1.7187999999999999 -0.3721 166
-12.468800000000002 -6.8125 1.1572 16
-3.1483999999999996 -1.7207 -0.2893 193
-12.3047 -6.7227 1.4687999999999999 8
-3.1875 -1.7412 -0.2086 43
-11.906199999999998 -6.5039 1.7393 176
-3.2637 -1.7832 -0.1281 127
-12.093800000000002 -6.605499999999999 2.0938 69
-12.664100000000001 -6.917999999999999 -0.1678 124
-12.1406 -6.6328 2.4316 2
-3.0547000000000004 -1.6553 -0.6054999999999999 82
-12.6875 -6.875 0.1678 193
-3.0879000000000003 -1.6738 -0.5288 234
-12.6328 -6.8477 0.5 124
-3.1074 -1.6846 -0.44920000000000004 206
-12.6094 -6.8359000000000005 0.8315 41
-12.406199999999998 -6.7265999999999995 1.1494 92
-3.1464999999999996 -1.7061000000000002 -0.2888 62
-12.3281 -6.6836 1.4697 35
-3.1738 -1.7207 -0.20739999999999997 35
-11.914100000000001 -6.457000000000001 1.7383000000000002 31
-3.2382999999999997 -1.7559 -0.1268 232
-12.085899999999999 -6.550800000000001 2.0898 27
-12.5625 -6.8086 -0.1663 241
-12.148399999999999 -6.5859000000000005 2.4297 177
-3.0645 -1.6465 -0.606 225
-12.523399999999999 -6.7265999999999995 0.1653 254
-3.0723000000000003 -1.6503999999999999 -0.5254 182
-12.460899999999999 -6.6953 0.49219999999999997 144
-3.1055 -1.6680000000000001 -0.44799999999999995 9
-12.476600000000001 -6.703099999999999 0.8212999999999999 193
-12.414100000000001 -6.671900000000001 1.1475 110
-3.1504000000000003 -1.6924000000000001 -0.2883 225
-12.3281 -6.625 1.4668 92
-3.1738 -1.7061000000000002 -0.207 125
-11.914100000000001 -6.3984000000000005 1.7334 239
-3.2207 -1.7305000000000001 -0.1259 243
-12.1328 -6.519500000000001 2.0938 116
-12.414100000000001 -6.671900000000001 -0.16390000000000002 55
-12.2031 -6.5547 2.4355 130
-3.0488 -1.625 -0.6015999999999999 41
-12.4844 -6.6523 0.1646 95
-3.082 -1.6416 -0.5259 232
-12.460899999999999 -6.640599999999999 0.49119999999999997 244
-3.0898000000000003 -1.6465 -0.4448 125
-12.468800000000002 -6.644500000000001 0.8193 229
-12.4453 -6.6328 1.1484 16
-3.1445 -1.6758000000000002 -0.2874 133
-12.3594 -6.5859000000000005 1.4668 95
-3.1776999999999997 -1.6924000000000001 -0.20679999999999998 3
-11.906199999999998 -6.3438 1.7305000000000001 119
-3.2324 -1.7216999999999998 -0.1261 251
-12.1719 -6.484400000000001 2.0957 18
-12.2031 -6.5 2.4297 96
-3.0410000000000004 -1.6084 -0.5991 173
-12.4922 -6.605499999999999 0.1643 245
-3.0762 -1.6269999999999998 -0.5239 4
-12.468800000000002 -6.5938 0.4907 93
-3.0879000000000003 -1.6328 -0.44380000000000003 29
-12.476600000000001 -6.5977 0.8184 95
-12.468800000000002 -6.5938 1.1484 228
-12.375 -6.546900000000001 1.4668 131
-3.1504000000000003 -1.666 -0.2047 62
-11.8828 -6.2852 1.7236000000000002 141
-3.2285000000000004 -1.7069999999999999 -0.1257 245
-12.1875 -6.4453 2.0957 29
-3.2714999999999996 -1.7305000000000001 -0.0424 74
-12.1953 -6.449199999999999 2.4258 195
-3.043 -1.5966999999999998 -0.5986 39
-12.5 -6.5547 0.1642 207
-3.0781 -1.6143 -0.5234000000000001 43
-12.5 -6.5586 0.49119999999999997 225
-3.0957 -1.624 -0.44409999999999994 252
-12.523399999999999 -6.5703 0.8203 104
-12.476600000000001 -6.542999999999999 1.1465 115
-12.3828 -6.4961 1.4647999999999999 25
-3.1620999999999997 -1.6582 -0.2051 56
-11.875 -6.2265999999999995 1.7187999999999999 14
-3.2129000000000003 -1.6855000000000002 -0.1249 23
-12.1797 -6.390599999999999 2.0898 137
-3.2598000000000003 -1.71 -0.0421 185
-12.2031 -6.4023 2.4219 147
-3.0605 -1.5908000000000002 -0.6006 99
-12.5469 -6.519500000000001 0.16440000000000002 160
-3.0664 -1.5937999999999999 -0.5205 204
-12.5469 -6.519500000000001 0.4919 100
-3.1055 -1.6152000000000002 -0.4448 49
-12.5781 -6.5390999999999995 0.8218000000000001 44
-12.5078 -6.5039 1.1484 227
-12.3672 -6.4297 1.46 117
-3.1855 -1.6562000000000001 -0.20620000000000002 141
-11.8594 -6.167999999999999 1.7138999999999998 249
-3.207 -1.6669999999999998 -0.1244 33
-12.1797 -6.332000000000001 2.0859 60
-3.248 -1.6885 -0.04190000000000001 165
-12.1875 -6.3359000000000005 2.4141 174
-3.0605 -1.5771000000000002 -0.5996 199
-12.6094 -6.5 0.165 25
-3.0723000000000003 -1.584 -0.5205 174
-12.6094 -6.5 0.49369999999999997 8
-3.0976999999999997 -1.5966999999999998 -0.4429 189
-12.656199999999998 -6.5234000000000005 0.8256999999999999 84
-12.5156 -6.453099999999999 1.1465 254
-12.3828 -6.386699999999999 1.46 167
-11.875 -6.1211 1.7128999999999999 36
-3.2012 -1.6503999999999999 -0.124 198
-12.156199999999998 -6.265599999999999 2.0781 157
-3.2363 -1.6688999999999998 -0.0417 242
-8.4141 -4.3359 1.6611000000000002 120
-3.043 -1.5547 -0.5952000000000001 96
-12.7422 -6.511699999999999 0.16649999999999998 133
-3.0664 -1.5674000000000001 -0.5186 135
-12.656199999999998 -6.4688 0.4946 204
-3.0801 -1.5741999999999998 -0.4395 238
-12.664100000000001 -6.4727 0.8251999999999999 59
-12.625 -6.453099999999999 1.1543 251
-12.375 -6.324199999999999 1.4561000000000002 56
-11.875 -6.0703 1.71 205
-3.2129000000000003 -1.6416 -0.1242 61
-12.156199999999998 -6.2148 2.0762 177
-3.2266000000000004 -1.6494 -0.0415 118
-8.4141 -4.3008 1.6591999999999998 100
-3.0370999999999997 -1.5391 -0.5932999999999999 31
-3.0645 -1.5527000000000002 -0.5176 78
-12.6719 -6.421900000000001 0.49439999999999995 62
-3.0858999999999996 -1.5635 -0.4395 198
-12.6875 -6.425800000000001 0.8247 204
-12.726600000000001 -6.4453 1.1611 158
-12.343800000000002 -6.2539 1.4491999999999998 214
-11.8828 -6.019500000000001 1.7080000000000002 131
-3.2207 -1.6318000000000001 -0.1243 188
-8.6797 -4.3984 1.4766 158
-3.2285000000000004 -1.6357 -0.0414 101
-8.2344 -4.1719 1.6200999999999999 6
-3.0351999999999997 -1.5234 -0.5913 67
-3.4004000000000003 -1.7080000000000002 0.0436 83
-3.0645 -1.5381 -0.5161 30
-12.75 -6.4023 0.4966 196
-3.1074 -1.5605000000000002 -0.44189999999999996 212
-12.7969 -6.421900000000001 0.8301000000000001 167
-12.7578 -6.4062 1.1631 33
-12.406199999999998 -6.230499999999999 1.4550999999999998 228
-11.8672 -5.957000000000001 1.7021000000000002 38
-3.2148000000000003 -1.6143 -0.12380000000000001 226
-12.164100000000001 -6.109400000000001 2.0684 33
-3.2324 -1.6230000000000002 -0.0414 115
-7.957000000000001 -3.9941000000000004 1.5625 43
-3.0469 -1.5166 -0.5928 203
-3.3926 -1.6885 0.0434 84
-3.0625 -1.5244 -0.5151 125
-12.8594 -6.4023 0.49979999999999997 15
-3.1035000000000004 -1.5449000000000002 -0.4404 185
-12.914100000000001 -6.425800000000001 0.8364 53
-12.9453 -6.4414 1.1768 220
-12.3828 -6.1640999999999995 1.4491999999999998 27
-11.8828 -5.9140999999999995 1.7021000000000002 220
-9.1172 -4.5391 1.5469 137
-3.2207 -1.6035 -0.0412 55
-7.9688 -3.9668 1.5625 205
-3.043 -1.5029 -0.5908 249
-3.3651999999999997 -1.6621000000000001 0.043 48
-3.0547000000000004 -1.5088 -0.5132 214
-12.9453 -6.394500000000001 0.5024000000000001 213
-3.0839999999999996 -1.5225 -0.43700000000000006 212
-13.0156 -6.425800000000001 0.8418000000000001 134
-13.031199999999998 -6.4336 1.1836 190
-12.406199999999998 -6.1289 1.4502000000000002 47
-11.9375 -5.894500000000001 1.7069999999999999 27
-12.148399999999999 -6.0 2.0605 235
-3.2108999999999996 -1.5859 -0.040999999999999995 235
-8.0078 -3.9551 1.5684 170
-3.0293 -1.4834 -0.5874 139
-3.3535000000000004 -1.6416 0.042800000000000005 80
-3.0625 -1.5 -0.5136999999999999 118
-13.0547 -6.390599999999999 0.5059 147
-3.082 -1.5088 -0.436 115
-13.1172 -6.421900000000001 0.8472 230
-13.1797 -6.453099999999999 1.1943000000000001 127
-12.3672 -6.0547 1.4424000000000001 24
-11.9844 -5.8711 1.7119 233
-12.1328 -5.9414 2.0527 62
-3.2051 -1.5703 -0.0408 82
-8.5938 -4.2109 1.6806999999999999 201
-3.0117000000000003 -1.4619 -0.583 91
-3.3301 -1.6162 0.0424 49
-3.0625 -1.4863 -0.5127 202
-13.1797 -6.390599999999999 0.5097999999999999 36
-3.0742000000000003 -1.4912 -0.4338 130
-13.218800000000002 -6.4140999999999995 0.8521 121
-13.281199999999998 -6.4453 1.2021 128
-12.3594 -5.9961 1.4394999999999998 110
-12.023399999999999 -5.8359000000000005 1.7138999999999998 119
-12.125 -5.8828 2.0488 82
-3.207 -1.5556999999999999 -0.0408 37
-8.7891 -4.2656 1.7158000000000002 193
-3.0293 -1.4569999999999999 -0.5854 132
-3.2891000000000004 -1.5819999999999999 0.0418 226
-3.0645 -1.4736000000000002 -0.5122 113
-13.2969 -6.394500000000001 0.5136999999999999 116
-3.0995999999999997 -1.4902000000000002 -0.43700000000000006 211
-13.351600000000001 -6.417999999999999 0.8593999999999999 1
-13.398399999999999 -6.4453 1.2109 181
-12.4531 -5.988300000000001 1.4472999999999998 209
-12.0547 -5.796900000000001 1.7158000000000002 41
-12.0703 -5.8047 2.0352 71
-3.2108999999999996 -1.5438999999999998 -0.0408 87
-8.8594 -4.2617 1.7266 73
-3.0351999999999997 -1.4463 -0.5854 118
-3.2773000000000003 -1.5605000000000002 0.0415 231
-3.0449 -1.4502000000000002 -0.5078 40
-13.398399999999999 -6.3828 0.5166 64
-3.0801 -1.4668 -0.43329999999999996 168
-13.4531 -6.4102 0.8647 230
-13.4922 -6.425800000000001 1.2168 40
-12.3906 -5.9023 1.4385 174
-12.1094 -5.769500000000001 1.7197 234
-8.7109 -4.1523 1.4658000000000002 226
-3.2148000000000003 -1.5312000000000001 -0.0407 86
-9.0625 -4.3164 1.7627000000000002 94
-3.0332 -1.4316 -0.584 0
-3.293 -1.5547 0.0417 59
-3.0547000000000004 -1.4413999999999998 -0.5083 229
-13.5156 -6.3828 0.52 98
-3.0898000000000003 -1.4580000000000002 -0.4338 180
-13.585899999999999 -6.4102 0.8711 243
-13.5703 -6.4062 1.2227 130
-12.3906 -5.8477 1.4355000000000002 247
-8.0391 -3.7949 1.1377 219
-8.6484 -4.082 1.4512 130
-3.2148000000000003 -1.5175999999999998 -0.0407 111
-8.5312 -4.0273 1.6553 144
-3.0195 -1.4131 -0.5806 37
-3.3026999999999997 -1.5449000000000002 0.0417 192
-3.0586 -1.4316 -0.5083 113
-13.5703 -6.3515999999999995 0.5215 52
-3.0858999999999996 -1.4443000000000001 -0.4329 229
-13.585899999999999 -6.359400000000001 0.8701000000000001 197
-13.5703 -6.3515999999999995 1.2197 33
-12.3672 -5.7890999999999995 1.4306999999999999 33
-7.9922 -3.7401999999999997 1.1299 126
-8.3828 -3.9238 1.4053 64
-3.2012 -1.4980000000000002 -0.0404 91
-8.1172 -3.7988 1.5732 185
-3.0098000000000003 -1.3965 -0.5776 105
-3.3026999999999997 -1.5332 0.0417 175
-3.0645 -1.4219 -0.5088 76
-13.5781 -6.300800000000001 0.521 90
-3.0801 -1.4297 -0.4314 177
-13.5703 -6.296900000000001 0.8676999999999999 73
-13.5781 -6.300800000000001 1.2187999999999999 215
-12.414100000000001 -5.7578 1.4336000000000002 153
-7.980499999999999 -3.7031 1.126 117
-11.8906 -5.515599999999999 1.9922 76
-3.2344 -1.501 -0.0408 14
-8.0469 -3.7324 1.5556999999999999 166
-3.0117000000000003 -1.3838 -0.5771000000000001 82
-3.2812 -1.5068000000000001 0.041299999999999996 100
-3.0547000000000004 -1.4033000000000002 -0.5059 36
-13.5781 -6.234400000000001 0.52 245
-3.123 -1.4336000000000002 -0.4365 181
-13.5625 -6.230499999999999 0.8656999999999999 121
-13.5625 -6.2265999999999995 1.2148 134
-12.3906 -5.6914 1.4287 139
-8.0 -3.6757999999999997 1.127 185
-11.875 -5.453099999999999 1.9853999999999998 39
-8.0703 -3.707 1.5586000000000002 69
-3.0293 -1.3788999999999998 -0.5796 187
-3.2714999999999996 -1.4883000000000002 0.041100000000000005 95
-3.043 -1.3847999999999998 -0.5034000000000001 62
-13.5703 -6.175800000000001 0.519 115
-3.127 -1.4228999999999998 -0.4365 242
-13.5703 -6.175800000000001 0.8652 222
-13.5625 -6.171900000000001 1.2139 234
-12.414100000000001 -5.6484000000000005 1.4287 54
-8.0391 -3.6562 1.1299 151
-11.8906 -5.4102 1.9853999999999998 1
-8.0938 -3.6836 1.5605000000000002 200
-3.0293 -1.3662 -0.5786 161
-3.2870999999999997 -1.4824000000000002 0.041299999999999996 153
-3.0488 -1.374 -0.5034000000000001 202
-13.5547 -6.113300000000001 0.5176 217
-3.1094 -1.4022999999999999 -0.43329999999999996 164
-13.5703 -6.1211 0.8637999999999999 233
-13.5703 -6.1172 1.2119 107
-12.4297 -5.605499999999999 1.4287 161
-8.0 -3.6074 1.123 202
-8.7188 -3.9316000000000004 1.4521000000000002 52
-8.1172 -3.6601999999999997 1.5625 158
-3.0098000000000003 -1.3447 -0.5737 227
-3.2695 -1.4609 0.040999999999999995 92
-3.0526999999999997 -1.3633000000000002 -0.5034000000000001 46
-13.5703 -6.0586 0.5171 13
-3.1620999999999997 -1.4121000000000001 -0.4399 189
-13.5703 -6.0625 0.8623000000000001 79
-13.5703 -6.0625 1.2109 148
-12.398399999999999 -5.5390999999999995 1.4228999999999998 248
-8.5781 -3.8339999999999996 1.2031 153
-11.875 -5.3047 1.9766 208
-8.1328 -3.6327999999999996 1.5635 0
-3.0137 -1.334 -0.5737 101
-3.2832 -1.4531 0.041100000000000005 64
-3.0605 -1.3555000000000001 -0.5039 48
-13.5703 -6.0078 0.5166 127
-3.0879000000000003 -1.3672 -0.42869999999999997 150
-13.5547 -6.0 0.8599 56
-13.5781 -6.011699999999999 1.209 42
-12.4375 -5.5078 1.4247999999999998 83
-8.0625 -3.5683999999999996 1.1279000000000001 112
-11.914100000000001 -5.2734000000000005 1.9805000000000001 216
-8.1094 -3.5898000000000003 1.5556999999999999 244
-3.0156 -1.3232 -0.5732 92
-3.2793 -1.4394999999999998 0.040999999999999995 73
-3.0370999999999997 -1.3330000000000002 -0.49950000000000006 1
-13.5547 -5.949199999999999 0.5151 121
-3.1211 -1.3691 -0.4329 237
-13.5547 -5.949199999999999 0.8589 34
-13.5547 -5.949199999999999 1.2051 25
-8.0234 -3.5195 0.9159999999999999 192
-8.0547 -3.5332 1.126 250
-11.8828 -5.2109000000000005 1.9716999999999998 24
-12.1797 -5.3438 2.3379 104
-3.0214999999999996 -1.3135 -0.5737 159
-3.248 -1.4121000000000001 0.0405 70
-3.0293 -1.3163999999999998 -0.49729999999999996 142
-13.5469 -5.890599999999999 0.5142 93
-3.0605 -1.3300999999999998 -0.4236 101
-13.5781 -5.9023 0.8589 85
-13.601600000000001 -5.9102 1.208 169
-8.0312 -3.4901999999999997 0.9159999999999999 200
-8.0469 -3.4961 1.123 119
-8.9531 -3.8906 1.4824000000000002 9
-12.1797 -5.292999999999999 2.334 87
-3.0233999999999996 -1.3018 -0.5728 46
-3.2714999999999996 -1.4091999999999998 0.0407 173
-3.0410000000000004 -1.3096 -0.4985 173
-13.6094 -5.863300000000001 0.5156000000000001 151
-13.625 -5.8711 0.8608 192
-13.6328 -5.8711 1.209 84
-8.0312 -3.457 0.9140999999999999 161
-8.0469 -3.4648000000000003 1.1211 121
-11.875 -5.1133 1.9647999999999999 108
-12.2031 -5.2539 2.334 169
-3.0117000000000003 -1.2832 -0.5698 184
-3.2832 -1.3994 0.0408 123
-3.043 -1.2969 -0.4978 229
-13.648399999999999 -5.8164 0.5166 75
-3.0702999999999996 -1.3075999999999999 -0.4236 226
-13.664100000000001 -5.8203 0.8613 249
-13.656199999999998 -5.8203 1.209 54
-8.0078 -3.4120999999999997 0.9102 186
-8.0781 -3.4414 1.124 113
-8.8438 -3.7695 1.46 70
-8.7188 -3.7148000000000003 1.6631 206
-3.0077999999999996 -1.2686 -0.5679 212
-3.2539 -1.3730000000000002 0.0404 62
-3.043 -1.2841999999999998 -0.49729999999999996 228
-13.656199999999998 -5.765599999999999 0.5161 91
-3.0742000000000003 -1.2969 -0.4236 234
-13.648399999999999 -5.761699999999999 0.8593999999999999 96
-13.656199999999998 -5.765599999999999 1.207 72
-12.398399999999999 -5.230499999999999 1.4091999999999998 163
-8.2969 -3.5 1.1523 10
-11.875 -5.0117 1.959 147
-8.5703 -3.6172000000000004 1.6328 27
-3.0156 -1.2598 -0.5688 46
-3.2324 -1.3506 0.0401 169
-3.0273000000000003 -1.2646 -0.49369999999999997 179
-13.6719 -5.7109000000000005 0.5156000000000001 96
-3.1699 -1.3252000000000002 -0.4365 75
-13.6719 -5.7148 0.8599 25
-13.656199999999998 -5.707000000000001 1.2051 22
-12.398399999999999 -5.1797 1.4072 225
-12.226600000000001 -5.1094 1.6991999999999998 184
-11.8906 -4.9688 1.959 26
-8.6016 -3.5938 1.6366999999999998 166
-3.0214999999999996 -1.25 -0.5693 147
-3.2382999999999997 -1.3397999999999999 0.0401 73
-3.0233999999999996 -1.251 -0.4924 108
-13.6719 -5.6562 0.5146000000000001 146
-3.082 -1.2754 -0.4236 23
-13.6719 -5.6562 0.8584 242
-13.648399999999999 -5.6484000000000005 1.2031 49
-12.406199999999998 -5.1328 1.4072 94
-8.3359 -3.4512 1.1553 182
-11.8594 -4.9062 1.9502000000000002 54
-12.156199999999998 -5.0312 2.3125 15
-3.0254000000000003 -1.2402 -0.5693 157
-3.248 -1.3311000000000002 0.0401 223
-3.0273000000000003 -1.2412 -0.4924 224
-13.656199999999998 -5.5977 0.5136999999999999 55
-3.1132999999999997 -1.2764 -0.42719999999999997 179
-12.4375 -5.0977 1.0937999999999999 45
-12.3828 -5.0781 1.4022999999999999 47
-12.2344 -5.0156 1.6953 38
-8.7266 -3.5781 1.4316 103
-12.148399999999999 -4.9805 2.3066 12
-3.0117000000000003 -1.2227 -0.5654 10
-3.2305 -1.3115 0.039900000000000005 193
-3.0370999999999997 -1.2334 -0.49340000000000006 3
-12.414100000000001 -5.0391 0.4661 63
-3.1620999999999997 -1.2832 -0.43329999999999996 44
-12.406199999999998 -5.0391 0.7764 127
-12.4375 -5.0508 1.0928 19
-12.3828 -5.0273 1.3994 220
-12.2344 -4.9648 1.6924000000000001 41
-8.7578 -3.5566000000000004 1.4346 38
-12.125 -4.9258 2.3008 248
-3.0058999999999996 -1.208 -0.564 46
-3.2382999999999997 -1.3008000000000002 0.039900000000000005 18
-3.0449 -1.2236 -0.4939 243
-12.398399999999999 -4.9805 0.4648 219
-3.1406 -1.2617 -0.4299 142
-12.3906 -4.9766 0.7739 109
-12.4219 -4.9922 1.0898 242
-12.375 -4.9727 1.3975 229
-12.218800000000002 -4.9102 1.6885 78
-8.7812 -3.5273000000000003 1.4365 87
-12.1328 -4.875 2.2988 126
-3.0058999999999996 -1.1953 -0.563 167
-3.2324 -1.2852000000000001 0.0398 199
-3.0312 -1.2061 -0.491 223
-12.414100000000001 -4.9375 0.4648 240
-3.0995999999999997 -1.2334 -0.4236 244
-12.406199999999998 -4.9336 0.7739 7
-12.4453 -4.9492 1.0908 98
-12.3906 -4.9297 1.3975 116
-12.210899999999999 -4.8555 1.6846 61
-8.9375 -3.5547000000000004 1.46 83
-12.1172 -4.8203 2.291 150
-3.0117000000000003 -1.1855 -0.563 118
-3.2363 -1.2744 0.0398 130
-3.0293 -1.1934 -0.49 195
-12.4219 -4.8906 0.4646 76
-3.127 -1.2314 -0.4268 234
-12.4375 -4.8984 0.7754000000000001 13
-12.4531 -4.9062 1.0898 126
-12.398399999999999 -4.8828 1.3965 23
-12.210899999999999 -4.8086 1.6825999999999999 200
-8.8828 -3.4961 1.4491999999999998 167
-12.1328 -4.7773 2.291 100
-3.0233999999999996 -1.1787 -0.5649000000000001 107
-3.2461 -1.2646 0.0398 168
-3.0332 -1.1816 -0.48969999999999997 1
-3.1387 -1.2227 -0.4277 25
-12.4922 -4.8672 0.7773 138
-12.5078 -4.875 1.0928 255
-12.3906 -4.8281 1.3936000000000002 134
-12.226600000000001 -4.7656 1.6825999999999999 139
-11.835899999999999 -4.6094 1.9297 237
-12.1094 -4.7188 2.2852 240
-3.0077999999999996 -1.1611 -0.561 190
-3.2363 -1.249 0.0397 54
-3.0351999999999997 -1.1709 -0.48950000000000005 141
-3.3691000000000004 -1.2997999999999998 0.1243 37
-3.123 -1.2051 -0.4253 3
-12.539100000000001 -4.8398 0.7793000000000001 211
-12.6172 -4.8711 1.1016 90
-9.0312 -3.4844 1.0127 76
-12.226600000000001 -4.7188 1.6806999999999999 183
-11.8281 -4.5625 1.9268 204
-12.1094 -4.6719 2.2812 251
-3.002 -1.1475 -0.5596 190
-3.2324 -1.2344 0.039599999999999996 197
-3.0351999999999997 -1.1592 -0.4888 7
-3.377 -1.29 0.1245 58
-3.1348000000000003 -1.1982 -0.4263 44
-13.523399999999999 -5.167999999999999 0.8398 28
-13.5469 -5.175800000000001 1.1806999999999999 71
-9.0234 -3.4473000000000003 1.0107 115
-8.875 -3.3906 1.2168 13
-11.835899999999999 -4.5195 1.9247999999999998 206
-12.093800000000002 -4.6172 2.2754 192
-3.0039 -1.1348 -0.5586 148
-3.2324 -1.2217 0.0395 36
-3.0293 -1.1445 -0.48729999999999996 207
-3.3789 -1.2764 0.1243 173
-3.1464999999999996 -1.1895 -0.42719999999999997 243
-13.531199999999998 -5.1133 0.8389 186
-13.531199999999998 -5.1133 1.1777 42
-8.9922 -3.3964999999999996 1.0059 164
-8.8828 -3.3555 1.2158 221
-11.8672 -4.4844 1.9277000000000002 193
-10.0078 -3.7832 1.8799000000000001 211
-3.0039 -1.123 -0.5581 57
-3.2285000000000004 -1.207 0.0394 44
-3.0233999999999996 -1.1309 -0.4858 244
-3.3789 -1.2637 0.1242 106
-3.1504000000000003 -1.1777 -0.42719999999999997 223
-13.539100000000001 -5.0625 0.8384 184
-13.531199999999998 -5.0586 1.1758 226
-9.0 -3.3651999999999997 1.0049 3
-8.875 -3.3183999999999996 1.2139 162
-8.8516 -3.3086 1.4336000000000002 30
-12.1172 -4.5273 2.2734 125
-3.0156 -1.1152 -0.5596 63
-3.2422000000000004 -1.1992 0.039599999999999996 218
-3.0370999999999997 -1.124 -0.48729999999999996 183
-3.3535000000000004 -1.2402 0.12300000000000001 116
-3.1289 -1.1572 -0.4236 231
-13.5469 -5.0117 0.8379000000000001 86
-13.539100000000001 -5.0078 1.1758 113
-8.9844 -3.3223000000000003 1.002 239
-12.0547 -4.457 1.6475 173
-8.8438 -3.2714999999999996 1.4316 93
-9.9766 -3.6895 1.8672 130
-3.002 -1.0986 -0.5562 66
-3.248 -1.1885 0.039599999999999996 93
-3.0351999999999997 -1.1113 -0.4863 132
-3.3691000000000004 -1.2334 0.1235 51
-3.0957 -1.1328 -0.41869999999999996 222
-13.531199999999998 -4.9531 0.8359000000000001 109
-13.531199999999998 -4.9531 1.1729 247
-8.9922 -3.2910000000000004 1.002 209
-12.0625 -4.4141 1.6465 112
-8.8672 -3.2461 1.4336000000000002 164
-12.093800000000002 -4.4258 2.2637 200
-2.9941000000000004 -1.084 -0.5542 195
-3.2441000000000004 -1.1738 0.0394 243
-3.0410000000000004 -1.1006 -0.4868 229
-3.3672000000000004 -1.2178 0.1232 65
-3.1367000000000003 -1.1348 -0.4236 51
-13.523399999999999 -4.8945 0.8340000000000001 131
-13.539100000000001 -4.8984 1.1719 104
-9.0156 -3.2617000000000003 1.0029000000000001 125
-12.1719 -4.4062 1.6602000000000001 243
-11.843800000000002 -4.2852 1.9141 79
-2.9922000000000004 -1.0703 -0.5527000000000001 30
-3.2226999999999997 -1.1533 0.0391 218
-3.0312 -1.085 -0.4844 252
-3.3711 -1.2061 0.1232 41
-3.1797000000000004 -1.1377 -0.42869999999999997 190
-13.5156 -4.8359 0.8325 112
-13.523399999999999 -4.8398 1.1689 202
-9.0469 -3.2363 1.0049 133
-12.1953 -4.3633 1.6602000000000001 246
-8.0234 -2.8711 1.4950999999999999 219
-2.998 -1.0615 -0.5537 85
-3.2363 -1.1465 0.0392 141
-3.0233999999999996 -1.0703 -0.4824 218
-3.3418 -1.1836 0.122 246
-3.1445 -1.1133 -0.4236 15
-13.523399999999999 -4.7891 0.8320000000000001 206
-13.5 -4.7812 1.166 92
-9.0703 -3.2129000000000003 1.0068000000000001 177
-12.1953 -4.3164 1.6582 95
-11.8203 -4.1875 1.9053 213
-8.0156 -2.8379000000000003 1.4922 56
-3.0058999999999996 -1.0527 -0.5542 118
-3.252 -1.1396 0.0394 220
-3.0293 -1.0615 -0.4832 98
-3.3672000000000004 -1.1797 0.12279999999999999 255
-3.1483999999999996 -1.1035 -0.4236 43
-13.531199999999998 -4.7422 0.8315 181
-13.5078 -4.7344 1.166 205
-12.343800000000002 -4.3242 1.3700999999999999 240
-12.2031 -4.2734 1.6572 72
-11.8047 -4.1367 1.9003999999999999 116
-8.9062 -3.1211 1.6562000000000001 235
-2.9922000000000004 -1.0361 -0.5513 235
-3.2558999999999996 -1.1279000000000001 0.0394 119
-3.0391000000000004 -1.0527 -0.4841 72
-3.3789 -1.1699 0.12300000000000001 128
-3.1523000000000003 -1.0918 -0.4236 183
-13.523399999999999 -4.6836 0.8301000000000001 62
-13.539100000000001 -4.6875 1.167 154
-12.351600000000001 -4.2773 1.3691 139
-11.835899999999999 -4.0977 1.9033000000000002 82
-8.8359 -3.0605 1.6416 5
-2.9824 -1.0215 -0.5488000000000001 126
-3.248 -1.1123 0.0392 4
-3.0391000000000004 -1.041 -0.48340000000000005 193
-3.375 -1.1553 0.12279999999999999 13
-3.1562 -1.0811 -0.4236 220
-13.5625 -4.6445 0.8315 180
-9.1016 -3.1151999999999997 0.7817000000000001 166
-12.375 -4.2383 1.3700999999999999 6
-9.3281 -3.1952999999999996 1.2637 89
-8.4375 -2.8887 1.3535 241
-12.093800000000002 -4.1406 2.2461 87
-2.9863 -1.0107 -0.5488000000000001 230
-3.2637 -1.1045 0.0394 237
-3.0254000000000003 -1.0234 -0.4805 2
-3.3789 -1.1436 0.12279999999999999 10
-3.1601999999999997 -1.0693000000000001 -0.4236 169
-13.718800000000002 -4.6445 0.8398 113
-9.1016 -3.082 0.7812 213
-9.2422 -3.127 1.0205 28
-12.1875 -4.125 1.6503999999999999 200
-8.0469 -2.7226999999999997 1.2881 95
-8.0703 -2.7305 1.4941 102
-2.9901999999999997 -1.001 -0.5488000000000001 63
-3.2793 -1.0967 0.039599999999999996 50
-3.0214999999999996 -1.0107 -0.4792 236
-3.3789 -1.1309 0.12269999999999999 200
-14.0781 -4.7109 0.8613 147
-9.1016 -3.0449 0.7803 220
-9.2422 -3.0918 1.0195 229
-12.1875 -4.0781 1.6475 53
-8.0312 -2.6855 1.2841999999999998 244
-8.1094 -2.7129000000000003 1.501 46
-3.0 -0.9922 -0.5498 26
-3.2637 -1.0791 0.0393 255
-3.0312 -1.0029000000000001 -0.4805 28
-3.3651999999999997 -1.1123 0.1219 237
-3.168 -1.0479 -0.4236 165
-14.273399999999999 -4.7227 0.8721 134
-9.1094 -3.0117000000000003 0.7798 92
-12.3672 -4.0898 1.3643 221
-12.210899999999999 -4.0391 1.6484 157
-8.0547 -2.6641000000000004 1.2871000000000001 17
-12.085899999999999 -3.9961 2.2363 142
-2.9844 -0.9756 -0.5464 63
-3.0332 -0.9912000000000001 -0.48 107
-3.3574 -1.0977 0.1215 216
-3.1719 -1.0361 -0.4236 8
-9.1406 -2.9863 0.5566 16
-9.1328 -2.9863 0.7812 186
-12.335899999999999 -4.0312 1.3594 166
-12.1953 -3.9844 1.6444999999999999 78
-8.7578 -2.8632999999999997 1.3984 92
-12.093800000000002 -3.9531 2.2363 165
-2.9844 -0.9639 -0.5454 198
-3.0254000000000003 -0.9771 -0.4783 235
-3.3691000000000004 -1.0879 0.12179999999999999 222
-9.125 -2.9473000000000003 0.5552 167
-9.1562 -2.9589999999999996 0.7827 212
-12.351600000000001 -3.9882999999999997 1.3594 59
-12.1797 -3.9336 1.6406 121
-8.8203 -2.8495999999999997 1.4072 62
-8.875 -2.8672000000000004 1.6377000000000002 166
-2.9785000000000004 -0.9501999999999999 -0.5439 207
-3.0214999999999996 -0.9643999999999999 -0.4771 86
-3.377 -1.0771 0.1219 186
-9.1094 -2.9062 0.5537 134
-14.7656 -4.7148 1.2627 139
-12.351600000000001 -3.9414 1.3574000000000002 69
-12.1719 -3.8867000000000003 1.6387 106
-12.0781 -3.8555 2.2285 167
-2.9901999999999997 -0.9438 -0.5454 155
-3.0254000000000003 -0.9551000000000001 -0.47729999999999995 9
-3.3223000000000003 -1.0488 0.1199 10
-9.1016 -2.873 0.5527000000000001 62
-14.9219 -4.7109 1.2744 85
-12.3594 -3.9004000000000003 1.3574000000000002 229
-12.1719 -3.8418 1.6366999999999998 13
-12.0781 -3.8125 2.2246 34
-2.9961 -0.9351 -0.5464 130
-3.0137 -0.9404 -0.47490000000000004 220
-3.3339999999999996 -1.04 0.1201 110
-9.1094 -2.8418 0.5522 99
-15.1328 -4.7227 1.291 72
-12.335899999999999 -3.8495999999999997 1.3535 216
-12.1172 -3.7812 1.6269999999999998 198
-12.0781 -3.7676 2.2227 11
-2.9745999999999997 -0.915 -0.5415 184
-3.0312 -0.9326000000000001 -0.4771 148
-3.3379000000000003 -1.0264 0.1201 146
-9.1016 -2.7988 0.5513 61
-15.289100000000001 -4.7031 1.3027000000000002 55
-12.335899999999999 -3.7949 1.3516 89
-12.148399999999999 -3.7363 1.6288999999999998 144
-8.8984 -2.7382999999999997 1.4131 14
-12.0781 -3.7148000000000003 2.2207 236
-2.9707 -0.9018999999999999 -0.54 33
-3.0312 -0.9204000000000001 -0.47659999999999997 213
-3.3301 -1.0107 0.1197 181
-9.1016 -2.7617000000000003 0.5503 23
-9.125 -2.7695 0.7748999999999999 19
-12.351600000000001 -3.75 1.3516 36
-12.156199999999998 -3.6914 1.6288999999999998 5
-8.9219 -2.7089999999999996 1.415 197
-12.0781 -3.6660000000000004 2.2188 118
-2.9785000000000004 -0.8936 -0.541 199
-3.0214999999999996 -0.9067000000000001 -0.4746 125
-3.3476999999999997 -1.0049 0.12029999999999999 34
-9.125 -2.7363 0.5513 26
-9.1094 -2.7324 0.7729 155
-12.343800000000002 -3.7031 1.3496000000000001 30
-12.164100000000001 -3.6483999999999996 1.6279 45
-11.8281 -3.5469 1.876 235
-12.085899999999999 -3.625 2.2168 159
-2.9901999999999997 -0.8856999999999999 -0.5425 85
-3.0077999999999996 -0.8911 -0.4719 35
-3.2870999999999997 -0.9736 0.11789999999999999 10
-15.4375 -4.5742 0.9340999999999999 153
-9.1094 -2.6992000000000003 0.7725 163
-9.0781 -2.6895 0.9906999999999999 82
-12.1797 -3.6074 1.6279 9
-11.8125 -3.498 1.8721 252
-12.085899999999999 -3.5801 2.2148 46
-2.9844 -0.8740000000000001 -0.541 138
-3.002 -0.8789 -0.4705 1
-3.3007999999999997 -0.9668000000000001 0.1183 11
-15.4531 -4.5234 0.9340999999999999 15
-9.1406 -2.6776999999999997 0.7744 138
-9.0781 -2.6582 0.9893000000000001 42
-12.1875 -3.5683999999999996 1.6279 224
-11.8125 -3.457 1.8700999999999999 155
-8.8203 -2.582 1.6133000000000002 148
-2.9805 -0.8618000000000001 -0.5396 13
-3.0156 -0.8721 -0.4722 57
-3.3202999999999996 -0.96 0.1189 90
-9.2109 -2.6641000000000004 0.7798 217
-9.0938 -2.6289 0.9902 137
-8.9688 -2.5938 1.1953 98
-11.8047 -3.4141000000000004 1.8672 128
-12.0781 -3.4941000000000004 2.209 47
-2.9726999999999997 -0.8477 -0.5376 246
-3.0214999999999996 -0.8618000000000001 -0.4727 36
-3.293 -0.9390000000000001 0.1177 76
-15.460899999999999 -4.4102 1.3096 127
-12.3672 -3.5273000000000003 1.3466999999999998 152
-8.9609 -2.5547 1.1924 153
-8.9062 -2.541 1.4062000000000001 71
-12.0703 -3.4414 2.2051 216
-2.9745999999999997 -0.8373999999999999 -0.5376 105
-3.0077999999999996 -0.8462000000000001 -0.4697 38
-3.3105 -0.9320999999999999 0.1183 49
-15.4453 -4.3477 0.9312 107
-15.4375 -4.3477 1.3066 222
-9.3125 -2.6211 1.0117 208
-8.9531 -2.5195 1.1914 175
-8.9297 -2.5137 1.4082 87
-12.0781 -3.4004000000000003 2.2051 159
-2.9844 -0.8291 -0.5390999999999999 210
-3.0039 -0.8345 -0.469 151
-3.2910000000000004 -0.9140999999999999 0.1175 200
-16.3594 -4.543 0.9854 79
-15.4375 -4.2891 1.3047 130
-9.3047 -2.5858999999999996 1.0107 195
-11.8125 -3.2793 1.8622999999999998 21
-12.0703 -3.3516000000000004 2.2012 124
-2.9805 -0.8164 -0.5376 18
-3.0117000000000003 -0.8247 -0.46950000000000003 169
-3.2754000000000003 -0.8975 0.1168 83
-21.9531 -6.011699999999999 1.3213 43
-15.4453 -4.2305 1.3047 129
-9.2969 -2.5469 1.0088 230
-12.210899999999999 -3.3457 1.6230000000000002 4
-11.781199999999998 -3.2266000000000004 1.8563999999999998 179
-12.085899999999999 -3.3105 2.2012 114
-2.9766000000000004 -0.8042 -0.5361 139
-3.0098000000000003 -0.8134999999999999 -0.469 44
-3.2754000000000003 -0.8848 0.1166 213
-20.7344 -5.605499999999999 1.2470999999999999 94
-15.4531 -4.1758 1.3037 242
-9.2891 -2.5098 1.0068000000000001 151
-12.218800000000002 -3.3007999999999997 1.6221 45
-8.8125 -2.3828 1.3857 180
-12.0703 -3.2617000000000003 2.1973 41
-2.9668 -0.7905 -0.5342 44
-3.0195 -0.8047 -0.4702 144
-3.2812 -0.8745 0.1168 110
-19.5156 -5.203099999999999 1.1729 138
-15.4531 -4.1172 1.3027000000000002 250
-9.3281 -2.4844 1.0098 171
-12.1953 -3.25 1.6181999999999999 235
-8.9766 -2.3926 1.4102000000000001 222
-12.0625 -3.2129000000000003 2.1934 153
-2.9745999999999997 -0.7817000000000001 -0.5352 165
-3.0058999999999996 -0.7896 -0.4675 79
-3.2773000000000003 -0.8608 0.1165 224
-19.7188 -5.1836 1.1836 176
-15.4453 -4.0586 1.3008000000000002 8
-9.3672 -2.4609 1.0137 43
-12.1953 -3.2031 1.6162 226
-9.0703 -2.3848 1.4238 62
-8.6719 -2.2773 1.5732 92
-2.9785000000000004 -0.7715000000000001 -0.5352 103
-2.998 -0.7764 -0.4656 44
-3.2754000000000003 -0.8486 0.1164 11
-12.406199999999998 -3.2129000000000003 0.7426999999999999 76
-12.4531 -3.2245999999999997 1.0469 112
-9.3906 -2.4316 1.0146 209
-12.2031 -3.1601999999999997 1.6162 126
-11.7969 -3.0547000000000004 1.8516 48
-8.6875 -2.25 1.5741999999999998 121
-2.9766000000000004 -0.7598 -0.5342 136
-3.0214999999999996 -0.7709999999999999 -0.469 139
-3.2558999999999996 -0.8311 0.1155 76
-3.2324 -0.8251999999999999 -0.4236 97
-12.3906 -3.1620999999999997 0.7412000000000001 148
-12.375 -3.1601999999999997 1.04 79
-9.4141 -2.4023 1.0166 52
-12.218800000000002 -3.1191000000000004 1.6162 142
-11.781199999999998 -3.0058999999999996 1.8466999999999998 13
-12.0078 -3.0664 2.1777 245
-2.9766000000000004 -0.7484999999999999 -0.5337 194
-3.0117000000000003 -0.7578 -0.467 196
-3.2577999999999996 -0.8198000000000001 0.1155 177
-3.0898000000000003 -0.7773 -0.4043 127
-12.343800000000002 -3.1055 0.7378 162
-12.3594 -3.1094 1.0371 104
-9.4297 -2.3711 1.0176 202
-12.226600000000001 -3.0762 1.6162 107
-11.781199999999998 -2.9629000000000003 1.8457 72
-11.9219 -2.998 2.1602 40
-2.9668 -0.7354 -0.5317000000000001 220
-3.0156 -0.7471 -0.467 48
-3.2617000000000003 -0.8081 0.1155 79
-3.127 -0.7748999999999999 -0.4089 216
-12.335899999999999 -3.0586 0.7368000000000001 231
-3.1016000000000004 -0.7686 -0.3311 166
-12.375 -3.0664 1.0371 41
-3.0839999999999996 -0.7642 -0.2559 195
-9.4844 -2.3516 1.0225 119
-12.218800000000002 -3.0293 1.6143 196
-11.781199999999998 -2.9199 1.8447 145
-11.8281 -2.9316000000000004 2.1426 30
-2.9688 -0.7251000000000001 -0.5317000000000001 77
-3.002 -0.7329000000000001 -0.4648 165
-3.252 -0.7939 0.1151 135
-12.3594 -3.0176 0.7373000000000001 154
-3.0723000000000003 -0.75 -0.32789999999999997 10
-12.3672 -3.0195 1.0361 108
-3.125 -0.7631999999999999 -0.259 245
-9.5391 -2.3281 1.0273 17
-3.1211 -0.7617 -0.18420000000000003 240
-12.218800000000002 -2.9844 1.6122999999999998 45
-11.835899999999999 -2.8887 1.8506 189
-9.1641 -2.2363 1.6562000000000001 251
-2.9766000000000004 -0.7153 -0.5322 41
-2.9961 -0.7206999999999999 -0.4636 154
-3.2598000000000003 -0.7837000000000001 0.1152 72
-12.3828 -2.9785000000000004 0.7383 51
-3.1172000000000004 -0.7495 -0.3325 216
-12.414100000000001 -2.9844 1.0391 212
-3.0586 -0.7354 -0.2532 78
-12.3906 -2.9785000000000004 1.335 208
-9.6484 -2.3203 1.2705 35
-3.1543 -0.7583 -0.1115 73
-9.7031 -2.334 1.5156 1
-9.2031 -2.2129 1.6621000000000001 73
-2.9785000000000004 -0.7051000000000001 -0.5322 187
-3.0077999999999996 -0.7119 -0.4648 34
-3.2305 -0.7646 0.11410000000000001 245
-3.2461 -0.7686 -0.4236 4
-12.4531 -2.9473000000000003 0.7417 106
-3.1348000000000003 -0.7422 -0.33399999999999996 15
-12.4844 -2.9551 1.0439 28
-3.0995999999999997 -0.7339 -0.2566 51
-12.414100000000001 -2.9395 1.3359 123
-9.6484 -2.2852 1.2705 75
-9.6406 -2.2832 1.5049000000000001 66
-3.1582 -0.7476 -0.037000000000000005 87
-9.2188 -2.1836 1.6631 158
-2.9688 -0.6923999999999999 -0.5303 194
-3.2382999999999997 -0.7554000000000001 0.038 0
-3.0058999999999996 -0.7012 -0.46409999999999996 156
-3.2441000000000004 -0.7568 0.11460000000000001 123
-3.0566000000000004 -0.7129000000000001 -0.3982 66
-12.5078 -2.9160000000000004 0.7445999999999999 74
-3.1191000000000004 -0.7275 -0.332 142
-13.476600000000001 -3.1426 1.127 205
-3.1406 -0.7323999999999999 -0.25980000000000003 139
-12.4922 -2.9141000000000004 1.3437999999999999 237
-9.6562 -2.2539 1.2705 116
-9.6719 -2.2559 1.5078 231
-11.773399999999999 -2.7461 2.123 219
-2.9608999999999996 -0.6801999999999999 -0.5283 136
-3.0098000000000003 -0.6914 -0.4644 26
-3.2577999999999996 -0.7484999999999999 0.1149 73
-3.0586 -0.7026 -0.3982 64
-13.468800000000002 -3.0938 0.8012999999999999 134
-3.082 -0.708 -0.32789999999999997 83
-13.468800000000002 -3.0938 1.125 85
-3.123 -0.7178 -0.2581 22
-13.476600000000001 -3.0957 1.4482 204
-9.6797 -2.2246 1.2715 126
-9.6953 -2.2285 1.5107 49
-9.5938 -2.2031 1.7275 219
-2.9688 -0.6704000000000001 -0.5293 5
-3.0058999999999996 -0.6792 -0.4636 212
-3.2676 -0.7383 0.1152 128
-3.1348000000000003 -0.708 -0.408 233
-13.476600000000001 -3.0449 0.8012999999999999 215
-3.1113 -0.7031000000000001 -0.3308 238
-13.476600000000001 -3.0449 1.125 38
-3.1387 -0.7090000000000001 -0.259 245
-13.476600000000001 -3.0449 1.4482 83
-3.1641000000000004 -0.7148 -0.18600000000000003 10
-12.2344 -2.7637 1.6084 170
-9.7578 -2.2051 1.5186000000000002 95
-9.5781 -2.1641 1.7246000000000001 179
-2.9745999999999997 -0.6611 -0.5297999999999999 157
-3.0039 -0.6675 -0.46259999999999996 255
-3.2598000000000003 -0.7245999999999999 0.1148 17
-3.1601999999999997 -0.7021 -0.41090000000000004 15
-13.476600000000001 -2.9961 0.8008 103
-3.0879000000000003 -0.6859999999999999 -0.32789999999999997 237
-13.460899999999999 -2.9922000000000004 1.123 235
-3.1016000000000004 -0.6895 -0.2559 179
-13.4922 -2.998 1.4482 77
-3.2656 -0.7256 -0.19190000000000002 217
-12.2344 -2.7207 1.6074000000000002 30
-9.8359 -2.1855 1.5303 246
-9.6016 -2.1328 1.7266 233
-2.9766000000000004 -0.6509 -0.5297999999999999 22
-3.002 -0.6562 -0.4619 108
-3.2226999999999997 -0.7041 0.1133 92
-3.0898000000000003 -0.6753 -0.4011 168
-13.476600000000001 -2.9473000000000003 0.8003 224
-3.1055 -0.6787000000000001 -0.3296 25
-13.460899999999999 -2.9433999999999996 1.1220999999999999 236
-3.1074 -0.6792 -0.2561 20
-13.476600000000001 -2.9452999999999996 1.4453 13
-12.2422 -2.6757999999999997 1.6063999999999998 128
-9.8828 -2.1602 1.5352000000000001 85
-9.5938 -2.0977 1.7246000000000001 24
-2.9589999999999996 -0.6362 -0.5264 38
-3.0077999999999996 -0.6465000000000001 -0.46259999999999996 106
-3.2422000000000004 -0.6968000000000001 0.114 176
-3.0957 -0.665 -0.4019 72
-13.476600000000001 -2.8964999999999996 0.7993000000000001 218
-3.1074 -0.6679999999999999 -0.3296 36
-13.476600000000001 -2.8964999999999996 1.1220999999999999 241
-3.0995999999999997 -0.6659999999999999 -0.2551 31
-13.468800000000002 -2.8964999999999996 1.4434 177
-3.2148000000000003 -0.6909000000000001 -0.1886 242
-12.25 -2.6327999999999996 1.6063999999999998 118
-12.031199999999998 -2.5858999999999996 1.8700999999999999 76
-9.8828 -2.125 1.7753999999999999 100
-2.9551 -0.624 -0.5249 60
-3.0117000000000003 -0.6362 -0.4629 37
-3.2305 -0.6826000000000001 0.11349999999999999 119
-3.0702999999999996 -0.6489 -0.3982 209
-13.4531 -2.8438 0.7974 195
-3.0938 -0.6537999999999999 -0.32789999999999997 119
-13.468800000000002 -2.8457 1.1211 198
-3.1016000000000004 -0.6553 -0.2551 25
-13.468800000000002 -2.8457 1.4424000000000001 206
-3.127 -0.6606000000000001 -0.1833 245
-12.25 -2.5879000000000003 1.6055000000000001 146
-12.0547 -2.5469 1.8730000000000002 151
-9.8672 -2.084 1.7705000000000002 139
-2.9608999999999996 -0.6147 -0.5259 82
-3.0039 -0.624 -0.46140000000000003 112
-3.2363 -0.6718999999999999 0.11359999999999999 90
-3.0723000000000003 -0.6382 -0.3982 187
-13.476600000000001 -2.7988 0.7983 49
-3.0566000000000004 -0.6347999999999999 -0.3237 5
-13.4922 -2.8026999999999997 1.1220999999999999 227
-3.0918 -0.6420999999999999 -0.25420000000000004 108
-13.4844 -2.7988 1.4424000000000001 56
-3.1406 -0.6523 -0.184 228
-12.2422 -2.541 1.6025 141
-12.085899999999999 -2.5098 1.875 1
-11.7344 -2.4375 2.1055 66
-2.9726999999999997 -0.6064 -0.5273 34
-2.9922000000000004 -0.6103999999999999 -0.4592 176
-3.2577999999999996 -0.6646 0.1143 142
-3.0469 -0.6215999999999999 -0.3945 6
-13.5547 -2.7656 0.8022 211
-3.0839999999999996 -0.6289 -0.3262 105
-13.5469 -2.7637 1.125 46
-3.1016000000000004 -0.6328 -0.25489999999999996 164
-13.468800000000002 -2.748 1.4404 155
-3.1367000000000003 -0.6396000000000001 -0.18350000000000002 160
-12.25 -2.498 1.6025 102
-12.085899999999999 -2.4668 1.875 113
-11.75 -2.3984 2.1074 195
-2.9707 -0.5952000000000001 -0.5268999999999999 43
-3.0 -0.6011 -0.46 222
-3.2108999999999996 -0.6431 0.1125 157
-3.0312 -0.6069 -0.3921 41
-13.5781 -2.7207 0.8027 150
-3.1055 -0.6221 -0.3281 161
-13.5781 -2.7207 1.1279000000000001 80
-3.0957 -0.6201 -0.25420000000000004 65
-13.460899999999999 -2.6973000000000003 1.4385 45
-3.1387 -0.6289 -0.18350000000000002 244
-12.2422 -2.4531 1.6006 84
-12.085899999999999 -2.4219 1.874 146
-11.773399999999999 -2.3594 2.1094 212
-2.9608999999999996 -0.5825 -0.5244 191
-3.002 -0.5903 -0.46 151
-3.2305 -0.6353 0.11320000000000001 15
-3.0293 -0.5957 -0.39159999999999995 134
-13.5781 -2.6719 0.8027 25
-3.0918 -0.6084 -0.3267 223
-13.5781 -2.6719 1.127 190
-3.0742000000000003 -0.605 -0.2522 213
-13.4531 -2.6464999999999996 1.4365 187
-3.2108999999999996 -0.6318 -0.1877 73
-12.2656 -2.4121 1.6025 149
-3.1757999999999997 -0.6245 -0.1112 70
-12.093800000000002 -2.3789 1.8730000000000002 187
-3.3281 -0.6548 -0.0388 17
-11.7578 -2.3145 2.1055 217
-2.9551 -0.5708 -0.5234000000000001 139
-3.0137 -0.5820000000000001 -0.46140000000000003 110
-3.2441000000000004 -0.6265 0.11359999999999999 70
-3.0702999999999996 -0.5928 -0.3967 154
-13.5703 -2.6211 0.8018000000000001 185
-3.1055 -0.5996 -0.32789999999999997 141
-13.601600000000001 -2.627 1.1279000000000001 181
-3.0918 -0.5972 -0.25370000000000004 142
-13.468800000000002 -2.6016000000000004 1.4375 183
-3.1113 -0.6006 -0.1816 31
-12.2422 -2.3633 1.5977000000000001 205
-3.1620999999999997 -0.6103999999999999 -0.1107 197
-12.0703 -2.332 1.8681999999999999 20
-3.1895 -0.6157 -0.0371 252
-11.75 -2.2695 2.1035 16
-2.9608999999999996 -0.561 -0.5239 162
-3.1895 -0.6045 0.037000000000000005 7
-3.0 -0.5684 -0.45899999999999996 175
-3.2285000000000004 -0.6118 0.113 47
-13.593800000000002 -2.5762 0.8027 240
-13.5781 -2.5742000000000003 1.125 103
-13.476600000000001 -2.5527 1.4365 163
-12.25 -2.3223 1.5986000000000002 103
-3.2344 -0.6128 -0.11320000000000001 1
-11.851600000000001 -2.2441 1.8319999999999999 130
-3.1797000000000004 -0.6025 -0.0369 149
-11.7656 -2.2305 2.1035 70
-2.9707 -0.5522 -0.5254 209
-3.1992000000000003 -0.5947 0.0371 132
-2.9941000000000004 -0.5566 -0.4578 27
-3.2344 -0.6011 0.1131 224
-13.593800000000002 -2.5273 0.8018000000000001 4
-13.5781 -2.5254 1.125 14
-13.476600000000001 -2.5059 1.4365 201
-12.2578 -2.2793 1.5986000000000002 52
-11.843800000000002 -2.2012 1.8311000000000002 64
-11.7656 -2.1875 2.1035 214
-2.9648000000000003 -0.5405 -0.5239 237
-3.0039 -0.5474 -0.45899999999999996 166
-3.2245999999999997 -0.5879 0.1127 61
-13.601600000000001 -2.4785 0.8018000000000001 241
-13.5781 -2.4746 1.124 241
-13.4531 -2.4531 1.4325999999999999 5
-12.25 -2.2324 1.5966999999999998 243
-11.843800000000002 -2.1602 1.8300999999999998 53
-11.789100000000001 -2.1484 2.1055 254
-2.9551 -0.5278 -0.522 119
-3.0039 -0.5366 -0.4587 159
-3.207 -0.5732 0.11199999999999999 249
-13.585899999999999 -2.4277 0.8003 151
-13.585899999999999 -2.4277 1.123 148
-13.460899999999999 -2.4043 1.4325999999999999 88
-12.273399999999999 -2.1934 1.5986000000000002 67
-11.914100000000001 -2.1289 1.8388999999999998 217
-11.773399999999999 -2.1035 2.1016 199
-2.9452999999999996 -0.5156000000000001 -0.52 254
-3.0077999999999996 -0.5264 -0.45899999999999996 69
-3.2324 -0.5659000000000001 0.1128 165
-13.5625 -2.375 0.7988 144
-13.585899999999999 -2.3789 1.123 137
-13.4844 -2.3613 1.4346 17
-12.25 -2.1445 1.5937999999999999 146
-12.1172 -2.1211 1.8691 1
-11.7578 -2.0586 2.0977 177
-2.9551 -0.5068 -0.521 56
-3.0039 -0.5151 -0.45799999999999996 217
-3.2226999999999997 -0.5527000000000001 0.1124 245
-13.5781 -2.3281 0.7988 232
-13.5781 -2.3281 1.1220999999999999 58
-13.5 -2.3145 1.4355000000000002 219
-12.25 -2.1016 1.5937999999999999 139
-12.125 -2.0781 1.8691 159
-11.7578 -2.0156 2.0957 62
-2.9648000000000003 -0.4976 -0.5225 96
-2.9922000000000004 -0.5024000000000001 -0.45630000000000004 15
-3.2168 -0.54 0.1121 161
-13.5781 -2.2793 0.7983 46
-13.5703 -2.2793 1.1201 60
-13.5156 -2.2695 1.4355000000000002 145
-12.2578 -2.0586 1.5937999999999999 10
-12.1094 -2.0332 1.8652000000000002 194
-11.781199999999998 -1.9775 2.0996 40
-2.9648000000000003 -0.48710000000000003 -0.5225 50
-2.9941000000000004 -0.4919 -0.45630000000000004 179
-3.2226999999999997 -0.5293 0.11220000000000001 44
-13.5703 -2.2285 0.7974 66
-13.5547 -2.2266 1.1181999999999999 1
-13.523399999999999 -2.2207 1.4355000000000002 64
-12.2578 -2.0137 1.5928 82
-12.1094 -1.9893 1.8652000000000002 213
-11.773399999999999 -1.9346 2.0977 166
-2.9551 -0.47509999999999997 -0.5205 94
-3.0 -0.48219999999999996 -0.4568 227
-3.2089999999999996 -0.5156000000000001 0.1117 172
-13.5469 -2.1777 0.7959 2
-13.5469 -2.1758 1.1172 57
-13.476600000000001 -2.166 1.4297 43
-12.273399999999999 -1.9716999999999998 1.5928 204
-12.1172 -1.9472999999999998 1.8652000000000002 1
-11.7578 -1.8896000000000002 2.0918 252
-2.9452999999999996 -0.4629 -0.5186 35
