# .PCD v0.7 - Point Cloud Data file format
VERSION 0.7
FIELDS x y z intensity
SIZE 4 4 4 4
TYPE F F F F
COUNT 1 1 1 1
WIDTH 1373
HEIGHT 1
VIEWPOINT 0 0 0 1 0 0 0
POINTS 1373
DATA ascii
14.273399999999999 14.0078 -1.1611 65
21.4062 21.0 -0.34990000000000004 13
27.7031 27.0 0.4514 89
27.2344 26.5625 1.3271000000000002 105
7.921900000000001 7.7227 -1.4180000000000001 152
27.5781 26.8906 2.2383 117
9.3203 9.0859 -1.3633000000000002 0
11.3047 11.0156 -1.2852000000000001 204
14.2969 13.9375 -1.1592 51
27.4375 26.5625 1.3319999999999999 111
7.9609000000000005 7.7109000000000005 -1.4199000000000002 109
27.7812 26.9062 2.248 155
9.3672 9.0703 -1.3662 173
11.3594 11.0 -1.2881 178
14.3594 13.906199999999998 -1.1602 112
28.0312 26.9531 0.4539 170
27.9531 26.8906 1.3525 164
8.0 7.6953 -1.4228999999999998 90
27.9531 26.8906 2.2539 168
9.4062 9.0547 -1.3672 207
11.398399999999999 10.968800000000002 -1.2881 205
14.4531 13.898399999999999 -1.1641 2
28.1719 26.875 1.3584 162
8.0469 7.6797 -1.4247999999999998 132
28.1406 26.8594 2.2598 174
9.4609 9.0234 -1.3691 86
11.460899999999999 10.9375 -1.29 158
14.5156 13.851600000000001 -1.165 8
28.5469 27.0469 0.45899999999999996 22
30.375 28.7656 1.459 52
8.0859 7.6562 -1.4268 155
28.3594 26.8594 2.2695 78
9.5078 9.0078 -1.3721 142
11.5078 10.906199999999998 -1.291 85
14.585899999999999 13.8203 -1.167 245
30.3438 28.5781 0.4866 246
28.6875 27.0156 1.375 118
8.1172 7.640599999999999 -1.4287 241
28.5156 26.8594 2.2773 0
9.5547 9.0 -1.375 173
11.5781 10.906199999999998 -1.2949000000000002 92
14.6406 13.789100000000001 -1.167 122
30.4062 28.4375 0.4858 115
28.8906 27.0312 1.3799000000000001 136
8.1641 7.636699999999999 -1.4325999999999999 159
28.7031 26.8594 2.2852 75
9.5938 8.9688 -1.376 25
11.6172 10.8672 -1.2959 225
14.718800000000002 13.7656 -1.1699 185
0.541 0.5024000000000001 -0.1229 222
30.3906 28.2344 0.4841 90
29.0938 27.0312 1.3847999999999998 62
8.2031 7.6172 -1.4346 101
28.9062 26.8438 2.293 143
9.6328 8.9453 -1.3769999999999998 144
27.7031 25.7188 3.0839999999999996 33
11.6953 10.8594 -1.2997999999999998 70
14.789100000000001 13.7344 -1.1719 235
22.9062 21.2812 -0.36469999999999997 177
0.5922999999999999 0.5459 -0.1346 26
30.3906 28.0156 0.4824 101
29.2656 26.9844 1.3887 0
8.2578 7.613300000000001 -1.4394999999999998 57
29.1094 26.8438 2.3008 154
9.6875 8.9297 -1.3799000000000001 221
27.875 25.7031 3.0938 100
11.726600000000001 10.8125 -1.2997999999999998 135
14.843800000000002 13.6875 -1.1729 198
22.9375 21.1406 -1.0879 83
23.0469 21.2656 -0.3657 17
0.5854 0.5361 -0.1326 75
30.3594 27.7969 0.4805 253
29.4688 26.9844 1.3936000000000002 29
8.2812 7.578099999999999 -1.4385 66
29.3438 26.8594 2.3105 90
9.7266 8.9062 -1.3818000000000001 13
27.7031 25.3594 3.0645 250
11.781199999999998 10.789100000000001 -1.3008000000000002 157
14.9219 13.664100000000001 -1.1748 135
58.4688 53.5312 10.1953 84
23.125 21.1719 -1.0928 50
0.6021 0.5474 -0.136 252
30.4062 27.6406 0.47950000000000004 172
29.6719 26.9688 1.3984 109
8.3281 7.5664 -1.4413999999999998 28
27.7031 25.1875 2.1758 50
9.7734 8.8828 -1.3838 175
27.8125 25.2812 3.0664 124
11.835899999999999 10.7578 -1.3027000000000002 124
14.9844 13.625 -1.1758 85
58.75 53.4062 10.2031 196
23.2812 21.1562 -1.0967 43
30.1875 27.4375 -0.4763 122
0.5952000000000001 0.5371 -0.13390000000000002 208
30.3438 27.3906 0.47729999999999995 205
30.2969 27.3438 1.4238 58
8.3672 7.550800000000001 -1.4443000000000001 77
27.8125 25.1094 2.1777 148
9.8125 8.8594 -1.3847999999999998 30
27.7344 25.0312 3.0469 122
11.875 10.718800000000002 -1.3027000000000002 241
15.0469 13.5781 -1.1768 14
0.5645 0.5063 -0.1263 187
0.6698999999999999 0.6006 -0.1307 200
30.125 27.0 1.4111000000000002 31
8.4062 7.5352 -1.4463 178
27.6094 24.75 2.1543 68
9.8516 8.8281 -1.3857 135
28.1562 25.2344 3.0858999999999996 24
11.9375 10.7031 -1.3056999999999999 126
15.148399999999999 13.5781 -1.1806999999999999 125
30.1094 26.9844 -0.4719 187
0.5986 0.5327000000000001 -0.13390000000000002 196
0.6718999999999999 0.5981000000000001 -0.1307 138
30.1562 26.8281 1.4072 244
27.6875 24.6406 2.1543 18
9.8984 8.8125 -1.3887 121
28.2188 25.1094 3.082 115
11.9844 10.664100000000001 -1.3066 58
28.6562 25.5 4.0273 5
15.2031 13.531199999999998 -1.1816 4
30.2656 26.9375 -0.4731 200
0.5947 0.5259 -0.1326 13
0.6743000000000001 0.5957 -0.1307 33
30.3281 26.8125 1.4121000000000001 220
27.7812 24.5469 2.1543 23
9.9453 8.7891 -1.3906 220
27.8438 24.6094 3.0312 86
12.0469 10.648399999999999 -1.3096 128
15.2969 13.523399999999999 -1.1855 205
0.5967 0.5234000000000001 -0.1326 240
28.9219 25.3906 1.3418 101
27.7031 24.3125 2.1426 230
9.9844 8.7656 -1.3925999999999998 137
28.0625 24.6406 3.0469 176
12.093800000000002 10.6172 -1.3105000000000002 215
15.351600000000001 13.476600000000001 -1.1855 18
0.5806 0.5063 -0.1284 78
0.6781999999999999 0.5913 -0.1307 175
27.9531 24.375 2.1562 40
10.0156 8.7344 -1.3925999999999998 11
28.3125 24.7031 3.0664 69
12.125 10.5703 -1.3105000000000002 118
15.398399999999999 13.4297 -1.1865 8
31.5781 27.5469 -0.489 142
0.6118 0.5297999999999999 -0.1354 47
31.6875 27.4375 0.4893 24
29.4375 25.5 1.3584 23
27.9531 24.2031 2.1484 231
10.0703 8.7188 -1.3955000000000002 227
28.6406 24.7969 3.0918 235
12.1719 10.539100000000001 -1.3115 24
15.4844 13.414100000000001 -1.1895 186
31.7031 27.4531 -0.48969999999999997 155
0.6196 0.5332 -0.1367 136
31.75 27.3125 0.4888 159
31.2188 26.8594 1.4365 249
27.9688 24.0625 2.1445 203
10.1172 8.7031 -1.3984 8
28.8438 24.8125 3.1035000000000004 159
12.210899999999999 10.5 -1.3115 102
15.5703 13.3906 -1.1924 229
0.6128 0.5229 -0.1346 77
31.4375 26.8438 1.4413999999999998 48
27.8125 23.7344 2.125 53
10.1641 8.6797 -1.4003999999999999 24
12.2578 10.460899999999999 -1.3125 197
15.6328 13.343800000000002 -1.1934 201
0.5938 0.5029 -0.1298 32
31.7969 26.9531 0.4866 47
28.7969 24.4062 1.3163999999999998 240
28.1094 23.8125 2.1406 147
10.2188 8.6641 -1.4033000000000002 43
29.0 24.5781 3.1016000000000004 65
12.2969 10.4219 -1.3125 131
15.6875 13.2969 -1.1943000000000001 226
0.5893999999999999 0.49579999999999996 -0.1284 164
28.25 23.7812 2.1465 94
10.273399999999999 8.6484 -1.4072 238
29.0938 24.4844 3.1016000000000004 158
12.343800000000002 10.3906 -1.3144999999999998 198
15.7656 13.273399999999999 -1.1963 245
0.5908 0.4939 -0.1284 37
29.1094 24.3438 1.3232 3
28.625 23.9375 2.168 130
10.3203 8.625 -1.4091999999999998 5
12.406199999999998 10.375 -1.3174000000000001 224
15.8203 13.226600000000001 -1.1973 126
0.6108 0.5068 -0.1326 41
0.6923999999999999 0.5747 -0.1307 127
30.5938 25.3906 1.3866999999999998 40
27.7656 23.0312 2.0957 85
10.375 8.6094 -1.4131 50
12.4922 10.3672 -1.3222999999999998 86
28.7344 23.8438 3.9199 220
15.906199999999998 13.2031 -1.2002 226
25.6094 21.25 -0.3882 171
0.6215999999999999 0.5122 -0.1346 165
30.7656 25.3594 1.3906 172
27.8125 22.9219 2.0938 111
10.414100000000001 8.5859 -1.4141 208
29.5781 24.375 3.127 40
12.539100000000001 10.335899999999999 -1.3232 109
29.2188 24.0781 3.9745999999999997 111
16.0156 13.1875 -1.2041 17
25.6406 21.125 -0.38770000000000004 78
0.5869 0.4802 -0.1263 212
29.2188 23.9062 0.4404 175
0.6962999999999999 0.5698 -0.1307 133
30.7812 25.1875 1.3866999999999998 56
28.0469 22.9375 2.1055 35
10.468800000000002 8.5625 -1.4169999999999998 34
29.8438 24.4219 3.1464999999999996 167
12.6172 10.3203 -1.3271000000000002 98
28.7969 23.5625 3.9062 156
16.0469 13.1328 -1.2041 150
25.6719 21.0 -0.387 12
0.5977 0.48560000000000003 -0.1284 50
0.6981999999999999 0.5674 -0.1307 21
28.125 22.8438 2.1055 79
10.5156 8.5469 -1.4199000000000002 17
12.6797 10.2969 -1.3300999999999998 59
29.0781 23.625 3.9336 172
16.125 13.093800000000002 -1.2061 137
25.75 20.9219 -0.387 76
0.6118 0.49340000000000006 -0.13119999999999998 189
0.7001999999999999 0.5649000000000001 -0.1307 138
28.4375 22.9531 2.123 233
10.531199999999998 8.5 -1.4180000000000001 155
28.3906 22.9062 2.9766000000000004 36
12.718800000000002 10.2656 -1.3311000000000002 182
29.9531 24.1719 4.043 221
16.2031 13.0781 -1.209 67
25.875 20.8906 -0.38789999999999997 29
0.6255 0.5015 -0.13390000000000002 77
0.7021 0.5625 -0.1307 73
28.6406 22.9531 2.1328 210
10.5781 8.4766 -1.4209 234
29.1875 23.3906 3.0526999999999997 254
12.7578 10.2266 -1.3319999999999999 88
30.0312 24.0781 4.0391 119
16.2656 13.039100000000001 -1.21 189
26.0312 20.875 -0.38939999999999997 255
0.6152000000000001 0.4893 -0.13119999999999998 44
29.625 23.5625 0.44170000000000004 135
0.7041 0.5600999999999999 -0.1307 22
34.3438 27.3125 1.5303 64
28.6562 22.7969 2.1289 196
10.6328 8.4531 -1.4228999999999998 143
29.3594 23.3438 3.0605 195
12.8203 10.2031 -1.335 79
16.375 13.023399999999999 -1.2139 70
26.1719 20.8125 -0.3901 82
0.6103999999999999 0.48219999999999996 -0.1298 219
0.7061 0.5576 -0.1307 103
29.8281 23.5625 1.3252000000000002 252
28.8281 22.7656 2.1348 116
10.6875 8.4453 -1.4268 217
29.3438 23.1719 3.0507999999999997 80
12.875 10.1641 -1.3359 117
16.4531 13.0 -1.2178 9
26.375 20.8281 -0.3921 238
0.6215999999999999 0.48729999999999996 -0.1318 132
0.708 0.5552 -0.1307 150
29.7812 23.3438 1.3193000000000001 96
28.8125 22.5781 2.127 169
10.7422 8.4219 -1.4297 245
12.9375 10.1406 -1.3388999999999998 234
16.5312 12.9531 -1.2187999999999999 127
26.5625 20.8281 -0.39380000000000004 231
0.6045 0.4705 -0.1277 235
0.71 0.5522 -0.1307 105
29.9844 23.3281 1.3252000000000002 151
29.0156 22.5781 2.1367 54
10.789100000000001 8.3984 -1.4325999999999999 133
29.2969 22.8125 3.0293 215
13.0078 10.125 -1.3428 236
16.625 12.9375 -1.2236 202
26.7188 20.7969 -0.395 143
0.6093999999999999 0.47090000000000004 -0.1284 49
0.7119 0.5503 -0.1307 89
30.2188 23.3594 1.3319999999999999 195
10.835899999999999 8.375 -1.4346 56
29.5 22.7969 3.0410000000000004 1
13.0469 10.0781 -1.3428 228
29.75 22.9844 3.9473000000000003 202
16.7188 12.9219 -1.2266 183
26.9375 20.8125 -0.3972 203
0.6235 0.47850000000000004 -0.13119999999999998 224
0.6758 0.519 -0.1234 154
31.2344 23.9688 1.3730000000000002 203
29.1719 22.3906 2.1367 40
10.898399999999999 8.3672 -1.4394999999999998 148
29.5625 22.6875 3.0391000000000004 6
13.1172 10.0703 -1.3466999999999998 40
29.7031 22.7969 3.9316000000000004 0
16.8125 12.906199999999998 -1.2305 166
27.0625 20.7812 -0.3982 130
0.6157 0.469 -0.129 251
0.7158 0.5449 -0.1307 238
31.2344 23.7969 1.3700999999999999 41
28.4062 21.6406 2.0742 40
10.9453 8.3359 -1.4413999999999998 41
29.9844 22.8438 3.0742000000000003 53
13.1797 10.0391 -1.3496000000000001 192
29.5156 22.4844 3.8964999999999996 115
16.8594 12.843800000000002 -1.2305 16
27.2656 20.7656 -0.39990000000000003 229
0.6079 0.4597 -0.127 152
0.7173 0.5425 -0.1307 170
35.3125 26.7188 1.5449000000000002 36
28.4375 21.5 2.0723 160
10.9922 8.3125 -1.4443000000000001 10
30.0469 22.7344 3.0742000000000003 149
13.2344 10.0078 -1.3516 77
29.75 22.5 3.9141000000000004 196
16.9219 12.7969 -1.2314 231
27.4375 20.75 -0.4014 19
0.603 0.45289999999999997 -0.12560000000000002 167
0.6718999999999999 0.5044 -0.1216 78
31.2969 23.5 1.3643 92
30.0 22.5312 2.1797 98
11.039100000000001 8.2891 -1.4463 181
13.281199999999998 9.9688 -1.3525 112
29.6562 22.2656 3.8945 230
17.0312 12.789100000000001 -1.2373 144
27.6562 20.7656 -0.4036 58
0.6143 0.45799999999999996 -0.1277 89
0.6294 0.469 -0.11320000000000001 44
35.8125 26.7031 1.5586000000000002 146
30.1406 22.4688 2.1836 200
11.0625 8.25 -1.4463 6
29.5781 22.0469 3.0098000000000003 31
13.3203 9.9297 -1.3535 29
29.7969 22.2031 3.9023000000000003 255
17.1094 12.75 -1.2393 244
27.875 20.7812 -0.4058 232
0.6377 0.47240000000000004 -0.1326 104
0.6436 0.47659999999999997 -0.11560000000000001 18
36.0625 26.7031 1.5654 135
30.3281 22.4531 2.1934 202
29.7344 22.0156 3.0176 38
13.398399999999999 9.9219 -1.3584 30
29.9688 22.1875 3.9141000000000004 162
17.2031 12.7422 -1.2431999999999999 71
28.0156 20.75 -0.4067 137
0.6079 0.447 -0.12560000000000002 230
0.6929000000000001 0.5097999999999999 -0.1246 224
36.3125 26.7031 1.5722999999999998 164
30.5156 22.4375 2.2012 152
29.1719 21.4531 2.9551 0
13.460899999999999 9.8984 -1.3613 194
29.9062 21.9844 3.8964999999999996 33
17.25 12.6875 -1.2431999999999999 254
28.2031 20.7344 -0.40840000000000004 14
0.6123 0.447 -0.1263 204
0.6724 0.4907 -0.1204 116
36.5312 26.6719 1.5781 150
30.2188 22.0625 2.1738 29
29.25 21.3438 2.9531 107
13.5156 9.8672 -1.3633000000000002 248
29.9219 21.8281 3.8887 209
17.3125 12.6406 -1.2451 102
31.8594 23.25 -1.375 138
28.4375 20.75 -0.4106 117
0.6079 0.44020000000000004 -0.1249 9
0.6675 0.4836 -0.1192 75
36.8438 26.6875 1.5859 66
30.625 22.1875 2.1973 5
29.375 21.2812 2.9589999999999996 190
13.5625 9.8281 -1.3643 227
30.2969 21.9531 3.9276999999999997 8
17.4219 12.625 -1.25 187
28.625 20.7344 -0.41259999999999997 215
0.6382 0.4587 -0.13119999999999998 220
0.6436 0.4629 -0.1144 9
31.2344 22.4688 2.2363 2
29.3906 21.1406 2.9531 208
13.6328 9.8047 -1.3681999999999999 182
30.4062 21.8594 3.9316000000000004 195
17.5469 12.6172 -1.2549 128
28.8281 20.7344 -0.4143 229
0.627 0.4475 -0.1284 243
0.6357 0.4536 -0.11259999999999999 187
37.3438 26.6562 1.6006 202
7.7422 5.5273 -1.2187999999999999 30
31.4844 22.4688 2.248 57
29.4062 20.9844 2.9473000000000003 186
7.9609000000000005 5.6836 -0.7954000000000001 186
30.5 21.7656 3.9336 129
17.6406 12.593800000000002 -1.2588 221
29.0781 20.75 -0.4167 131
0.6187 0.4385 -0.1263 5
0.6855 0.4858 -0.1216 151
37.5938 26.6406 1.6074000000000002 209
7.7461 5.488300000000001 -1.2158 55
31.6094 22.3906 2.25 103
7.8711 5.578099999999999 -1.0098 68
30.7031 21.75 3.0702999999999996 128
8.0156 5.6797 -0.7988 80
30.5938 21.6719 3.9355 45
17.7188 12.5547 -1.2607 173
29.2656 20.7344 -0.41850000000000004 89
0.6172 0.4341 -0.12560000000000002 29
7.7734000000000005 5.4688 -1.2168 24
31.7188 22.3125 2.2539 7
7.863300000000001 5.5312 -1.0059 166
31.0625 21.8438 3.0976999999999997 131
7.917999999999999 5.5703 -0.7870999999999999 81
29.4844 20.75 -0.4207 85
0.6187 0.43189999999999995 -0.12560000000000002 217
38.1562 26.6406 1.6230000000000002 122
7.8086 5.449199999999999 -1.2197 22
43.3438 30.25 3.0723000000000003 34
7.8711 5.4961 -1.0049 186
7.8711 5.4961 -0.7803 130
8.0078 5.5859000000000005 -0.5654 200
29.7344 20.75 -0.42310000000000003 143
0.6620999999999999 0.4587 -0.1346 169
43.3125 30.0156 3.0645 69
7.9336 5.4961 -1.0098 197
7.875 5.457000000000001 -0.7787999999999999 9
7.980499999999999 5.5273 -0.562 150
7.9765999999999995 5.5273 -0.3372 76
29.9375 20.75 -0.425 83
0.7061 0.48560000000000003 -0.1437 146
43.2812 29.7656 3.0526999999999997 109
7.9648 5.480499999999999 -1.0117 79
7.855499999999999 5.4023 -0.7754000000000001 126
7.9375 5.457000000000001 -0.5576 145
7.9727 5.484400000000001 -0.3362 229
30.1562 20.7344 -0.42700000000000005 21
39.0312 26.6562 1.6494 223
43.3125 29.5625 3.0488 156
7.980499999999999 5.4453 -1.0107 94
7.855499999999999 5.363300000000001 -0.7734000000000001 34
7.921900000000001 5.4062 -0.5552 123
7.980499999999999 5.449199999999999 -0.3357 138
31.5781 21.5625 -0.44630000000000003 148
39.3125 26.625 1.6562000000000001 30
43.2812 29.3281 3.0391000000000004 27
7.9922 5.4140999999999995 -1.0098 63
7.863300000000001 5.328099999999999 -0.772 141
7.9140999999999995 5.359400000000001 -0.5532 195
7.9688 5.3984000000000005 -0.3345 142
31.6094 21.4062 -0.4456 210
43.2812 29.1094 3.0332 90
8.0156 5.390599999999999 -1.0107 36
7.875 5.292999999999999 -0.7715000000000001 196
7.9023 5.3125 -0.5513 15
7.9765999999999995 5.363300000000001 -0.3337 125
8.0469 5.4102 -0.1125 158
39.875 26.6094 1.6719 228
43.2812 28.8906 3.0254000000000003 40
7.8789 5.261699999999999 -0.77 236
7.917999999999999 5.2890999999999995 -0.5513 40
7.9727 5.324199999999999 -0.33299999999999996 233
8.0312 5.359400000000001 -0.11199999999999999 57
40.125 26.6094 1.6797 17
43.25 28.6719 3.0176 54
7.8828 5.2265999999999995 -0.7686 69
7.9297 5.2539 -0.5508 145
7.984400000000001 5.292999999999999 -0.3328 122
8.0078 5.3086 -0.1115 128
40.5 26.6406 1.6913999999999998 182
8.0859 5.3203 -1.2393 83
43.2812 28.4531 3.0117000000000003 91
8.0781 5.3125 -1.0117 89
7.9062 5.199199999999999 -0.769 88
7.9375 5.2188 -0.5503 82
7.984400000000001 5.25 -0.3318 130
8.0078 5.269500000000001 -0.1112 187
40.75 26.5938 1.6982 179
8.0859 5.2773 -1.2373 226
43.25 28.2188 3.002 200
8.0781 5.269500000000001 -1.0088 242
7.925800000000001 5.171900000000001 -0.7695000000000001 20
7.953099999999999 5.1914 -0.5498 219
8.0156 5.230499999999999 -0.3325 146
8.0312 5.2422 -0.11130000000000001 47
8.125 5.261699999999999 -1.2402 67
43.2188 28.0 2.9941000000000004 128
7.988300000000001 5.175800000000001 -0.9956 155
7.9609000000000005 5.1562 -0.7709999999999999 152
7.980499999999999 5.167999999999999 -0.5508 85
8.0234 5.1953 -0.3318 21
8.0859 5.234400000000001 -0.1118 76
41.375 26.5938 1.7147999999999999 255
43.25 27.7969 2.9882999999999997 187
8.0156 5.1523 -0.9971 239
7.984400000000001 5.1328 -0.7715000000000001 185
8.0312 5.1602 -0.5527000000000001 81
8.0391 5.1640999999999995 -0.3318 6
8.125 5.2227 -0.1121 131
43.25 27.5781 2.9824 211
7.988300000000001 5.0938 -0.9912000000000001 5
8.0156 5.1133 -0.7729 160
8.1016 5.1640999999999995 -0.5562 250
8.0469 5.1328 -0.33130000000000004 77
32.0938 20.4688 -0.44409999999999994 56
43.2188 27.3438 2.9726999999999997 43
8.0781 5.1133 -0.5537 110
8.0938 5.1211 -0.3325 78
32.3125 20.4375 -0.446 44
43.2188 27.1406 2.9668 233
11.335899999999999 7.1172 -1.4022999999999999 13
14.7969 9.2891 -1.4238 149
8.1328 5.1055 -0.3335 195
32.5625 20.4375 -0.4485 160
43.2812 26.9688 2.9648000000000003 1
11.3594 7.082000000000001 -1.4022999999999999 87
14.843800000000002 9.25 -1.4258000000000002 4
19.2969 12.023399999999999 -1.3203 248
32.7812 20.4375 -0.4509 6
43.1562 26.7031 2.9492000000000003 164
11.3906 7.046900000000001 -1.4033000000000002 172
14.9219 9.2266 -1.4297 149
19.3906 11.9922 -1.3232 188
33.0312 20.4375 -0.4534 108
43.1875 26.5156 2.9452999999999996 248
11.4375 7.0234000000000005 -1.4062000000000001 226
14.960899999999999 9.1875 -1.4306999999999999 90
19.4844 11.960899999999999 -1.3271000000000002 154
33.25 20.4219 -0.4556 103
43.4375 26.4375 2.9551 115
11.4922 6.9961 -1.4091999999999998 20
15.023399999999999 9.1484 -1.4336000000000002 105
19.5938 11.9297 -1.3319999999999999 146
33.5 20.4062 -0.4578 127
44.0312 26.6094 0.6006 27
43.875 26.5156 1.7891 107
43.75 26.4375 2.9707 44
11.5547 6.984400000000001 -1.415 165
15.1094 9.1328 -1.4385 136
19.6562 11.875 -1.334 218
33.7812 20.4062 -0.4604 62
44.3438 26.5781 0.6035 156
43.125 25.8438 1.7538999999999998 147
44.125 26.4375 2.9901999999999997 131
11.5781 6.9414 -1.4141 145
15.1875 9.1016 -1.4434 204
19.75 11.835899999999999 -1.3369 192
7.980499999999999 4.7852 -0.32299999999999995 29
34.0312 20.4062 -0.4631 90
44.6562 26.5469 0.6064 163
43.125 25.6562 1.751 33
44.4375 26.4219 3.0058999999999996 31
11.593800000000002 6.894500000000001 -1.4131 223
15.2422 9.0625 -1.4453 48
19.8594 11.8125 -1.3418 230
7.9453 4.7266 -0.321 167
34.2812 20.3906 -0.4656 62
45.0312 26.5781 0.6108 17
44.875 26.4844 1.8184 21
44.75 26.4062 3.0214999999999996 144
11.6406 6.8672 -1.415 178
7.894500000000001 4.6562 -0.5307999999999999 164
7.9336 4.6797 -0.31980000000000003 79
7.9375 4.6836 -0.1069 30
45.375 26.5625 0.6138 118
43.3438 25.375 1.7529 164
45.0938 26.4062 3.0391000000000004 169
7.9453 4.6523 -0.9629000000000001 202
7.894500000000001 4.6211 -0.7432 30
7.8438 4.5938 -0.5264 192
7.9062 4.6289 -0.3181 0
7.921900000000001 4.6367 -0.10640000000000001 233
45.6875 26.5312 0.6167 89
7.8398 4.5547 -1.376 201
43.0625 25.0 1.7372999999999998 106
7.855499999999999 4.5625 -1.1631 246
45.4062 26.375 3.0526999999999997 213
7.9336 4.6055 -0.9595 226
7.890599999999999 4.582 -0.7417 74
7.8203 4.5391 -0.5234000000000001 67
7.9102 4.5938 -0.3176 88
7.917999999999999 4.5977 -0.1061 227
46.0625 26.5312 0.6211 114
7.8398 4.5156 -1.3730000000000002 214
45.875 26.4219 1.8477000000000001 64
7.863300000000001 4.5312 -1.1621 107
45.8125 26.375 3.0723000000000003 221
7.9023 4.5508 -0.9541 9
7.886699999999999 4.543 -0.7397 255
7.8125 4.5 -0.522 92
7.9062 4.5547 -0.3169 252
7.9102 4.5547 -0.1058 55
46.4688 26.5469 0.625 60
7.8711 4.4961 -1.376 96
46.2188 26.4062 1.8574000000000002 250
7.886699999999999 4.5039 -1.1631 98
46.1562 26.3594 3.0898000000000003 233
7.9102 4.5195 -0.9531000000000001 47
7.886699999999999 4.5078 -0.7383 106
7.8125 4.4648 -0.521 106
7.9102 4.5195 -0.31620000000000004 235
7.917999999999999 4.5234 -0.1058 95
7.9140999999999995 4.4844 -1.3809 235
43.0312 24.3906 1.7256 253
46.625 26.4219 3.1151999999999997 164
7.9297 4.4922 -0.9531000000000001 50
7.886699999999999 4.4688 -0.7368000000000001 5
7.8359000000000005 4.4414 -0.5215 55
7.8672 4.457 -0.314 117
7.9023 4.4766 -0.10529999999999999 146
8.0156 4.5039 0.1066 139
43.0625 24.2031 1.7227000000000001 140
44.1562 24.8281 2.9452999999999996 223
7.9727 4.4805 -0.9565 182
7.890599999999999 4.4336 -0.7354 182
7.8203 4.3945 -0.519 26
7.7539 4.3594 -0.30879999999999996 226
7.9023 4.4414 -0.1051 59
8.0156 4.4688 0.10640000000000001 13
47.4062 26.4219 1.8936000000000002 25
11.835899999999999 6.5977 0.7856000000000001 134
8.0156 4.4688 -0.9595 146
7.9102 4.4102 -0.7363 219
7.7734000000000005 4.332 -0.5151 186
7.75 4.3203 -0.3081 118
7.8984000000000005 4.4023 -0.10490000000000001 13
8.0312 4.4414 0.10640000000000001 154
11.835899999999999 6.546900000000001 0.7847 126
8.0156 4.4336 -0.958 136
11.9219 6.5977 1.1094 241
7.9140999999999995 4.3789 -0.7354 248
7.792999999999999 4.3125 -0.5156000000000001 201
7.7578 4.293 -0.3079 78
7.886699999999999 4.3633 -0.1045 21
8.0547 4.4219 0.1066 155
12.218800000000002 6.707000000000001 0.4849 105
11.835899999999999 6.4961 0.7827 77
8.0312 4.4062 -0.9584999999999999 23
11.8828 6.519500000000001 1.1035 98
7.925800000000001 4.3516 -0.7349 36
7.792999999999999 4.2773 -0.5146000000000001 68
7.7578 4.2578 -0.3071 55
7.8672 4.3203 -0.1041 232
8.1172 4.4141 0.10710000000000001 91
12.1797 6.6289 0.4824 144
11.843800000000002 6.4453 0.7817000000000001 234
8.0859 4.3984 -0.9629000000000001 236
11.968800000000002 6.511699999999999 1.1094 199
7.9453 4.3242 -0.7354 3
12.281199999999998 6.6836 1.4647999999999999 231
7.8047 4.2461 -0.5142 53
12.2578 6.667999999999999 1.79 161
7.7734000000000005 4.2305 -0.3074 7
7.8789 4.2891 -0.10400000000000001 162
12.1797 6.6289 2.4375 55
8.1875 4.418 0.10779999999999999 40
12.210899999999999 6.5859000000000005 0.4827 189
11.8125 6.375 0.7783 175
8.1016 4.3711 -0.9629000000000001 251
7.984400000000001 4.3086 -0.7373000000000001 134
7.8125 4.2148 -0.5142 34
12.2422 6.605499999999999 1.7841999999999998 125
7.800800000000001 4.207 -0.30760000000000004 249
12.2578 6.613300000000001 2.1172 21
7.886699999999999 4.2539 -0.1039 51
12.1797 6.574199999999999 2.4336 70
12.3047 6.582000000000001 0.4854 215
11.8281 6.328099999999999 0.7778 216
8.1172 4.3438 -0.9629000000000001 140
8.0234 4.293 -0.7393000000000001 175
7.8477 4.1992 -0.5151 235
12.2422 6.550800000000001 1.7812000000000001 163
7.8398 4.1953 -0.3086 233
7.9102 4.2305 -0.10400000000000001 72
12.210899999999999 6.5352 2.4355 128
49.7188 26.375 0.6572 158
8.2422 4.375 -1.416 78
44.375 23.5469 1.7519999999999998 67
8.2109 4.3594 -1.1904000000000001 19
11.835899999999999 6.2812 0.7768999999999999 159
8.1328 4.3125 -0.9629000000000001 227
11.8594 6.292999999999999 1.0928 91
8.0703 4.2812 -0.7422 236
7.890599999999999 4.1875 -0.5171 245
7.8359000000000005 4.1602 -0.3081 205
7.9375 4.2109 -0.1042 251
12.3672 6.5625 2.4609 87
8.2422 4.3359 -1.4141 174
44.5312 23.4219 1.7559 1
8.2188 4.3242 -1.1885 64
11.843800000000002 6.230499999999999 0.7759 102
8.1641 4.2969 -0.9648 155
11.8828 6.25 1.0928 163
8.1016 4.2617 -0.7437 184
7.9609000000000005 4.1875 -0.5205 203
7.8477 4.1289 -0.3079 70
7.9648 4.1914 -0.10439999999999999 215
8.2969 4.3281 -1.4199000000000002 217
44.875 23.4062 1.7656 29
8.2656 4.3086 -1.1934 49
11.8672 6.1914 0.7764 11
8.1953 4.2734 -0.9662999999999999 174
21.6562 11.2969 -1.4188999999999998 211
7.8984000000000005 4.1211 -0.3093 33
8.0156 4.1797 -0.1048 215
8.3438 4.3164 -1.4258000000000002 176
45.0312 23.2812 1.7686000000000002 55
11.9922 6.203099999999999 0.7831999999999999 66
8.2578 4.2695 -0.9727 91
21.7969 11.273399999999999 -1.4247999999999998 123
8.0078 4.1445 -0.3132 66
8.3984 4.3047 -1.4325999999999999 237
45.2812 23.2344 1.7753999999999999 238
12.906199999999998 6.6172 0.8412999999999999 71
12.210899999999999 6.261699999999999 -1.4385 199
100.0 51.2812 9.1797 189
21.9219 11.2422 -1.4306999999999999 21
8.1172 4.1602 -0.31670000000000004 109
8.4531 4.2969 -1.4394999999999998 97
46.25 23.5156 1.8096 224
44.25 22.5 2.8867000000000003 217
12.2422 6.2227 -1.4385 178
100.0 50.8438 9.1641 14
22.0312 11.2031 -1.4355000000000002 209
8.2422 4.1914 -0.321 55
45.0625 22.7188 1.7607 157
45.5625 22.9531 2.9648000000000003 154
12.289100000000001 6.1914 -1.4413999999999998 243
100.0 50.4062 9.1484 245
22.1562 11.164100000000001 -1.4404 25
45.1875 22.5781 1.7616999999999998 61
45.8125 22.8906 2.9766000000000004 127
12.343800000000002 6.171900000000001 -1.4463 236
100.0 50.0 9.1328 27
22.2969 11.1406 -1.4472999999999998 243
52.875 26.4375 -0.6904 90
45.375 22.5 1.7666 129
52.8438 26.2031 3.4297000000000004 164
12.3594 6.1289 -1.4453 212
54.0625 26.8125 -0.7051000000000001 250
45.7188 22.4688 1.7772999999999999 148
46.375 22.7812 3.0039 99
12.3672 6.078099999999999 -1.4434 147
100.0 49.125 9.0938 89
54.0938 26.3594 0.7026 198
47.1562 22.9844 1.8300999999999998 0
12.3906 6.0390999999999995 -1.4443000000000001 26
99.9375 48.7188 9.0781 248
46.7188 22.7656 -0.6069 37
46.9688 22.6719 1.8193000000000001 227
100.0 48.2812 6.457000000000001 133
12.414100000000001 5.9922 -1.4443000000000001 175
99.9375 48.25 9.0625 233
51.0625 24.6562 -0.6620999999999999 135
47.0312 22.5156 1.8193000000000001 113
99.9375 47.8438 6.4453 224
12.4453 5.957000000000001 -1.4463 255
99.9375 47.8125 9.0469 82
51.0625 24.4375 -0.6611 178
55.1562 26.1562 2.1309 155
47.9688 22.75 3.0858999999999996 108
12.460899999999999 5.9062 -1.4443000000000001 249
99.9375 47.375 9.0312 166
51.1562 24.25 -0.6611 16
55.625 26.125 2.1445 44
12.5 5.8711 -1.4463 16
99.9375 46.9375 9.0156 219
56.125 26.1406 2.1602 176
12.5078 5.824199999999999 -1.4453 148
99.9375 46.5625 9.0 217
56.6875 26.3906 -0.7304999999999999 19
56.6875 26.1719 2.1797 217
12.531199999999998 5.7852 -1.4453 61
57.1562 26.375 -0.7354 186
57.1562 26.125 2.1934 166
12.5625 5.7422 -1.4472999999999998 129
99.9375 45.6875 8.9766 15
57.6875 26.3594 -0.7406999999999999 184
99.875 45.2188 8.9531 118
19.5156 8.8359 -1.2431999999999999 27
12.6094 5.6602 -1.4472999999999998 47
100.0 44.9062 8.9531 27
60.1875 27.0156 -0.7705 11
55.0625 24.5 2.1016 138
99.875 44.4375 6.359400000000001 3
12.6094 5.613300000000001 -1.4463 51
99.875 44.4375 8.9219 38
14.9375 6.6484000000000005 -1.3319999999999999 39
14.9531 6.6562 -0.9497 239
99.875 44.0 6.3477 59
99.75 43.9688 8.8984 147
14.9297 6.578099999999999 -1.3291 152
14.9219 6.574199999999999 -0.9462999999999999 24
14.976600000000001 6.6015999999999995 -0.5698 112
55.4062 24.1875 2.1094 180
99.875 43.5938 6.3398 143
14.8906 6.5 -1.3232 62
14.906199999999998 6.5078 -0.9438 52
14.875 6.4922 -0.5649000000000001 147
61.4062 26.7969 -0.7827 244
55.5625 24.0156 2.1113 135
99.875 43.1562 8.8828 7
14.843800000000002 6.4140999999999995 -1.3174000000000001 37
14.8281 6.4062 -0.9375 151
14.8828 6.4336 -0.5645 186
61.4375 26.5469 -0.7817000000000001 198
61.4688 26.3125 0.7807999999999999 26
99.875 42.75 8.8672 126
14.8672 6.363300000000001 -1.3174000000000001 162
14.8906 6.3711 -0.9395 6
14.843800000000002 6.355499999999999 -0.562 19
61.375 26.2656 -0.7798 205
55.8125 23.6719 2.1152 154
99.8125 42.3125 8.8516 64
14.898399999999999 6.3203 -1.3184 103
14.898399999999999 6.3164 -0.9384999999999999 75
14.875 6.3086 -0.5625 238
99.75 41.9062 8.8359 211
14.9453 6.2773 -1.3203 99
14.9297 6.2734000000000005 -0.9395 149
14.9219 6.269500000000001 -0.5635 100
99.75 41.4688 8.8203 34
14.960899999999999 6.2188 -1.3193000000000001 66
15.0547 6.2578 -0.9462999999999999 109
15.023399999999999 6.2422 -0.5664 253
99.75 41.0625 8.8047 222
15.0156 6.1797 -1.3222999999999998 192
15.0781 6.207000000000001 -0.9462999999999999 182
15.0469 6.1914 -0.5664 148
65.125 26.7969 -0.8223 4
56.1562 22.9062 2.1172 230
57.5312 23.4531 3.6113 244
15.1094 6.1602 -1.3291 152
15.1797 6.1875 -0.9512 49
16.1406 6.578099999999999 -0.2029 111
16.1719 6.5273 0.203 178
99.8125 40.3125 6.261699999999999 233
99.8125 40.3125 8.7891 208
16.0625 6.488300000000001 -1.4121000000000001 166
16.0781 6.4961 -1.0068000000000001 66
16.0781 6.4961 -0.604 179
16.1094 6.5039 -0.2023 220
16.125 6.4453 0.2021 88
16.1094 6.4414 0.6045 31
16.1562 6.4609000000000005 1.0098 118
16.125 6.4453 1.4141 17
16.0938 6.4336 -1.4121000000000001 54
16.1719 6.4648 1.8262 159
16.1094 6.4414 -1.0068000000000001 174
16.125 6.449199999999999 2.2285 50
16.0938 6.4375 -0.6035 241
16.1562 6.4609000000000005 2.6483999999999996 196
16.1094 6.4375 -0.20190000000000002 2
16.1406 6.453099999999999 3.0586 250
16.125 6.386699999999999 0.20190000000000002 173
16.1094 6.3789 0.603 102
16.125 6.386699999999999 1.0068000000000001 63
16.1094 6.3789 1.4121000000000001 168
16.125 6.386699999999999 -1.4131 132
16.125 6.3828 1.8174000000000001 112
16.125 6.386699999999999 -1.0068000000000001 150
16.1094 6.3789 2.2227 59
16.125 6.386699999999999 -0.604 102
16.1094 6.3789 2.6348000000000003 162
16.0938 6.375 -0.20170000000000002 254
16.1094 6.3789 3.0469 48
16.1406 6.3203 0.2018 197
16.125 6.3125 0.6025 157
16.1094 6.3086 1.0039 38
16.125 6.3164 1.4111000000000002 151
16.1562 6.328099999999999 -1.4141 157
16.1094 6.3086 1.8144999999999998 157
16.1719 6.332000000000001 -1.0078 84
16.1094 6.3086 2.2207 244
16.1719 6.332000000000001 -0.6045 121
16.125 6.3125 2.6348000000000003 67
16.125 6.3125 -0.20149999999999998 189
16.125 6.3164 3.0469 55
16.1719 6.265599999999999 0.20190000000000002 44
16.1562 6.261699999999999 0.6035 60
16.1406 6.2539 1.0049 128
16.1406 6.2578 1.4111000000000002 180
16.25 6.292999999999999 -1.4188999999999998 231
16.1406 6.2539 1.8144999999999998 153
16.2344 6.2890999999999995 -1.0098 167
16.125 6.25 2.2188 156
16.25 6.296900000000001 -0.6069 34
16.1562 6.261699999999999 2.6348000000000003 174
16.1875 6.2734000000000005 -0.2021 53
16.1406 6.2578 3.0469 19
16.2344 6.2265999999999995 0.2025 184
16.2188 6.2188 0.605 214
16.1875 6.2109000000000005 1.0068000000000001 64
16.1875 6.207000000000001 1.4121000000000001 229
16.3594 6.269500000000001 -1.4268 98
16.2188 6.2188 1.8213 209
16.1719 6.203099999999999 2.2227 171
16.2344 6.2227 2.6445 47
16.2188 6.2188 3.0566000000000004 232
16.2812 6.175800000000001 0.6064 0
16.3281 6.1953 1.4228999999999998 93
19.2969 7.324199999999999 -1.1982 207
16.25 6.167999999999999 2.2305 190
17.9531 6.738300000000001 1.1123 174
100.0 37.5312 8.7188 190
17.9375 6.6640999999999995 1.1113 73
17.8281 6.625 -1.1045 108
17.8438 6.6289 -0.6631 88
17.8125 6.6172 -0.2212 248
17.8906 6.574199999999999 0.6636 39
17.9062 6.582000000000001 1.1074 68
100.0 36.75 8.6953 136
19.5312 7.1797 -1.208 51
17.9375 6.519500000000001 1.1074 241
99.9375 36.3438 8.6875 243
19.6406 7.140599999999999 -1.2129 205
17.9531 6.4609000000000005 1.1074 55
99.875 35.9375 8.6719 177
19.8906 7.1602 -1.2275 184
21.7031 7.8086 -0.2688 14
99.875 35.5625 8.6562 240
20.0781 7.1523 -1.2373 131
68.8125 24.2188 2.5449 64
99.9375 35.1875 8.6484 71
20.3438 7.1602 -1.252 119
68.8125 23.9375 2.541 51
71.125 24.75 4.3789 81
99.875 34.7812 8.6406 253
20.4844 7.1289 -1.2598 24
99.9375 34.375 8.625 52
20.7031 7.125 -0.7626999999999999 68
68.5625 23.3281 2.5273 23
99.8125 33.9688 8.6094 126
20.7031 7.042999999999999 -0.7617 0
99.8125 33.5938 8.6016 19
20.7344 6.9765999999999995 -0.7622 49
67.8125 22.5469 2.4941 213
68.375 22.7344 4.1914 238
99.875 33.1875 8.5938 129
20.7812 6.9062 -0.7626999999999999 10
67.75 22.2656 2.4883 51
68.375 22.4688 4.1836 209
99.75 32.8125 8.5781 171
67.9375 22.0938 2.4922 183
68.375 22.2188 4.1797 40
67.5625 21.4375 2.4727 71
69.5 22.0312 4.2383 34
100.9375 32.0312 8.6484 181
69.625 21.8125 4.2422 116
22.6094 7.0859000000000005 -1.376 19
67.875 21.0156 2.4805 139
101.0 31.2656 6.1484000000000005 5
101.0 31.2656 8.6328 70
22.7969 7.0586 -1.3857 66
22.8906 7.082000000000001 -0.835 205
71.6875 21.9062 4.3594 133
23.0938 7.0586 -1.4022999999999999 164
23.25 7.019500000000001 -1.4102000000000001 234
25.7031 7.574199999999999 -0.9336 42
71.9375 20.6406 2.6113 59
107.75 30.9219 6.519500000000001 56
72.0 20.3906 2.6113 53
25.7344 7.2890999999999995 -0.9320999999999999 23
25.8594 7.2265999999999995 -0.9359999999999999 232
24.6719 6.3398 -0.8876999999999999 202
25.3125 6.2227 -0.9087000000000001 38
25.2969 6.2188 -0.3037 142
25.3125 6.125 0.3037 185
25.2969 6.1211 0.9072 108
25.3281 6.1289 1.5137 224
25.3125 6.125 2.123 227
25.3125 6.1211 2.7324 193
25.2969 6.1211 3.3438 151
25.3281 6.125 -0.9081999999999999 231
25.2969 6.1211 3.9629000000000003 206
25.2812 6.1172 -0.3032 228
25.3125 6.125 4.5859 198
25.3438 6.046900000000001 0.3037 84
25.2812 6.0312 0.9057999999999999 202
25.2969 6.0352 1.5107 180
25.3125 6.0390999999999995 2.1211 139
25.2969 6.0352 2.7285000000000004 219
25.2812 6.0312 3.3379000000000003 18
25.4062 6.0625 -0.9106000000000001 150
25.2969 6.0352 3.9589999999999996 73
25.3125 6.0390999999999995 -0.3035 96
25.2812 6.0312 4.5742 79
25.4531 5.984400000000001 0.3049 255
25.3438 5.957000000000001 0.9072 204
25.3281 5.953099999999999 1.5116999999999998 183
12.6797 2.9805 -1.3643 33
25.3438 5.957000000000001 2.123 216
25.3281 5.957000000000001 2.7305 177
25.3125 5.953099999999999 3.3398000000000003 73
25.3594 5.9648 3.9668 194
25.4688 5.988300000000001 -0.30519999999999997 159
25.3438 5.957000000000001 4.582 175
25.4375 5.886699999999999 0.9102 119
25.4062 5.8789 1.5146000000000002 253
12.6797 2.9336 -1.3633000000000002 106
25.5 5.9023 2.1348 33
12.6875 2.9375 -1.0605 177
12.6094 2.918 1.3555000000000001 194
12.6797 2.9355 -0.7548999999999999 104
12.5703 2.9082 1.6543 192
12.6953 2.9375 -0.4531 159
12.664100000000001 2.9316000000000004 -0.15109999999999998 21
12.7031 2.8945 0.1514 235
12.664100000000001 2.8867000000000003 0.4517 9
12.6797 2.8906 0.7539 192
12.6875 2.8906 -1.3633000000000002 181
12.6875 2.8906 -1.0595999999999999 65
12.6172 2.875 1.3555000000000001 114
12.6875 2.8906 -0.7544 19
12.5781 2.8672000000000004 1.6543 33
12.6875 2.8906 -0.4526 191
12.6719 2.8887 -0.15109999999999998 106
12.6875 2.8418 0.15109999999999998 203
12.656199999999998 2.8358999999999996 0.4512 153
12.6875 2.8418 -1.3613 163
12.6797 2.8418 1.0576 189
12.656199999999998 2.8358999999999996 -1.0556999999999999 21
12.6094 2.8242000000000003 1.3535 58
12.6797 2.8418 -0.7534000000000001 102
12.593800000000002 2.8223000000000003 1.6543 178
12.6797 2.8418 -0.4521 136
12.648399999999999 2.8339999999999996 1.9697 130
12.664100000000001 2.8379000000000003 -0.1509 161
12.6875 2.7949 0.151 144
12.6719 2.793 0.4514 148
12.6875 2.7969 0.7534000000000001 39
12.6953 2.7969 -1.3613 174
12.6797 2.7949 1.0566 100
12.6797 2.7949 -1.0566 74
12.601600000000001 2.7773000000000003 1.3516 246
12.664100000000001 2.7910000000000004 -0.752 190
12.585899999999999 2.7733999999999996 1.6522999999999999 152
12.6797 2.7949 -0.4517 10
12.664100000000001 2.7910000000000004 1.9707 122
12.656199999999998 2.7891000000000004 -0.1506 252
12.6797 2.7461 0.1509 35
12.6797 2.7461 0.4514 78
12.6719 2.7441000000000004 0.752 48
12.6875 2.748 -1.3603999999999998 193
12.6953 2.75 1.0576 27
12.6797 2.7461 -1.0556999999999999 212
12.601600000000001 2.7285000000000004 1.3506 157
12.648399999999999 2.7401999999999997 -0.7505 157
12.585899999999999 2.7245999999999997 1.6503999999999999 63
12.6953 2.75 -0.45189999999999997 72
12.664100000000001 2.7422000000000004 1.9687999999999999 158
12.664100000000001 2.7422000000000004 -0.1506 9
12.656199999999998 2.7401999999999997 2.2754 176
12.6719 2.6973000000000003 0.1506 128
12.6875 2.7012 0.4512 220
12.6719 2.6973000000000003 0.7509999999999999 176
12.6797 2.7012 -1.3584 64
12.6719 2.6973000000000003 1.0547 9
12.6797 2.6992000000000003 -1.0556999999999999 41
12.6094 2.6855 1.3506 227
12.656199999999998 2.6933999999999996 -0.75 223
12.5703 2.6757999999999997 1.6475 233
12.6875 2.7012 -0.4512 251
12.664100000000001 2.6952999999999996 1.9678 253
12.664100000000001 2.6973000000000003 -0.1505 22
12.656199999999998 2.6952999999999996 2.2734 192
12.6797 2.6543 0.1505 37
12.664100000000001 2.6523000000000003 0.45020000000000004 242
12.6797 2.6562 0.7509999999999999 117
12.6719 2.6543 -1.3563999999999998 54
12.664100000000001 2.6523000000000003 1.0537 89
12.6719 2.6543 -1.0537 144
12.6172 2.6426 1.3506 71
12.664100000000001 2.6523000000000003 -0.75 191
12.5703 2.6327999999999996 1.6465 46
12.6719 2.6543 -0.45020000000000004 43
12.656199999999998 2.6523000000000003 1.9658000000000002 107
12.6719 2.6543 -0.1505 120
12.664100000000001 2.6523000000000003 2.2754 53
12.6797 2.6113 0.1505 54
12.6719 2.6113 0.45 42
12.6719 2.6094 0.75 229
12.6875 2.6132999999999997 -1.3563999999999998 195
12.656199999999998 2.6074 1.0518 102
12.656199999999998 2.6074 -1.0518 245
12.6094 2.5976999999999997 1.3486000000000002 115
12.664100000000001 2.6094 -0.7495 87
12.5781 2.5898000000000003 1.6465 246
12.6719 2.6094 -0.45 4
12.648399999999999 2.6055 1.9619 178
12.664100000000001 2.6094 -0.15039999999999998 86
12.664100000000001 2.6074 2.2715 81
12.6797 2.5645 0.15039999999999998 250
12.664100000000001 2.5605 0.4495 211
12.6719 2.5625 0.7495 76
12.6953 2.5664 -1.3563999999999998 10
12.6797 2.5645 1.0537 163
12.656199999999998 2.5586 -1.0518 241
12.593800000000002 2.5469 1.3457 3
12.656199999999998 2.5586 -0.7484999999999999 254
12.5781 2.543 1.6455000000000002 46
12.6875 2.5664 -0.45020000000000004 103
12.648399999999999 2.5586 1.9619 168
12.656199999999998 2.5586 -0.1501 163
12.648399999999999 2.5566 2.2676 212
12.6875 2.5195 0.15039999999999998 58
12.6797 2.5176 0.4495 77
12.664100000000001 2.5156 0.7484999999999999 45
12.6797 2.5176 -1.3544999999999998 79
12.6797 2.5176 1.0527 220
12.656199999999998 2.5137 -1.0508 171
12.593800000000002 2.5 1.3447 53
12.648399999999999 2.5117 -0.7476 227
12.5703 2.4961 1.6425999999999998 70
12.6797 2.5176 -0.4497 223
12.664100000000001 2.5137 1.9619 22
12.664100000000001 2.5137 -0.15 163
12.6328 2.5078 2.2637 200
12.664100000000001 2.4688 0.15 51
12.6797 2.4727 0.4495 48
12.6719 2.4707 0.7484999999999999 79
12.6719 2.4688 -1.3516 55
12.6719 2.4688 1.0508 135
12.6719 2.4707 -1.0508 47
12.593800000000002 2.4551 1.3437999999999999 131
12.656199999999998 2.4668 -0.7476 17
12.5547 2.4473 1.6396000000000002 36
12.6719 2.4707 -0.449 11
12.656199999999998 2.4668 1.959 198
12.664100000000001 2.4688 -0.15 2
12.648399999999999 2.4648 2.2656 82
12.664100000000001 2.4238 0.1499 77
12.6719 2.4238 0.4487 69
12.6719 2.4238 0.748 253
12.6719 2.4238 -1.3516 167
12.656199999999998 2.4219 1.0488 82
12.664100000000001 2.4238 -1.0498 87
12.601600000000001 2.4102 1.3437999999999999 245
12.656199999999998 2.4219 -0.7471 164
12.5703 2.4043 1.6406 88
12.664100000000001 2.4219 -0.4482 156
12.6406 2.418 1.9561000000000002 3
12.664100000000001 2.4238 -0.1499 110
12.6328 2.418 2.2617 72
12.6875 2.3809 0.1501 106
12.664100000000001 2.377 0.4482 67
12.6797 2.3809 0.748 44
12.6719 2.3789 -1.3506 19
12.656199999999998 2.377 1.0488 18
12.664100000000001 2.377 -1.0488 39
12.593800000000002 2.3633 1.3418 191
12.664100000000001 2.377 -0.7471 224
12.5703 2.3594 1.6396000000000002 134
12.6719 2.377 -0.4482 105
12.648399999999999 2.375 1.9561000000000002 123
12.648399999999999 2.375 -0.1497 189
12.648399999999999 2.373 2.2617 0
12.6719 2.332 0.14980000000000002 95
12.664100000000001 2.3301 0.44780000000000003 118
12.6719 2.332 0.7471 31
12.6797 2.334 -1.3506 72
12.6719 2.332 1.0488 217
12.656199999999998 2.3301 -1.0479 231
12.5781 2.3145 1.3397999999999999 172
12.656199999999998 2.3301 -0.7461 58
12.5703 2.3145 1.6387 97
12.6719 2.332 -0.44799999999999995 141
12.648399999999999 2.3281 1.9541 216
12.648399999999999 2.3281 -0.1494 79
12.6406 2.3262 2.2598 165
12.6719 2.2871 0.1497 110
12.664100000000001 2.2852 0.44780000000000003 117
12.664100000000001 2.2852 0.7461 42
12.6719 2.2871 -1.3486000000000002 165
12.664100000000001 2.2852 1.0469 57
12.6719 2.2871 -1.0479 155
12.585899999999999 2.2715 1.3397999999999999 163
12.648399999999999 2.2832 -0.7451000000000001 226
12.5625 2.2676 1.6366999999999998 122
12.6797 2.2871 -0.44799999999999995 0
12.656199999999998 2.2852 1.9550999999999998 175
12.648399999999999 2.2812 -0.1494 208
12.6328 2.2793 2.2559 83
12.664100000000001 2.2383 0.1494 168
12.664100000000001 2.2402 0.4473 49
12.6719 2.2402 0.7461 190
12.664100000000001 2.2402 -1.3466999999999998 113
12.656199999999998 2.2383 1.0459 243
12.6797 2.2422 -1.0479 255
12.585899999999999 2.2266 1.3388999999999998 36
12.656199999999998 2.2383 -0.7451000000000001 35
12.5547 2.2207 1.6347999999999998 34
12.664100000000001 2.2402 -0.4473 59
12.656199999999998 2.2383 1.9531 120
12.648399999999999 2.2363 -0.1493 5
12.6406 2.2344 2.2559 2
12.664100000000001 2.1934 0.1494 215
12.656199999999998 2.1934 0.4468 205
12.6797 2.1973 0.7461 238
12.664100000000001 2.1934 -1.3457 57
12.648399999999999 2.1914 1.0449 170
12.6719 2.1953 -1.0469 121
12.593800000000002 2.1816 1.3388999999999998 32
12.656199999999998 2.1934 -0.7451000000000001 186
12.5547 2.1758 1.6338 66
12.656199999999998 2.1934 -0.4468 155
12.648399999999999 2.1914 1.9512 234
12.648399999999999 2.1914 -0.1492 196
12.648399999999999 2.1914 2.2559 222
12.664100000000001 2.1484 0.1493 170
12.6406 2.1445 0.446 68
12.6719 2.1504 0.7451000000000001 31
12.6719 2.1504 -1.3457 95
12.656199999999998 2.1484 1.0449 231
12.664100000000001 2.1484 -1.0449 132
12.585899999999999 2.1367 1.3369 177
12.664100000000001 2.1484 -0.7445999999999999 187
12.5625 2.1328 1.6338 123
12.6719 2.1504 -0.447 94
12.6328 2.1426 1.9472999999999998 228
12.6406 2.1445 -0.149 150
12.648399999999999 2.1465 2.2559 245
12.6719 2.1074 0.1493 206
12.656199999999998 2.1035 0.44630000000000003 128
12.664100000000001 2.1055 0.7441 138
12.6719 2.1074 -1.3457 91
12.656199999999998 2.1055 1.0449 129
12.656199999999998 2.1055 -1.0449 101
12.5781 2.0918 1.3359 140
12.656199999999998 2.1035 -0.7437 3
12.5703 2.0898 1.6338 210
12.6719 2.1055 -0.4468 15
12.648399999999999 2.1035 1.9482 47
12.6328 2.0996 -0.14880000000000002 82
12.6328 2.0996 2.25 175
12.656199999999998 2.0625 0.149 243
12.6719 2.0645 0.4465 250
12.648399999999999 2.0605 0.7432 51
12.656199999999998 2.0605 -1.3428 103
12.664100000000001 2.0625 1.0439 12
12.664100000000001 2.0625 -1.0449 125
12.585899999999999 2.0488 1.3359 94
12.6406 2.0586 -0.7426999999999999 124
12.5625 2.0469 1.6318000000000001 150
12.6719 2.0645 -0.4468 77
12.656199999999998 2.0605 1.9482 200
12.6406 2.0586 -0.14880000000000002 87
12.6328 2.0586 2.25 251
12.648399999999999 2.0137 0.1489 149
12.656199999999998 2.0137 0.4458 250
12.648399999999999 2.0137 0.7426999999999999 234
12.656199999999998 2.0137 -1.3418 86
12.664100000000001 2.0156 1.0439 33
12.6719 2.0156 -1.0449 51
12.5781 2.002 1.334 229
12.656199999999998 2.0137 -0.7432 2
12.5547 1.9971 1.6299000000000001 189
12.6719 2.0156 -0.44630000000000003 129
12.6406 2.0117 1.9453 162
12.648399999999999 2.0117 -0.1489 198
12.6328 2.0098 2.248 127
12.656199999999998 1.9687999999999999 0.1489 164
12.648399999999999 1.9678 0.44530000000000003 131
12.656199999999998 1.9687999999999999 0.7426999999999999 135
12.656199999999998 1.9687999999999999 -1.3418 69
12.656199999999998 1.9678 1.042 110
12.648399999999999 1.9668 -1.042 89
12.593800000000002 1.959 1.335 232
12.656199999999998 1.9678 -0.7426999999999999 78
12.5547 1.9531 1.6288999999999998 22
12.656199999999998 1.9678 -0.44530000000000003 156
12.6406 1.9668 1.9443000000000001 26
12.648399999999999 1.9668 -0.14880000000000002 196
12.6406 1.9658000000000002 2.248 36
12.6719 1.9247999999999998 0.1489 194
12.6328 1.9199000000000002 0.4446 170
12.664100000000001 1.9247999999999998 0.7426999999999999 135
12.6719 1.9247999999999998 -1.3418 239
12.656199999999998 1.9238 1.042 108
12.648399999999999 1.9228999999999998 -1.042 112
12.5781 1.9121000000000001 1.3330000000000002 177
12.656199999999998 1.9228999999999998 -0.7422 65
12.5625 1.9091999999999998 1.6288999999999998 161
12.664100000000001 1.9247999999999998 -0.4456 169
12.6328 1.9188999999999998 1.9413999999999998 252
12.6406 1.9209 -0.1487 120
12.6328 1.9188999999999998 2.2461 39
12.6719 1.8799000000000001 0.1489 145
12.648399999999999 1.8769999999999998 0.4448 232
12.656199999999998 1.8788999999999998 0.7422 174
12.6719 1.8799000000000001 -1.3418 31
12.656199999999998 1.8779 1.042 47
12.656199999999998 1.8779 -1.041 50
12.5781 1.8662 1.3319999999999999 187
12.648399999999999 1.8769999999999998 -0.7412000000000001 46
12.5625 1.8643 1.6279 229
12.664100000000001 1.8788999999999998 -0.44530000000000003 147
12.6406 1.875 1.9413999999999998 145
12.6328 1.874 -0.1484 252
12.6328 1.875 2.2441 27
12.656199999999998 1.8330000000000002 0.1487 134
12.648399999999999 1.8319999999999999 0.4446 130
12.6406 1.8300999999999998 0.7402 7
12.664100000000001 1.834 -1.3408000000000002 193
12.664100000000001 1.834 1.042 37
12.656199999999998 1.8330000000000002 -1.041 43
12.5625 1.8193000000000001 1.3300999999999998 92
12.6328 1.8300999999999998 -0.7402 9
12.5547 1.8174000000000001 1.626 37
12.6719 1.835 -0.44530000000000003 45
12.6406 1.8311000000000002 1.9413999999999998 2
12.6406 1.8311000000000002 -0.1484 187
12.625 1.8281 2.2422 208
12.648399999999999 1.7871000000000001 0.1484 158
12.656199999999998 1.7871000000000001 0.4443 179
12.648399999999999 1.7871000000000001 0.7406999999999999 69
12.656199999999998 1.7871000000000001 -1.3388999999999998 19
12.656199999999998 1.7871000000000001 1.04 142
12.664100000000001 1.7891 -1.041 238
12.5781 1.7763999999999998 1.3311000000000002 110
12.648399999999999 1.7871000000000001 -0.7406999999999999 76
12.5547 1.7734 1.625 174
12.648399999999999 1.7871000000000001 -0.4443 121
12.6406 1.7861000000000002 1.9404 136
12.6406 1.7861000000000002 -0.1484 19
12.6172 1.7822 2.2402 158
12.648399999999999 1.7441 0.1484 211
12.648399999999999 1.7441 0.44409999999999994 66
12.664100000000001 1.7461000000000002 0.7412000000000001 105
12.656199999999998 1.7450999999999999 -1.3378999999999999 99
12.6328 1.7412 1.0381 55
12.648399999999999 1.7431999999999999 -1.0391 145
12.5781 1.7344 1.3300999999999998 155
12.648399999999999 1.7431999999999999 -0.7402 143
12.5547 1.7313999999999998 1.625 213
12.648399999999999 1.7441 -0.44409999999999994 176
12.6406 1.7422 1.9385 111
12.648399999999999 1.7431999999999999 -0.1484 124
12.625 1.7412 2.2402 55
12.6719 1.7041 0.14859999999999998 195
12.6328 1.6991999999999998 0.4434 210
12.656199999999998 1.7021000000000002 0.7402 171
12.6719 1.7041 -1.3388999999999998 199
12.656199999999998 1.7021000000000002 1.0391 238
12.648399999999999 1.7012 -1.0391 121
12.5703 1.6913999999999998 1.3291 129
12.648399999999999 1.7012 -0.7397 252
12.5625 1.6894999999999998 1.625 235
12.656199999999998 1.7021000000000002 -0.44409999999999994 255
12.625 1.6982 1.9365 85
12.6406 1.7002000000000002 -0.1482 98
12.648399999999999 1.7012 2.2422 56
12.664100000000001 1.6562000000000001 0.1484 39
12.6406 1.6533000000000002 0.4434 7
12.656199999999998 1.6553 0.7402 253
12.6719 1.6572 -1.3388999999999998 111
12.656199999999998 1.6553 1.0391 151
12.6406 1.6522999999999999 -1.0371 95
12.5625 1.6425999999999998 1.3271000000000002 178
12.6328 1.6522999999999999 -0.7387999999999999 131
12.5625 1.6425999999999998 1.624 14
12.6719 1.6572 -0.4446 249
12.6328 1.6522999999999999 1.9365 150
12.6328 1.6513999999999998 -0.1481 230
12.6172 1.6503999999999999 2.2363 234
12.656199999999998 1.6094 0.1483 175
12.656199999999998 1.6094 0.4436 181
12.6406 1.6084 0.7387999999999999 206
12.648399999999999 1.6094 -1.3359 74
12.648399999999999 1.6094 1.0381 30
12.6406 1.6084 -1.0371 206
12.5625 1.5977000000000001 1.3262 50
12.6328 1.6063999999999998 -0.7383 251
12.5547 1.5966999999999998 1.6221 226
12.656199999999998 1.6103999999999998 -0.44380000000000003 49
12.6328 1.6074000000000002 1.9355000000000002 213
12.6328 1.6063999999999998 -0.1479 166
12.6172 1.6055000000000001 2.2363 80
