# .PCD v0.7 - Point Cloud Data file format
VERSION 0.7
FIELDS x y z intensity
SIZE 4 4 4 4
TYPE F F F F
COUNT 1 1 1 1
WIDTH 1245
HEIGHT 1
VIEWPOINT 0 0 0 1 0 0 0
POINTS 1245
DATA ascii
-7.238300000000001 -7.2227 -0.3555 106
-7.9062 -7.890599999999999 1.6963 13
-15.2656 -15.2344 -0.2515 58
-7.8711 -7.855499999999999 1.9541 38
-15.593800000000002 -15.4531 0.2559 50
-6.5312 -6.4727 -1.3955000000000002 30
-10.6875 -10.585899999999999 0.5234000000000001 245
-6.4727 -6.4140999999999995 -1.167 181
-7.9688 -7.894500000000001 0.6498999999999999 250
-6.5273 -6.4688 -0.9614 163
-7.8477 -7.7773 0.8989 106
-6.5859000000000005 -6.5273 -0.7534000000000001 125
-7.9414 -7.8672 1.1699 36
-17.7656 -17.5938 3.2108999999999996 62
-7.2890999999999995 -7.2227 -0.3564 235
-7.9375 -7.8672 1.6972999999999998 55
-15.3594 -15.226600000000001 -0.252 183
-7.800800000000001 -7.730499999999999 1.9287 64
-15.6875 -15.4375 0.2566 1
-6.5 -6.3984000000000005 -1.3838 193
-10.6875 -10.5156 0.522 98
-6.4765999999999995 -6.3711 -1.1631 96
-8.0156 -7.890599999999999 0.6518999999999999 192
-6.5352 -6.4297 -0.9590000000000001 136
-7.988300000000001 -7.863300000000001 0.9120999999999999 162
-6.5898 -6.484400000000001 -0.7515000000000001 129
-7.9609000000000005 -7.832000000000001 1.1689 226
-7.8398 -7.7148 1.4091999999999998 100
-7.3515999999999995 -7.234400000000001 -0.35840000000000005 24
-7.9414 -7.8164 1.6924000000000001 76
-15.468800000000002 -15.218800000000002 -0.2529 83
-7.832000000000001 -7.707000000000001 1.9306999999999999 104
-15.8125 -15.4453 0.2576 219
-6.4961 -6.3477 -1.3788999999999998 17
-10.75 -10.5078 0.5229 220
-6.4727 -6.324199999999999 -1.1582 22
-8.0234 -7.8438 0.6504000000000001 247
-6.542999999999999 -6.394500000000001 -0.9570000000000001 245
-8.0625 -7.8789 0.917 142
-6.5938 -6.4414 -0.7490000000000001 86
-7.9375 -7.7578 1.1621 118
-7.9375 -7.7578 1.4228999999999998 243
-8.0156 -7.8359000000000005 1.7031 76
-15.5625 -15.2031 -0.2534 79
-7.984400000000001 -7.800800000000001 1.9609 147
-15.906199999999998 -15.4375 0.2583 125
-6.5 -6.3086 -1.375 24
-10.8594 -10.539100000000001 0.5268999999999999 98
-6.4688 -6.2773 -1.1543 248
-8.0234 -7.7852 0.6475 195
-6.5312 -6.3359000000000005 -0.9517 245
-8.1172 -7.875 0.9198999999999999 225
-6.605499999999999 -6.4102 -0.748 182
-7.9727 -7.738300000000001 1.1631 7
-7.9375 -7.703099999999999 1.4169999999999998 243
-7.453099999999999 -7.230499999999999 -0.3608 87
-7.9727 -7.734400000000001 1.6875 65
-15.6094 -15.148399999999999 -0.2534 126
-8.0234 -7.7812 1.9628999999999999 157
-16.0469 -15.468800000000002 0.25980000000000003 84
-6.5 -6.265599999999999 -1.3700999999999999 18
-16.2188 -15.625 0.7847 137
-6.4727 -6.238300000000001 -1.1514 202
-8.0469 -7.7539 0.6475 87
-6.5312 -6.292999999999999 -0.9487000000000001 119
-8.2266 -7.9297 0.9301999999999999 192
-8.0625 -7.769500000000001 1.1719 186
-7.9648 -7.675800000000001 1.4180000000000001 171
-7.5039 -7.234400000000001 -0.36229999999999996 213
-7.9688 -7.675800000000001 1.6806999999999999 23
-15.6797 -15.1094 -0.25370000000000004 86
-8.0938 -7.800800000000001 1.9746000000000001 157
-6.488300000000001 -6.2109000000000005 -1.3633000000000002 188
-16.2812 -15.5781 0.7852 4
-6.484400000000001 -6.203099999999999 -1.1484 199
-8.1406 -7.7852 0.6528 38
-6.542999999999999 -6.261699999999999 -0.9473 177
-8.2344 -7.8789 0.9272 97
-11.835899999999999 -11.3281 1.7178 60
-7.9961 -7.6484000000000005 1.4180000000000001 74
-7.578099999999999 -7.25 -0.36450000000000005 211
-8.0156 -7.671900000000001 1.6855000000000002 183
-15.968800000000002 -15.281199999999998 -0.2576 166
-8.0781 -7.734400000000001 1.9647999999999999 160
-6.4961 -6.175800000000001 -1.3603999999999998 62
-16.3594 -15.539100000000001 0.7861 7
-6.480499999999999 -6.1562 -1.1445 104
-8.1641 -7.7578 0.6528 130
-6.550800000000001 -6.2227 -0.9448000000000001 240
-9.7891 -9.3047 1.0996 149
-8.125 -7.7188 1.1729 20
-8.0156 -7.6172 1.4169999999999998 249
-7.6523 -7.269500000000001 -0.3667 211
-8.1328 -7.7265999999999995 1.7041 165
-16.1094 -15.3047 -0.259 113
-8.0938 -7.6875 1.9609 108
-6.511699999999999 -6.1484000000000005 -1.3594 69
-16.3906 -15.476600000000001 0.7852 199
-6.4727 -6.109400000000001 -1.1396 54
-16.4062 -15.4844 1.3096 78
-6.5625 -6.1953 -0.9438 20
-9.8203 -9.2734 1.0996 73
-8.1094 -7.6523 1.167 85
-8.0781 -7.6289 1.4238 158
-16.3438 -15.4297 -0.7831999999999999 204
-8.0938 -7.640599999999999 1.6904 216
-12.9219 -12.2031 -0.2069 31
-8.1797 -7.7227 1.9766 234
-6.4961 -6.0938 -1.3516 148
-16.4688 -15.4453 0.7866 151
-6.4765999999999995 -6.074199999999999 -1.1367 176
-8.4219 -7.894500000000001 0.6689 249
-6.5664 -6.1562 -0.9414 51
-9.8281 -9.2109 1.0967 29
-6.796900000000001 -6.375 -0.7573000000000001 28
-8.125 -7.6172 1.166 192
-8.0156 -7.511699999999999 1.4072 25
-16.4375 -15.4219 -0.7856000000000001 211
-8.1484 -7.640599999999999 1.6963 190
-16.4531 -15.4297 -0.26289999999999997 36
-8.1641 -7.6562 1.9658000000000002 51
-6.515599999999999 -6.0625 -1.3506 24
-16.5781 -15.4297 0.7890999999999999 66
-6.488300000000001 -6.0390999999999995 -1.1348 212
-8.4219 -7.8398 0.667 242
-6.574199999999999 -6.1172 -0.9390000000000001 19
-9.7188 -9.0469 1.0811 149
-6.894500000000001 -6.4140999999999995 -0.7656000000000001 252
-8.1094 -7.542999999999999 1.1592 91
-7.949199999999999 -7.394500000000001 1.3906 119
-16.5469 -15.398399999999999 -0.7876000000000001 91
-8.1953 -7.625 1.7002000000000002 226
-16.5469 -15.3906 -0.2632 70
-8.2656 -7.6875 1.9824000000000002 218
-6.4961 -6.0039 -1.3418 232
-16.7031 -15.4297 0.7925 6
-6.5039 -6.0078 -1.1338 113
-16.75 -15.4844 1.3241999999999998 46
-6.609400000000001 -6.105499999999999 -0.9414 188
-9.75 -9.0078 1.0801 223
-6.9023 -6.3789 -0.7642 55
-8.1328 -7.515599999999999 1.1592 88
-8.0 -7.394500000000001 1.3955000000000002 211
-16.5938 -15.343800000000002 -0.7876000000000001 252
-8.1328 -7.515599999999999 1.6816 238
-16.6875 -15.4219 -0.26489999999999997 133
-8.2891 -7.6602 1.9834 154
-16.875 -15.4844 0.2668 87
-6.5352 -5.9961 -1.3457 101
-16.8125 -15.4219 0.7944 173
-6.5039 -5.9688 -1.1299 69
-16.8594 -15.468800000000002 1.3281 73
-6.6015999999999995 -6.0586 -0.937 20
-9.7734 -8.9688 1.0791 174
-8.1719 -7.5 1.1611 156
-8.0 -7.3398 1.3916 70
-16.7656 -15.3906 -0.7929999999999999 203
-8.1406 -7.4688 1.6777000000000002 127
-16.7969 -15.414100000000001 -0.2656 39
-8.3047 -7.6172 1.9794999999999998 3
-6.5 -5.925800000000001 -1.335 107
-16.9219 -15.4219 0.7979 13
-6.511699999999999 -5.9336 -1.1279000000000001 224
-12.8125 -11.6719 1.0059 187
-6.625 -6.0352 -0.9375 189
-9.8125 -8.9453 1.0811 24
-8.5859 -7.828099999999999 1.2168 61
-8.0703 -7.355499999999999 1.3994 22
-16.8906 -15.398399999999999 -0.7964 159
-8.1875 -7.457000000000001 1.6816 42
-12.773399999999999 -11.6406 -0.20120000000000002 130
-8.2969 -7.5625 1.9727000000000001 157
-12.851600000000001 -11.6328 0.2018 119
-6.511699999999999 -5.890599999999999 -1.3319999999999999 147
-12.8203 -11.601600000000001 0.6021 32
-6.5234000000000005 -5.9023 -1.126 166
-12.8047 -11.585899999999999 1.002 97
-6.699199999999999 -6.0664 -0.9453 92
-10.0234 -9.0703 1.1006 219
-8.7031 -7.875 1.2285 193
-8.1016 -7.3359000000000005 1.4003999999999999 39
-12.8125 -11.601600000000001 -0.6021 193
-8.25 -7.4688 1.6904 87
-12.789100000000001 -11.5781 -0.20079999999999998 123
-8.25 -7.4688 1.9550999999999998 49
-12.8047 -11.5156 0.2004 170
-6.5078 -5.8515999999999995 -1.3281 213
-12.8125 -11.523399999999999 0.6001 40
-6.546900000000001 -5.886699999999999 -1.127 58
-12.8047 -11.5078 0.9990000000000001 211
-6.6484000000000005 -5.980499999999999 -0.9355 33
-9.9297 -8.9297 1.0869 110
-8.25 -7.4140999999999995 1.1611 141
-8.1094 -7.292999999999999 1.3975 234
-12.8047 -11.5078 -0.5996 72
-8.2188 -7.386699999999999 1.6777000000000002 70
-12.789100000000001 -11.5 -0.2002 96
-8.3438 -7.5 1.9707 66
-12.851600000000001 -11.468800000000002 0.2004 30
-6.5234000000000005 -5.824199999999999 -1.3271000000000002 253
-12.8125 -11.4297 0.5977 197
-6.5625 -5.859400000000001 -1.126 82
-12.8047 -11.4297 0.9956 97
-6.6875 -5.9688 -0.9375 38
-9.7266 -8.6797 1.0615 56
-8.2812 -7.390599999999999 1.1621 157
-8.1562 -7.2773 1.4003999999999999 80
-12.8047 -11.4297 -0.5977 48
-8.2422 -7.355499999999999 1.6777000000000002 104
-12.7969 -11.4219 -0.1997 231
-8.4766 -7.5625 1.9950999999999999 183
-12.851600000000001 -11.3906 0.1998 254
-6.542999999999999 -5.796900000000001 -1.3262 11
-12.789100000000001 -11.335899999999999 0.5952000000000001 152
-6.574199999999999 -5.828099999999999 -1.125 11
-12.7969 -11.343800000000002 0.9922 97
-6.730499999999999 -5.9648 -0.9404 112
-9.7031 -8.5938 1.0547 57
-8.6562 -7.671900000000001 1.2109 171
-8.2578 -7.3203 1.4141 38
-12.7969 -11.343800000000002 -0.5957 211
-8.2734 -7.332000000000001 1.6787 56
-12.781199999999998 -11.3281 -0.1989 8
-12.781199999999998 -11.3281 3.0039 198
-12.8125 -11.281199999999998 0.19870000000000002 253
-6.5625 -5.7773 -1.3271000000000002 0
-12.789100000000001 -11.2578 0.5932999999999999 39
-6.574199999999999 -5.7852 -1.1211 208
-12.7969 -11.2578 0.9887999999999999 21
-6.7148 -5.9102 -0.9355 101
-9.7422 -8.5703 1.0566 137
-8.6953 -7.6562 1.2129 82
-8.3125 -7.3164 1.4188999999999998 11
-12.8047 -11.273399999999999 -0.5942000000000001 93
-8.3516 -7.3477 1.6894999999999998 22
-12.773399999999999 -11.2422 -0.1981 64
-12.773399999999999 -11.2422 2.9922000000000004 235
-12.835899999999999 -11.218800000000002 0.1985 197
-6.5859000000000005 -5.7539 -1.3271000000000002 182
-12.8047 -11.1875 0.5918 209
-6.5977 -5.765599999999999 -1.1211 130
-12.789100000000001 -11.1797 0.9858 230
-6.6875 -5.8438 -0.9287000000000001 173
-9.7812 -8.5469 1.0566 54
-8.8047 -7.699199999999999 1.2246 96
-10.3906 -9.0781 1.7694999999999999 130
-12.8047 -11.1875 -0.5918 59
-10.2266 -8.9375 2.0645 68
-12.781199999999998 -11.164100000000001 -0.1975 91
-10.710899999999999 -9.3594 2.502 75
-12.8125 -11.1172 0.1974 148
-6.5898 -5.7188 -1.3241999999999998 18
-12.789100000000001 -11.101600000000001 0.5898 208
-6.7539 -5.859400000000001 -1.1445 14
-12.781199999999998 -11.093800000000002 0.9823999999999999 147
-6.699199999999999 -5.8125 -0.9277 210
-12.7969 -11.101600000000001 1.3799000000000001 11
-8.75 -7.5898 1.2129 11
-10.3828 -9.0078 1.7627000000000002 150
-12.8047 -11.1094 -0.5903 117
-8.3516 -7.25 1.6806999999999999 17
-12.781199999999998 -11.093800000000002 -0.19699999999999998 90
-10.1172 -8.7812 2.3555 199
-12.8125 -11.039100000000001 0.1968 179
-6.613300000000001 -5.699199999999999 -1.3252000000000002 53
-12.8047 -11.031199999999998 0.5884 209
-12.7969 -11.023399999999999 0.98 72
-6.7188 -5.7890999999999995 -0.9277 172
-9.8203 -8.4609 1.0556999999999999 65
-8.8203 -7.6015999999999995 1.2197 138
-11.101600000000001 -9.5703 1.8799000000000001 195
-12.7969 -11.023399999999999 -0.5879 5
-8.3594 -7.203099999999999 1.6768 223
-12.781199999999998 -11.0156 -0.19640000000000002 183
-10.710899999999999 -9.2344 2.4863 28
-12.8203 -10.968800000000002 0.19640000000000002 21
-6.6328 -5.671900000000001 -1.3241999999999998 3
-12.781199999999998 -10.9375 0.5859000000000001 217
-12.789100000000001 -10.9453 0.9771 200
-6.7461 -5.7734000000000005 -0.9287000000000001 235
-12.789100000000001 -10.9453 1.3721 14
-8.8828 -7.5977 1.2236 55
-7.8711 -6.734400000000001 -0.6001 233
-11.5 -9.8438 1.9413999999999998 202
-12.7969 -10.9453 -0.5864 158
-12.7578 -10.914100000000001 2.5547 158
-12.773399999999999 -10.9297 -0.1957 232
-10.8594 -9.2969 2.5137 235
-12.8125 -10.8828 0.1957 181
-6.6640999999999995 -5.6602 -1.3271000000000002 218
-12.781199999999998 -10.8594 0.584 155
-12.789100000000001 -10.8672 0.9736 232
-6.796900000000001 -5.7734000000000005 -0.9326000000000001 188
-12.8047 -10.875 1.3691 19
-7.4062 -6.2890999999999995 -0.79 84
-9.8906 -8.4062 1.3603999999999998 201
-7.8984000000000005 -6.7109000000000005 -0.6006 149
-11.5156 -9.7812 1.9375 99
-12.789100000000001 -10.8672 -0.5845 21
-10.664100000000001 -9.0625 2.127 162
-12.773399999999999 -10.851600000000001 -0.19510000000000002 115
-10.9453 -9.2969 2.5234 250
-12.7969 -10.7969 0.1948 141
-6.6914 -5.644500000000001 -1.3281 154
-12.789100000000001 -10.789100000000001 0.5825 146
-6.8789 -5.800800000000001 -1.1523 102
-12.773399999999999 -10.773399999999999 0.9697 138
-6.8438 -5.7734000000000005 -0.9365000000000001 27
-12.7969 -10.7969 1.3643 3
-9.8984 -8.3516 1.3563999999999998 145
-12.781199999999998 -10.781199999999998 -0.9702 229
-11.5547 -9.75 1.9394999999999998 111
-12.8047 -10.7969 -0.583 141
-12.7578 -10.7578 2.5371 226
-12.773399999999999 -10.773399999999999 -0.1946 56
-9.8672 -8.3281 2.2695 213
-12.8125 -10.726600000000001 0.1945 87
-6.707000000000001 -5.6172 -1.3281 55
-12.789100000000001 -10.710899999999999 0.5806 254
-6.7812 -5.6797 -1.1318000000000001 179
-12.781199999999998 -10.7031 0.9673 194
-6.875 -5.761699999999999 -0.9384999999999999 119
-12.781199999999998 -10.7031 1.3584 7
-9.9609 -8.3438 1.3603999999999998 37
-12.7656 -10.6875 -0.9662999999999999 129
-12.7578 -10.6797 2.1348 126
-12.789100000000001 -10.710899999999999 -0.5806 29
-12.7656 -10.6953 2.5332 62
-12.7656 -10.6953 -0.1938 160
-9.8906 -8.2812 2.2676 222
-12.7969 -10.648399999999999 0.1938 237
-6.7265999999999995 -5.5938 -1.3281 28
-12.789100000000001 -10.6328 0.5791 197
-12.781199999999998 -10.6328 0.9648 184
-6.9062 -5.7422 -0.9395 9
-12.781199999999998 -10.6328 1.3544999999999998 198
-10.0391 -8.3516 1.3672 207
-12.773399999999999 -10.6172 -0.9639 185
-12.7578 -10.6094 2.1289 72
-12.7656 -10.6172 -0.5781000000000001 108
-12.7656 -10.6172 2.5254 119
-12.773399999999999 -10.625 -0.1934 192
-9.9297 -8.2578 2.2695 119
-12.8047 -10.5703 0.1932 121
-6.75 -5.574199999999999 -1.3281 194
-12.773399999999999 -10.5469 0.5767 203
-6.8164 -5.6289 -1.1318000000000001 178
-12.773399999999999 -10.5469 0.9614 175
-6.9414 -5.734400000000001 -0.9419 202
-12.773399999999999 -10.5469 1.3496000000000001 139
-7.5586 -6.2422 -0.7968999999999999 119
-12.6875 -10.476600000000001 1.7246000000000001 154
-12.773399999999999 -10.5469 -0.9614 157
-12.7578 -10.539100000000001 2.123 176
-12.7656 -10.5469 -0.5767 61
-12.7656 -10.539100000000001 2.5176 214
-12.773399999999999 -10.5469 -0.19269999999999998 198
-9.9297 -8.2031 2.2637 201
-12.8047 -10.5 0.19269999999999998 39
-6.792999999999999 -5.5703 -1.3330000000000002 156
-12.7656 -10.468800000000002 0.5747 5
-6.824199999999999 -5.5938 -1.1299 156
-12.773399999999999 -10.468800000000002 0.958 180
-6.9688 -5.7148 -0.9429000000000001 108
-12.781199999999998 -10.4844 1.3466999999999998 231
-7.5664 -6.203099999999999 -0.7954000000000001 127
-12.6797 -10.398399999999999 1.7197 208
-12.7656 -10.468800000000002 -0.9575 35
-12.7578 -10.460899999999999 2.1172 56
-12.781199999999998 -10.476600000000001 -0.5752 59
-11.085899999999999 -9.0938 2.1797 83
-12.7578 -10.460899999999999 -0.19210000000000002 130
-9.9375 -8.1484 2.2598 139
-12.8047 -10.4219 0.19210000000000002 82
-6.8203 -5.550800000000001 -1.335 8
-12.773399999999999 -10.398399999999999 0.5732 53
-6.8398 -5.5703 -1.1289 223
-12.7578 -10.3906 0.9545999999999999 24
-7.0 -5.699199999999999 -0.9438 135
-12.773399999999999 -10.398399999999999 1.3418 149
-7.613300000000001 -6.1953 -0.7979 178
-12.6953 -10.335899999999999 1.7158000000000002 176
-12.7578 -10.3906 -0.9545999999999999 116
-12.7578 -10.3828 2.1113 179
-12.773399999999999 -10.398399999999999 -0.5737 209
-11.1719 -9.0938 2.1895 168
-12.7578 -10.3828 -0.19140000000000001 184
-9.9062 -8.0703 2.2461 236
-12.781199999999998 -10.3281 0.1913 201
-6.8398 -5.5273 -1.335 227
-12.781199999999998 -10.3281 0.5722999999999999 21
-6.8789 -5.5586 -1.1318000000000001 212
-12.7656 -10.3203 0.9526 13
-7.0273 -5.6797 -0.9453 209
-12.7578 -10.3125 1.3359 19
-7.6602 -6.1914 -0.8008 39
-12.6797 -10.25 1.709 203
-12.7656 -10.3125 -0.9521 37
-12.7422 -10.3047 2.1016 125
-12.773399999999999 -10.3281 -0.5718 110
-11.468800000000002 -9.2734 2.2422 199
-12.7578 -10.3125 -0.1909 239
-10.0156 -8.0938 2.2637 126
-12.7969 -10.273399999999999 0.191 245
-6.863300000000001 -5.5078 -1.335 181
-12.7656 -10.25 0.5698 206
-6.925800000000001 -5.5586 -1.1367 100
-12.7578 -10.2422 0.9492 195
-7.0703 -5.675800000000001 -0.9481999999999999 27
-12.75 -10.2344 1.3319999999999999 98
-7.6953 -6.175800000000001 -0.8022 9
-12.6797 -10.1797 1.7041 182
-12.7656 -10.2422 -0.9497 44
-12.75 -10.2344 2.0977 255
-12.7656 -10.25 -0.5698 166
-11.289100000000001 -9.0547 2.1992 12
-12.7578 -10.2422 -0.19039999999999999 95
-11.101600000000001 -8.9062 2.502 59
-12.7969 -10.2031 0.19039999999999999 135
-6.9023 -5.5039 -1.3388999999999998 195
-12.7578 -10.1719 0.5679 132
-6.949199999999999 -5.5390999999999995 -1.1377 158
-12.7578 -10.1719 0.9468000000000001 38
-7.125 -5.6797 -0.9531000000000001 65
-12.7578 -10.1719 1.3291 116
-7.765599999999999 -6.1953 -0.8076000000000001 209
-12.656199999999998 -10.0938 1.6972999999999998 21
-12.7422 -10.1641 -0.9458 78
-12.7422 -10.1562 2.0898 66
-12.773399999999999 -10.1875 -0.5688 13
-10.9297 -8.7188 2.125 138
-12.75 -10.1719 -0.1898 92
-12.7656 -10.1797 2.8711 19
-12.7656 -10.1094 0.18960000000000002 151
-6.9375 -5.4961 -1.3428 60
-12.75 -10.1016 0.5664 33
-6.984400000000001 -5.5312 -1.1406 81
-12.7578 -10.1016 0.9438 169
-7.1640999999999995 -5.675800000000001 -0.9561 192
-12.7578 -10.1016 1.3252000000000002 0
-7.832000000000001 -6.203099999999999 -0.8125 169
-12.656199999999998 -10.0234 1.6924000000000001 44
-12.710899999999999 -10.0625 -0.9404 107
-12.7422 -10.0938 2.0859 30
-12.773399999999999 -10.1172 -0.5669 23
-11.343800000000002 -8.9844 2.1992 245
-12.6953 -10.0547 -0.1885 94
-11.101600000000001 -8.7969 2.4902 133
-12.7578 -10.0234 0.1888 237
-12.781199999999998 -10.0469 0.5659000000000001 186
-7.0234000000000005 -5.519500000000001 -1.1436 195
-12.7969 -10.0547 0.9443 247
-7.1953 -5.6562 -0.9570000000000001 101
-12.7578 -10.0234 1.3213 94
-7.863300000000001 -6.1797 -0.8134999999999999 59
-12.6719 -9.9531 1.6885 27
-12.710899999999999 -9.9844 -0.938 187
-12.7344 -10.0078 2.0781 199
-12.7344 -10.0078 -0.564 255
-10.9531 -8.6094 2.1172 45
-12.75 -10.0234 -0.1887 250
-11.0469 -8.6797 2.4707 178
-12.8203 -10.0 0.1892 214
-12.843800000000002 -10.0234 0.5674 179
-7.074199999999999 -5.519500000000001 -1.1484 17
-12.835899999999999 -10.0156 0.9443 164
-7.234400000000001 -5.644500000000001 -0.96 136
-12.7344 -9.9375 1.3154 29
-7.9023 -6.1640999999999995 -0.8149 106
-12.656199999999998 -9.875 1.6825999999999999 194
-12.710899999999999 -9.9219 -0.9355 18
-12.726600000000001 -9.9297 2.0703 161
-12.8125 -9.9922 -0.5654 100
-11.5781 -9.0312 2.2324 45
-12.781199999999998 -9.9688 -0.1886 116
-11.156199999999998 -8.7031 2.4863 144
-12.851600000000001 -9.9531 0.1892 7
-12.8594 -9.9531 0.5659000000000001 175
-7.1211 -5.515599999999999 -1.1533 0
-12.875 -9.9688 0.9448000000000001 55
-7.2734000000000005 -5.6328 -0.9623999999999999 162
-12.7422 -9.8672 1.3125 103
-7.9102 -6.125 -0.8134999999999999 101
-12.664100000000001 -9.8047 1.6787 176
-12.7344 -9.8594 -0.9346 248
-12.7344 -9.8594 2.0664 161
-12.843800000000002 -9.9453 -0.5654 191
-12.843800000000002 -9.9453 2.4707 145
-12.8672 -9.9609 -0.1893 189
-11.1406 -8.625 2.4766 130
-12.898399999999999 -9.9141 0.1893 105
-12.914100000000001 -9.9219 0.5669 186
-7.1640999999999995 -5.5078 -1.1572 61
-12.9844 -9.9844 0.9501999999999999 250
-7.328099999999999 -5.6328 -0.9668000000000001 35
-12.7578 -9.8125 1.3115 63
-12.75 -9.8047 -1.3105000000000002 116
-12.648399999999999 -9.7266 1.6728999999999998 39
-12.7344 -9.7891 -0.9320999999999999 180
-12.7344 -9.7891 2.0605 139
-12.898399999999999 -9.9141 -0.5664 105
-12.835899999999999 -9.8672 2.4629 175
-12.835899999999999 -9.8672 -0.1885 4
-11.2031 -8.6094 2.4844 64
-12.875 -9.8359 0.1886 169
-13.023399999999999 -9.9453 0.5703 82
-7.1953 -5.4961 -1.1592 235
-13.039100000000001 -9.9609 0.9521 124
-7.386699999999999 -5.640599999999999 -0.9722 232
-12.7578 -9.7422 1.3075999999999999 147
-12.7578 -9.7422 -1.3075999999999999 149
-12.6406 -9.6562 1.6669999999999998 93
-12.726600000000001 -9.7188 -0.9292 75
-12.7344 -9.7266 2.0566 122
-12.976600000000001 -9.9062 -0.5684 5
-12.7969 -9.7734 2.4492 172
-12.968800000000002 -9.9062 -0.18989999999999999 64
-12.9922 -9.9219 2.875 128
-12.8906 -9.7734 0.1882 16
-13.0469 -9.8984 0.5698 99
-13.0469 -9.8984 0.9501999999999999 8
-7.4336 -5.636699999999999 -0.9761 250
-12.7344 -9.6562 1.3018 47
-12.7578 -9.6797 -1.3047 93
-12.6406 -9.5859 1.6621000000000001 128
-12.718800000000002 -9.6484 -0.9262999999999999 166
-12.726600000000001 -9.6484 2.0488 137
-13.023399999999999 -9.875 -0.5688 205
-10.875 -8.25 2.0762 118
-12.898399999999999 -9.7891 -0.1885 88
-11.3125 -8.5781 2.4961 157
-12.8047 -9.6328 0.1864 226
-13.085899999999999 -9.8438 0.5698 81
-13.0469 -9.8203 0.9473 95
-7.484400000000001 -5.6328 -0.98 167
-12.7422 -9.5938 1.2988 73
-12.75 -9.5938 -1.2997999999999998 9
-12.6406 -9.5156 1.6582 129
-12.7344 -9.5859 -0.9248000000000001 95
-12.726600000000001 -9.5703 2.043 169
-12.976600000000001 -9.7656 -0.5654 227
-12.781199999999998 -9.6172 2.4336 55
-12.8828 -9.6953 -0.18760000000000002 102
-10.9375 -8.2266 2.4062 248
-12.8672 -9.6094 0.1869 215
-13.0547 -9.75 0.5669 198
-7.3515999999999995 -5.4922 -1.1748 45
-13.0547 -9.75 0.9453 3
-7.5390999999999995 -5.6289 -0.9843999999999999 162
-12.7422 -9.5234 1.2959 249
-12.75 -9.5234 -1.2959 114
-12.656199999999998 -9.4531 1.6562000000000001 15
-12.7344 -9.5078 -0.9218999999999999 53
-12.718800000000002 -9.5 2.0371 201
-13.039100000000001 -9.7422 -0.5669 54
-12.773399999999999 -9.5391 2.4238 211
-13.023399999999999 -9.7266 -0.1892 203
-10.968800000000002 -8.1953 2.4062 6
-12.851600000000001 -9.5391 0.1863 93
-7.449199999999999 -5.5273 -1.4082 8
-13.0469 -9.6797 0.5654 155
-7.4765999999999995 -5.546900000000001 -1.1914 49
-13.0625 -9.6875 0.9434 45
-7.613300000000001 -5.6484000000000005 -0.9917 171
-12.7422 -9.4531 1.2930000000000001 66
-12.7422 -9.4531 -1.2919999999999998 44
-12.648399999999999 -9.3828 1.6503999999999999 29
-12.726600000000001 -9.4453 -0.9194 220
-12.726600000000001 -9.4453 2.0332 134
-12.9922 -9.6406 -0.563 210
-12.7422 -9.4531 2.4121 239
-13.0 -9.6406 -0.1884 95
-12.9922 -9.6328 2.8438 150
-12.8828 -9.4922 0.1862 164
-7.4375 -5.480499999999999 -1.4022999999999999 70
-13.0781 -9.6328 0.5654 165
-7.4961 -5.5234000000000005 -1.1924 148
-13.0703 -9.6328 0.9423999999999999 181
-7.6875 -5.6640999999999995 -0.9990000000000001 111
-12.7344 -9.3828 1.2881 167
-12.7344 -9.3828 -1.2891 220
-12.6406 -9.3125 1.6455000000000002 218
-12.726600000000001 -9.375 -0.9175 78
-12.718800000000002 -9.375 2.0273 94
-13.0625 -9.6172 -0.5645 253
-11.1328 -8.2031 2.1016 99
-13.039100000000001 -9.6016 -0.1885 50
-12.9844 -9.5703 2.8379000000000003 251
-12.835899999999999 -9.3906 0.18510000000000001 247
-7.5 -5.484400000000001 -1.4102000000000001 151
-13.0625 -9.5469 0.563 61
-7.5703 -5.5352 -1.2012 146
-13.0625 -9.5469 0.9390000000000001 28
-7.796900000000001 -5.699199999999999 -1.0107 72
-12.7422 -9.3203 1.2861000000000002 104
-12.75 -9.3203 -1.2861000000000002 97
-12.625 -9.2344 1.6396000000000002 124
-12.726600000000001 -9.3047 -0.9146 1
-12.718800000000002 -9.2969 2.0215 108
-12.968800000000002 -9.4844 -0.5590999999999999 94
-12.6094 -9.2188 2.375 244
-12.968800000000002 -9.4844 -0.187 83
-12.976600000000001 -9.4844 2.8262 136
-12.906199999999998 -9.3672 0.1857 167
-7.5586 -5.484400000000001 -1.4169999999999998 2
-13.0547 -9.4766 0.5615 252
-7.6172 -5.5273 -1.2051 173
-13.0547 -9.4766 0.9359999999999999 108
-12.718800000000002 -9.2344 1.2803 72
-12.75 -9.2578 -1.2832 200
-12.648399999999999 -9.1797 1.6377000000000002 28
-12.726600000000001 -9.2344 -0.9120999999999999 94
-12.710899999999999 -9.2266 2.0137 159
-13.031199999999998 -9.4531 -0.5605 4
-12.625 -9.1641 2.3711 215
-13.023399999999999 -9.4531 -0.18739999999999998 20
-12.835899999999999 -9.3125 2.7891000000000004 42
-12.875 -9.2812 0.18469999999999998 122
-7.625 -5.4961 -1.4268 253
-13.0547 -9.4062 0.5600999999999999 171
-7.6914 -5.5390999999999995 -1.2139 60
-13.0625 -9.4141 0.9340999999999999 72
-12.7344 -9.1719 1.2783 136
-12.7344 -9.1719 -1.2783 102
-12.6406 -9.1094 1.6328 2
-12.7422 -9.1797 -0.9111 217
-12.718800000000002 -9.1641 2.0117 19
-13.0 -9.3672 -0.5576 132
-12.601600000000001 -9.0781 2.3613 149
-12.960899999999999 -9.3359 -0.1859 66
-12.8047 -9.2266 2.7754000000000003 101
-12.960899999999999 -9.2656 0.18539999999999998 95
-7.7422 -5.5390999999999995 -1.4453 246
-12.960899999999999 -9.2656 0.5547 72
-12.843800000000002 -9.1875 0.9159999999999999 203
-12.726600000000001 -9.1016 1.2744 88
-12.7422 -9.1094 -1.2754 221
-12.656199999999998 -9.0547 1.6309 237
-12.7344 -9.1016 -0.9081999999999999 191
-12.718800000000002 -9.0938 2.0059 75
-12.9219 -9.2422 -0.5527000000000001 134
-12.593800000000002 -9.0078 2.3535 114
-13.0 -9.2969 -0.18600000000000003 204
-12.8047 -9.1562 2.7695 41
-12.8672 -9.1328 0.18359999999999999 173
-12.8125 -9.0938 0.5468999999999999 14
-12.8125 -9.0938 0.9116 213
-12.75 -9.0469 1.2734 107
-12.7422 -9.0391 -1.2725 86
-12.6328 -8.9688 1.624 237
-12.718800000000002 -9.0312 -0.9048 197
-12.718800000000002 -9.0234 2.0 133
-12.8672 -9.1328 -0.5493 151
-12.601600000000001 -8.9453 2.3496 218
-12.7578 -9.0547 -0.182 178
-12.8047 -9.0859 2.7617000000000003 145
-12.7969 -9.0156 0.18230000000000002 237
-12.8203 -9.0312 0.5459 234
-12.8125 -9.0234 0.9092 44
-12.7344 -8.9688 1.2686 55
-12.75 -8.9844 -1.2705 134
-12.648399999999999 -8.9141 1.6221 193
-12.710899999999999 -8.9531 -0.9023 97
-12.710899999999999 -8.9531 1.9941 77
-12.8047 -9.0234 -0.5454 103
-12.6094 -8.8828 2.3457 200
-12.7969 -9.0156 -0.1821 112
-12.7969 -9.0156 2.7539 54
-12.8203 -8.9609 0.182 61
-12.8281 -8.9688 0.5444 67
-12.8281 -8.9688 0.9081999999999999 118
-12.726600000000001 -8.8984 1.2646 99
-12.7422 -8.9062 -1.2666 2
-12.6406 -8.8359 1.6162 43
-12.726600000000001 -8.8984 -0.9009 55
-12.7031 -8.8828 1.9883000000000002 40
-12.8203 -8.9688 -0.5444 237
-12.6094 -8.8125 2.3398 20
-12.781199999999998 -8.9375 -0.1815 139
-12.9453 -9.0469 2.7773000000000003 169
-12.851600000000001 -8.9141 0.182 28
-6.2578 -4.3438 -1.1553 219
-12.835899999999999 -8.9062 0.5439 23
-12.906199999999998 -8.9531 0.9111 204
-12.726600000000001 -8.8359 1.2617 210
-12.7344 -8.8359 -1.2627 103
-12.664100000000001 -8.7891 1.6152000000000002 62
-12.718800000000002 -8.8281 -0.8984000000000001 248
-12.7031 -8.8125 1.9834 51
-12.7969 -8.8828 -0.542 154
-12.601600000000001 -8.75 2.332 84
-12.843800000000002 -8.9141 -0.1819 117
-13.0 -9.0234 2.7812 62
-6.269500000000001 -4.3203 -1.335 200
-12.906199999999998 -8.8906 0.18239999999999998 132
-6.269500000000001 -4.3203 -1.1543 191
-12.9922 -8.9531 0.5493 214
-13.0469 -8.9922 0.9189 51
-12.718800000000002 -8.7656 1.2578 90
-12.726600000000001 -8.7656 -1.2588 232
-12.625 -8.7031 1.6074000000000002 169
-12.718800000000002 -8.7656 -0.8959999999999999 218
-12.7031 -8.75 1.9785 0
-12.8828 -8.875 -0.5444 135
-12.601600000000001 -8.6797 2.3262 48
-12.8828 -8.875 -0.182 196
-12.9922 -8.9531 2.7754000000000003 157
-6.2578 -4.2812 -1.3291 67
-12.9375 -8.8516 0.18239999999999998 172
-6.265599999999999 -4.2852 -1.1514 187
-13.0 -8.8984 0.5483 51
-6.296900000000001 -4.3086 -0.9761 136
-13.0156 -8.9062 0.915 181
-12.726600000000001 -8.7109 1.2559 57
-12.726600000000001 -8.7109 -1.2559 92
-12.6094 -8.625 1.6006 78
-12.710899999999999 -8.6953 -0.8936 252
-12.7031 -8.6953 1.9746000000000001 139
-12.7969 -8.7578 -0.5396 37
-12.593800000000002 -8.6172 2.3203 181
-12.835899999999999 -8.7812 -0.18100000000000002 31
-12.9922 -8.8906 2.7695 30
-6.2461 -4.2383 -1.3232 165
-12.976600000000001 -8.8047 0.1825 47
-6.269500000000001 -4.2539 -1.1484 203
-13.0156 -8.8281 0.5474 197
-6.2852 -4.2656 -0.9717 61
-13.0156 -8.8281 0.9126000000000001 155
-12.718800000000002 -8.6328 1.252 136
-6.4609000000000005 -4.3867 -0.6343 255
-12.6172 -8.5625 1.5977000000000001 184
-12.718800000000002 -8.6328 -0.8916 43
-12.7031 -8.6172 1.9697 74
-12.9375 -8.7812 -0.5444 41
-12.6094 -8.5547 2.3164 243
-12.898399999999999 -8.75 -0.1814 69
-12.976600000000001 -8.8047 2.7577999999999996 206
-6.234400000000001 -4.1992 -1.3184 227
-12.773399999999999 -8.6016 0.17920000000000003 130
-6.2461 -4.207 -1.1426 93
-12.9922 -8.75 0.5449 38
-6.2773 -4.2266 -0.9678 98
-13.0156 -8.7656 0.9106000000000001 24
-12.718800000000002 -8.5703 1.249 58
-12.625 -8.5078 1.5957 152
-12.718800000000002 -8.5625 -0.8892 39
-12.6953 -8.5547 1.9638999999999998 20
-12.8828 -8.6719 -0.5405 103
-12.6094 -8.4922 2.3105 36
-12.8594 -8.6562 -0.1804 197
-12.9844 -8.7422 2.752 205
-6.238300000000001 -4.168 -1.3154 184
-12.9375 -8.6484 0.18100000000000002 205
-6.234400000000001 -4.168 -1.1367 7
-13.0156 -8.7031 0.5449 189
-6.2773 -4.1953 -0.9658 46
-13.039100000000001 -8.7109 0.9097 142
-12.726600000000001 -8.5078 1.2470999999999999 65
-12.664100000000001 -8.4609 1.5957 125
-12.718800000000002 -8.5 -0.8876999999999999 217
-12.7031 -8.4922 1.96 26
-12.898399999999999 -8.6172 -0.54 44
-12.593800000000002 -8.4219 2.3047 65
-12.8203 -8.5703 -0.1794 193
-12.9844 -8.6797 2.7461 20
-6.230499999999999 -4.1328 -1.3115 25
-12.9844 -8.6172 0.1814 198
-6.230499999999999 -4.1328 -1.1338 64
-12.976600000000001 -8.6094 0.542 180
-6.2578 -4.1523 -0.9604 32
-13.039100000000001 -8.6484 0.9077 96
-12.710899999999999 -8.4297 1.2422 90
-12.656199999999998 -8.3906 1.5918 40
-12.726600000000001 -8.4375 -0.8856999999999999 92
-12.6953 -8.4219 1.9541 114
-12.8906 -8.5547 -0.5386 107
-12.601600000000001 -8.3594 2.2988 218
-12.6875 -8.4141 -0.1771 200
-12.9844 -8.6172 2.7401999999999997 67
-6.2188 -4.0977 -1.3056999999999999 167
-12.976600000000001 -8.5469 0.1808 15
-6.230499999999999 -4.1055 -1.1309 148
-13.0078 -8.5703 0.542 234
-6.25 -4.1172 -0.9570000000000001 246
-13.0156 -8.5781 0.9043000000000001 47
-6.300800000000001 -4.1523 -0.7886 245
-12.726600000000001 -8.3828 1.2412 21
-12.656199999999998 -8.3359 1.5878999999999999 205
-12.726600000000001 -8.3828 -0.8837999999999999 30
-12.6797 -8.3594 1.9482 158
-12.851600000000001 -8.4688 -0.5356000000000001 43
-12.601600000000001 -8.3047 2.2949 99
-12.906199999999998 -8.5 -0.17980000000000002 69
-12.976600000000001 -8.5547 2.7344 58
-6.207000000000001 -4.0586 -1.3008000000000002 125
-12.968800000000002 -8.4844 0.18030000000000002 62
-6.2227 -4.0703 -1.1279000000000001 144
-13.0078 -8.5078 0.541 114
-6.2461 -4.0859 -0.9545999999999999 142
-13.0078 -8.5078 0.9014 162
-6.2852 -4.1094 -0.7847 136
-12.710899999999999 -8.3125 1.2373 159
-6.3515999999999995 -4.1562 -0.6162 45
-12.625 -8.2578 1.5811000000000002 179
-6.394500000000001 -4.1836 -0.44189999999999996 194
-12.656199999999998 -8.2812 1.9404 87
-12.8828 -8.4297 -0.5356000000000001 67
-12.656199999999998 -8.2812 2.3008 37
-12.898399999999999 -8.4375 -0.1793 189
-12.960899999999999 -8.4766 2.7245999999999997 237
-6.2109000000000005 -4.0312 -1.2978999999999998 90
-12.8906 -8.3672 0.1788 137
-6.2188 -4.0352 -1.124 250
-12.9844 -8.4297 0.5390999999999999 119
-6.2539 -4.0586 -0.9536 151
-13.0 -8.4375 0.8989 53
-6.261699999999999 -4.0664 -0.7803 156
-12.7031 -8.2422 1.2334 29
-6.3438 -4.1172 -0.6143 174
-12.656199999999998 -8.2109 1.5811000000000002 145
-6.4102 -4.1602 -0.44189999999999996 243
-12.656199999999998 -8.2109 1.9355000000000002 43
-12.6875 -8.2344 -0.5264 90
-12.7031 -8.2422 2.3027 209
-12.843800000000002 -8.3359 -0.1782 52
-12.9297 -8.3906 2.7108999999999996 196
-12.9453 -8.3359 0.1791 139
-6.2148 -4.0 -1.1201 72
-12.9922 -8.3672 0.5381 164
-6.25 -4.0234 -0.9506999999999999 212
-13.0 -8.375 0.897 163
-6.265599999999999 -4.0352 -0.7783 224
-12.7031 -8.1797 1.2305 181
-6.3125 -4.0664 -0.6099 7
-12.6797 -8.1641 1.5800999999999998 137
-6.3984000000000005 -4.1211 -0.4399 72
-12.6406 -8.1406 1.9287 126
-12.8203 -8.2578 -0.5307999999999999 23
-12.6719 -8.1641 2.293 22
-12.914100000000001 -8.3203 -0.1787 86
-12.7344 -8.2031 2.6620999999999997 56
-12.851600000000001 -8.2109 0.1775 183
-12.8906 -8.2344 0.5322 148
-6.230499999999999 -3.9824 -0.9458 67
-13.0156 -8.3125 0.8959999999999999 97
-6.265599999999999 -4.0039 -0.7768999999999999 218
-12.6953 -8.1172 1.2275 26
-6.3125 -4.0312 -0.6079 86
-12.6797 -8.1016 1.5771000000000002 173
-6.4023 -4.0938 -0.4395 50
-12.6406 -8.0781 1.9247999999999998 152
-6.5586 -4.1914 -0.27 15
-12.6719 -8.1016 2.2871 59
-12.851600000000001 -8.2109 -0.1775 229
-12.6797 -8.1016 2.6464999999999996 174
-3.1562 -2.002 -0.6518999999999999 192
-12.8672 -8.1562 0.1772 50
-3.1836 -2.0195 -0.5684 175
-12.835899999999999 -8.1406 0.5288 137
-6.2188 -3.9452999999999996 -0.9419 52
-12.7422 -8.0781 0.875 183
-6.269500000000001 -3.9745999999999997 -0.7754000000000001 230
-12.7031 -8.0547 1.2246 6
-6.3125 -4.0039 -0.6069 148
-12.6875 -8.0469 1.5741999999999998 223
-6.3789 -4.0469 -0.4368 4
-12.6328 -8.0078 1.9188999999999998 124
-6.542999999999999 -4.1484 -0.2688 163
-12.6875 -8.0469 2.2852 53
-12.75 -8.0859 -0.1757 237
-12.406199999999998 -7.8672 2.582 110
-3.1387 -1.9756 -0.6465000000000001 171
-12.726600000000001 -8.0078 0.17489999999999997 245
-3.1699 -1.9941 -0.5645 224
-12.710899999999999 -7.9961 0.5225 114
-6.2227 -3.9160000000000004 -0.9399 134
-12.7031 -7.9922 0.8701000000000001 165
-6.2578 -3.9375 -0.7725 58
-12.7031 -7.9922 1.2227 193
-6.3203 -3.9766000000000004 -0.6064 114
-12.6797 -7.9765999999999995 1.5693000000000001 90
-6.375 -4.0117 -0.4355 7
-12.093800000000002 -7.609400000000001 1.8319999999999999 70
-6.5312 -4.1094 -0.2676 79
-12.1094 -7.6211 2.1758 136
-12.6797 -7.980499999999999 -0.1743 213
-12.085899999999999 -7.605499999999999 2.5098 4
-3.1289 -1.9541 -0.6431 233
-12.718800000000002 -7.9414 0.1744 64
-3.1582 -1.9716999999999998 -0.561 47
-12.710899999999999 -7.9375 0.5215 108
-6.2227 -3.8848000000000003 -0.938 247
-12.710899999999999 -7.9336 0.8691 49
-6.2539 -3.9043 -0.7705 230
-12.125 -7.5703 1.1641 26
-6.3203 -3.9452999999999996 -0.605 107
-12.148399999999999 -7.5859000000000005 1.501 80
-6.3789 -3.9824 -0.43479999999999996 34
-12.031199999999998 -7.511699999999999 1.8193000000000001 53
-6.5390999999999995 -4.082 -0.2673 15
-12.6406 -7.894500000000001 2.2656 21
-12.6953 -7.925800000000001 -0.1741 222
-12.6719 -7.9102 2.627 100
-3.1094 -1.9258000000000002 -0.6377 42
-12.7344 -7.886699999999999 0.17420000000000002 79
-3.1445 -1.9472999999999998 -0.5576 253
-12.7031 -7.8672 0.52 73
-6.2265999999999995 -3.8555 -0.9365000000000001 149
-12.710899999999999 -7.8711 0.8672 146
-6.2578 -3.875 -0.769 192
-12.664100000000001 -7.8438 1.2129 60
-6.300800000000001 -3.9023000000000003 -0.6015999999999999 167
-12.6875 -7.855499999999999 1.5635 196
-6.3828 -3.9531 -0.4341 55
-11.9375 -7.394500000000001 1.8008000000000002 70
-6.511699999999999 -4.0312 -0.2656 5
-12.6797 -7.8515999999999995 2.2676 8
-12.7031 -7.8672 -0.17379999999999998 118
-12.6875 -7.855499999999999 2.623 213
-3.1055 -1.9091999999999998 -0.6353 224
-12.726600000000001 -7.8164 0.17370000000000002 128
-3.1132999999999997 -1.9131 -0.5508 106
-12.6953 -7.800800000000001 0.5186 205
-12.710899999999999 -7.8125 0.8652 45
-6.2539 -3.8438 -0.7670999999999999 111
-12.7031 -7.8047 1.2139 106
-6.292999999999999 -3.8672000000000004 -0.5996 46
-12.6953 -7.800800000000001 1.5615 75
-6.386699999999999 -3.9238 -0.43329999999999996 82
-11.9531 -7.3438 1.7988 209
-6.5039 -3.9961 -0.2646 177
-12.6797 -7.7890999999999995 2.2617 81
-12.6953 -7.800800000000001 -0.17329999999999998 90
-12.6875 -7.792999999999999 2.6172000000000004 141
-12.710899999999999 -7.75 0.1732 151
-12.6953 -7.738300000000001 0.5171 221
-3.207 -1.9561000000000002 -0.4778 212
-12.710899999999999 -7.75 0.8637999999999999 2
-6.261699999999999 -3.8183999999999996 -0.7666 230
-12.7031 -7.7461 1.2119 78
-6.2890999999999995 -3.8358999999999996 -0.5981000000000001 5
-12.664100000000001 -7.7227 1.5547 50
-6.3711 -3.8848000000000003 -0.4314 43
-11.9375 -7.2773 1.7930000000000001 123
-6.5078 -3.9668 -0.2644 142
-12.656199999999998 -7.7148 2.2539 88
-12.6719 -7.7265999999999995 -0.1727 15
-12.5703 -7.667999999999999 2.5898000000000003 91
-12.710899999999999 -7.6914 0.1729 118
-12.7031 -7.6836 0.5166 103
-3.1699 -1.9180000000000001 -0.47119999999999995 189
-12.6953 -7.6797 0.8604 241
-12.6953 -7.6797 1.208 170
-6.300800000000001 -3.8105 -0.5977 18
-12.585899999999999 -7.613300000000001 1.541 158
-11.9453 -7.2227 1.79 191
-6.5078 -3.9355 -0.2637 92
-12.593800000000002 -7.6172 2.2383 98
-12.6797 -7.667999999999999 -0.1724 161
-12.5469 -7.5898 2.5781 187
-3.0879000000000003 -1.8544999999999998 -0.6279 90
-12.710899999999999 -7.6328 0.1725 53
-12.6953 -7.625 0.5151 241
-3.1348000000000003 -1.8838 -0.46509999999999996 164
-12.6953 -7.6289 0.8593999999999999 214
-3.2031 -1.9228999999999998 -0.38789999999999997 81
-12.6172 -7.578099999999999 1.1982 235
-6.296900000000001 -3.7832 -0.5967 253
-12.5625 -7.542999999999999 1.5352000000000001 144
-11.9219 -7.1602 1.7832 80
-6.480499999999999 -3.8926 -0.2622 123
-12.664100000000001 -7.605499999999999 2.2461 226
-12.6797 -7.613300000000001 -0.172 7
-12.6719 -7.613300000000001 2.5995999999999997 3
-3.0918 -1.8428 -0.627 248
-12.7031 -7.574199999999999 0.172 120
-3.1055 -1.8516 -0.5449 56
-12.6953 -7.5664 0.5142 93
-3.1406 -1.8721 -0.4648 81
-12.6875 -7.5625 0.8564 115
-3.2188 -1.9188999999999998 -0.3892 41
-12.6797 -7.5586 1.2021 52
-6.2890999999999995 -3.75 -0.5947 57
-12.6875 -7.5625 1.5478999999999998 55
-11.9375 -7.113300000000001 1.7812000000000001 21
-6.4727 -3.8574 -0.2612 8
-12.1172 -7.2227 2.1445 204
-12.6797 -7.5586 -0.1718 143
-12.156199999999998 -7.2461 2.4883 129
-12.718800000000002 -7.511699999999999 0.1718 148
-3.1094 -1.8378999999999999 -0.5444 126
-12.6797 -7.4922 0.5122 33
-3.1172000000000004 -1.8418 -0.46020000000000005 37
-12.6875 -7.5 0.855 63
-3.2031 -1.8925999999999998 -0.3862 12
-12.7031 -7.5039 1.2012 179
-12.6875 -7.4961 1.5438999999999998 193
-11.9375 -7.050800000000001 1.7772999999999999 248
-6.4648 -3.8202999999999996 -0.2605 30
-12.1094 -7.1562 2.1387 119
-12.6797 -7.4961 -0.1714 158
-12.164100000000001 -7.1875 2.4844 140
-3.0995999999999997 -1.8163999999999998 -0.626 37
-12.718800000000002 -7.457000000000001 0.17149999999999999 22
-12.6875 -7.4375 0.5117 7
-3.1094 -1.8232 -0.4583 172
-12.6875 -7.4375 0.853 163
-3.1914 -1.8711000000000002 -0.3843 173
-12.6875 -7.4414 1.1982 72
-3.2441000000000004 -1.9013999999999998 -0.3035 191
-12.6797 -7.4336 1.541 168
-11.9219 -6.9922 1.7725 183
-6.4648 -3.7891000000000004 -0.25980000000000003 217
-12.1172 -7.1015999999999995 2.1348 97
-12.664100000000001 -7.425800000000001 -0.17079999999999998 246
-12.148399999999999 -7.1211 2.4746 141
-3.0742000000000003 -1.7891 -0.6196 5
-12.7344 -7.4102 0.1714 117
-3.1191000000000004 -1.8144999999999998 -0.5439 83
-12.6953 -7.3828 0.5107 103
-3.1055 -1.8066 -0.45649999999999996 1
-12.6797 -7.3789 0.8511 247
-3.1641000000000004 -1.8408000000000002 -0.3801 103
-12.6875 -7.3789 1.1953 179
-3.2051 -1.8643 -0.2991 64
-12.6797 -7.375 1.5371000000000001 225
-11.9219 -6.9336 1.7686000000000002 80
-6.4648 -3.7617000000000003 -0.2595 232
-12.1172 -7.046900000000001 2.1309 28
-12.664100000000001 -7.3672 -0.1704 173
-12.148399999999999 -7.0703 2.4707 212
-3.0742000000000003 -1.7744 -0.6187 186
-12.6875 -7.328099999999999 0.1704 94
-3.1094 -1.7949000000000002 -0.541 238
-12.6875 -7.328099999999999 0.5097999999999999 188
-3.1113 -1.7959 -0.45649999999999996 211
-12.6797 -7.3203 0.8491 16
-3.1523000000000003 -1.8203 -0.3779 130
-12.6797 -7.3203 1.1924 87
-3.1836 -1.8378999999999999 -0.2966 5
-12.6328 -7.292999999999999 1.5283000000000002 150
-11.914100000000001 -6.8789 1.7646000000000002 32
-6.453099999999999 -3.7266000000000004 -0.2585 156
-12.1172 -6.9961 2.127 221
-12.656199999999998 -7.3047 -0.1699 42
-12.148399999999999 -7.015599999999999 2.4668 74
-3.0645 -1.7549000000000001 -0.6152000000000001 130
-12.6875 -7.265599999999999 0.17 30
-3.0781 -1.7627000000000002 -0.5342 241
-12.6797 -7.2578 0.5083 199
-3.1094 -1.7803 -0.45530000000000004 195
-12.6875 -7.265599999999999 0.8481000000000001 6
-3.1406 -1.7978999999999998 -0.3757 60
-12.6719 -7.2539 1.1885 63
-3.1660000000000004 -1.8125 -0.2942 174
-12.3125 -7.046900000000001 1.4863 91
-3.2773000000000003 -1.876 -0.217 129
-11.9219 -6.824199999999999 1.7616999999999998 16
-6.449199999999999 -3.6914 -0.25780000000000003 245
-12.1094 -6.9336 2.1211 145
-12.656199999999998 -7.2461 -0.1696 173
-12.156199999999998 -6.957000000000001 2.4609 158
-3.0645 -1.7402000000000002 -0.6138 190
-12.6953 -7.2109000000000005 0.1698 133
-3.0801 -1.75 -0.5337 171
-12.6719 -7.1953 0.5068 213
-3.0938 -1.7568000000000001 -0.4524 123
-12.6875 -7.203099999999999 0.8462000000000001 123
-3.1464999999999996 -1.7861000000000002 -0.3757 177
-12.6719 -7.1953 1.1865 18
-3.1543 -1.791 -0.2927 36
-12.289100000000001 -6.9765999999999995 1.4805000000000001 107
-3.2422000000000004 -1.8408000000000002 -0.21420000000000003 207
-11.914100000000001 -6.765599999999999 1.7568000000000001 121
-6.449199999999999 -3.6620999999999997 -0.25730000000000003 124
-12.085899999999999 -6.863300000000001 2.1133 141
-12.664100000000001 -7.1875 -0.1693 97
-12.148399999999999 -6.8984000000000005 2.4551 49
-3.0566000000000004 -1.7216999999999998 -0.6113000000000001 114
-12.718800000000002 -7.1640999999999995 0.1698 245
-3.0938 -1.7422 -0.5352 67
-12.6719 -7.136699999999999 0.5059 48
-3.0957 -1.7431999999999999 -0.4514 67
-12.6797 -7.144500000000001 0.8442000000000001 26
-3.1504000000000003 -1.7744 -0.37549999999999994 172
-12.6875 -7.144500000000001 1.1855 83
-3.1464999999999996 -1.7725 -0.2913 237
-12.281199999999998 -6.917999999999999 1.4766 204
-3.2031 -1.8037 -0.2112 89
-11.9297 -6.7188 1.7559 84
-6.4609000000000005 -3.6387 -0.2571 238
-12.101600000000001 -6.8125 2.1113 231
-12.648399999999999 -7.125 -0.16879999999999998 62
-12.148399999999999 -6.8438 2.4512 13
-3.0547000000000004 -1.7061000000000002 -0.6093999999999999 65
-12.718800000000002 -7.1015999999999995 0.16940000000000002 250
-3.0995999999999997 -1.7313999999999998 -0.5352 0
-12.6797 -7.0859000000000005 0.5054 234
-3.1113 -1.7383000000000002 -0.4531 65
-12.664100000000001 -7.074199999999999 0.8412999999999999 88
-3.1406 -1.7549000000000001 -0.3735 247
-12.6875 -7.0859000000000005 1.1836 148
-3.1641000000000004 -1.7675999999999998 -0.2922 115
-12.273399999999999 -6.855499999999999 1.4727000000000001 29
-3.1973000000000003 -1.7861000000000002 -0.21030000000000001 181
-11.914100000000001 -6.6523 1.75 187
-12.093800000000002 -6.7578 2.1055 185
-12.1328 -6.7773 2.4434 219
-3.0469 -1.6885 -0.6069 231
-12.6875 -7.0273 0.16870000000000002 178
-3.0879000000000003 -1.7109 -0.5317000000000001 28
-12.6797 -7.0234000000000005 0.5044 242
-3.1074 -1.7216999999999998 -0.4514 201
-12.6719 -7.019500000000001 0.8403 72
-3.1348000000000003 -1.7372999999999998 -0.3721 124
-12.6797 -7.0273 1.1806999999999999 167
-3.1601999999999997 -1.751 -0.2913 24
-12.289100000000001 -6.8125 1.4727000000000001 225
-3.2051 -1.7753999999999999 -0.2104 115
-11.898399999999999 -6.5938 1.7441 97
-3.2714999999999996 -1.8125 -0.1288 198
-12.093800000000002 -6.703099999999999 2.1016 29
-12.656199999999998 -7.011699999999999 -0.16829999999999998 23
-12.1406 -6.7265999999999995 2.4395 123
-3.0645 -1.6836000000000002 -0.6089 42
-12.6797 -6.9688 0.16829999999999998 82
-3.0801 -1.6934 -0.5297999999999999 164
-12.6797 -6.9688 0.5034000000000001 199
-3.1094 -1.709 -0.4509 4
-12.6719 -6.9648 0.8389 160
-3.1483999999999996 -1.7305000000000001 -0.373 41
-12.593800000000002 -6.917999999999999 1.1699 132
-3.1367000000000003 -1.7236000000000002 -0.28859999999999997 131
-12.2969 -6.7578 1.4697 232
-3.1973000000000003 -1.7568000000000001 -0.2096 69
-11.906199999999998 -6.542999999999999 1.7422 143
-3.2539 -1.7871000000000001 -0.1278 236
-12.085899999999999 -6.640599999999999 2.0957 82
-12.664100000000001 -6.957000000000001 -0.1681 216
-12.1406 -6.671900000000001 2.4355 212
-3.0645 -1.6699000000000002 -0.6079 191
-12.6875 -6.9140999999999995 0.1681 5
-3.0762 -1.6768 -0.5278 251
-12.664100000000001 -6.9023 0.502 237
-3.1016000000000004 -1.6904 -0.449 14
-12.6875 -6.9140999999999995 0.8384 170
-12.4375 -6.7812 1.1533 51
-3.1464999999999996 -1.7147999999999999 -0.2891 200
-12.3125 -6.707000000000001 1.4687999999999999 60
-3.1797000000000004 -1.7334 -0.20800000000000002 157
-11.906199999999998 -6.488300000000001 1.7383000000000002 102
-3.2422000000000004 -1.7666 -0.12710000000000002 40
-12.0703 -6.578099999999999 2.0898 116
-12.648399999999999 -6.894500000000001 -0.16760000000000003 251
-12.1406 -6.6172 2.4316 78
-3.043 -1.6444999999999999 -0.6025 183
-12.664100000000001 -6.8438 0.1674 95
-3.0918 -1.6719 -0.5297999999999999 227
-12.601600000000001 -6.8086 0.49829999999999997 224
-3.0879000000000003 -1.6688999999999998 -0.446 171
-12.5469 -6.7812 0.8271 61
-12.4375 -6.7227 1.1514 221
-3.1601999999999997 -1.7080000000000002 -0.2898 183
-12.3281 -6.6640999999999995 1.4687999999999999 210
-3.1816000000000004 -1.7197 -0.2076 67
-11.9219 -6.4453 1.7383000000000002 67
-3.2305 -1.7461000000000002 -0.1265 143
-12.093800000000002 -6.5352 2.0898 157
-12.156199999999998 -6.5703 2.4297 132
-3.0507999999999997 -1.6366999999999998 -0.603 1
-12.5 -6.703099999999999 0.165 86
-3.0879000000000003 -1.6553 -0.5278 80
-12.460899999999999 -6.6836 0.49219999999999997 222
-3.1016000000000004 -1.6631 -0.4473 73
-12.476600000000001 -6.6875 0.8208 111
-12.414100000000001 -6.6562 1.1465 231
-3.1620999999999997 -1.6953 -0.2893 105
-12.351600000000001 -6.6211 1.4678 166
-3.1620999999999997 -1.6953 -0.2061 80
-11.898399999999999 -6.3789 1.7313999999999998 217
-3.2401999999999997 -1.7372999999999998 -0.1266 76
-12.164100000000001 -6.519500000000001 2.0977 190
-12.1953 -6.5390999999999995 2.4316 123
-3.0469 -1.6200999999999999 -0.6011 207
-12.476600000000001 -6.636699999999999 0.16440000000000002 17
-3.0801 -1.6377000000000002 -0.5254 58
-12.476600000000001 -6.636699999999999 0.4917 32
-3.0938 -1.6455000000000002 -0.4451 38
-12.468800000000002 -6.6328 0.8193 96
-12.4297 -6.613300000000001 1.1465 155
-12.3594 -6.574199999999999 1.4668 210
-3.1562 -1.6797 -0.2053 143
-11.8828 -6.3203 1.7256 215
-3.2207 -1.7128999999999999 -0.12560000000000002 179
-12.1875 -6.480499999999999 2.0977 148
-3.2695 -1.7393 -0.0424 170
-12.2031 -6.4922 2.4297 232
-3.0566000000000004 -1.6113 -0.6015999999999999 183
-12.4922 -6.5859000000000005 0.1642 79
-3.0645 -1.6152000000000002 -0.5215 35
-12.4844 -6.582000000000001 0.491 108
-3.1016000000000004 -1.6357 -0.4456 242
-12.5078 -6.5938 0.8198000000000001 29
-12.4453 -6.5625 1.1455 158
-12.3672 -6.519500000000001 1.4647999999999999 133
-3.1757999999999997 -1.6738 -0.20620000000000002 160
-11.875 -6.2578 1.7207 70
-3.2226999999999997 -1.6991999999999998 -0.1255 39
-12.1719 -6.417999999999999 2.0918 66
-3.2382999999999997 -1.7069999999999999 -0.04190000000000001 241
-12.218800000000002 -6.4414 2.4277 28
-3.0469 -1.5928 -0.5991 42
-12.5078 -6.5390999999999995 0.1642 151
-3.0488 -1.5937999999999999 -0.5181 196
-12.4922 -6.5312 0.4905 147
-3.0879000000000003 -1.6143 -0.4429 5
-12.5469 -6.5625 0.8212999999999999 178
-12.5 -6.5352 1.1484 230
-12.351600000000001 -6.457000000000001 1.46 216
-3.1895 -1.6669999999999998 -0.20670000000000002 213
-11.875 -6.207000000000001 1.7187999999999999 108
-3.2012 -1.6728999999999998 -0.1243 200
-12.156199999999998 -6.355499999999999 2.0859 141
-3.2422000000000004 -1.6943000000000001 -0.04190000000000001 94
-12.2031 -6.3789 2.4199 125
-3.0410000000000004 -1.5762 -0.5967 181
-12.6172 -6.5390999999999995 0.1653 173
-3.0645 -1.5888999999999998 -0.52 7
-12.5703 -6.515599999999999 0.4927 44
-3.0879000000000003 -1.6006 -0.44189999999999996 61
-12.585899999999999 -6.5234000000000005 0.8218000000000001 172
-12.539100000000001 -6.5 1.1504 43
-12.3828 -6.417999999999999 1.4609 92
-11.8906 -6.1640999999999995 1.7178 130
-3.2031 -1.6602000000000001 -0.1242 193
-12.164100000000001 -6.3047 2.082 190
-3.2305 -1.6747999999999998 -0.0417 206
-12.1953 -6.3203 2.4141 244
-3.0391000000000004 -1.5625 -0.5952000000000001 58
-3.0683999999999996 -1.5771000000000002 -0.5195000000000001 228
-12.6328 -6.4922 0.4941 87
-3.0858999999999996 -1.5859 -0.4407 27
-12.656199999999998 -6.5039 0.8251999999999999 216
-12.5469 -6.449199999999999 1.1484 250
-12.3281 -6.3359000000000005 1.4521000000000002 187
