# .PCD v0.7 - Point Cloud Data file format
VERSION 0.7
FIELDS x y z intensity
SIZE 4 4 4 4
TYPE F F F F
COUNT 1 1 1 1
WIDTH 1270
HEIGHT 1
VIEWPOINT 0 0 0 1 0 0 0
POINTS 1270
DATA ascii
12.4844 -1.834 1.3213 49
12.5547 -1.8447 -0.7358 111
12.664100000000001 -1.8603999999999998 1.6406 146
12.5703 -1.8466999999999998 -0.44189999999999996 218
12.6172 -1.8544999999999998 1.9385 217
12.5469 -1.8437999999999999 -0.14730000000000001 130
12.906199999999998 -1.8965 2.293 43
12.5625 -1.8887 0.1477 225
12.5703 -1.8896000000000002 0.4421 168
12.5469 -1.8866999999999998 0.7358 12
12.5625 -1.8887 -1.3300999999999998 252
12.5703 -1.8896000000000002 1.0352 79
12.5469 -1.8866999999999998 -1.0332 57
12.4922 -1.8788999999999998 1.3232 140
12.5547 -1.8866999999999998 -0.7358 164
12.6328 -1.8994 1.6387 56
12.5703 -1.8896000000000002 -0.4421 116
12.6328 -1.8984 1.9413999999999998 220
12.5469 -1.8866999999999998 -0.1475 0
12.8906 -1.9385 2.291 28
12.5625 -1.9385 0.1477 181
12.5703 -1.9394999999999998 0.4424 210
12.5625 -1.9375 0.7368000000000001 89
12.5547 -1.9365 -1.3300999999999998 216
12.5703 -1.9385 1.0352 220
12.5547 -1.9365 -1.0342 251
12.4922 -1.9268 1.3241999999999998 158
12.5469 -1.9355000000000002 -0.7358 247
12.625 -1.9472999999999998 1.6377000000000002 15
12.5625 -1.9375 -0.4421 177
12.625 -1.9482 1.9413999999999998 73
12.5547 -1.9365 -0.1477 106
12.898399999999999 -1.9893 2.293 132
12.5625 -1.9824000000000002 0.1478 208
12.5625 -1.9834 0.4424 84
12.5625 -1.9834 0.7373000000000001 141
12.5625 -1.9834 -1.3319999999999999 216
12.5547 -1.9824000000000002 1.0352 227
12.5469 -1.9805000000000001 -1.0342 18
12.4922 -1.9727000000000001 1.3252000000000002 162
12.5469 -1.9805000000000001 -0.7363 40
12.648399999999999 -1.9961000000000002 1.6416 154
12.5547 -1.9813999999999998 -0.44189999999999996 129
12.6172 -1.9922 1.9413999999999998 233
12.5703 -1.9834 -0.1478 53
12.898399999999999 -2.0371 2.2949 89
12.5547 -2.0273 0.1478 204
12.5469 -2.0254 0.44189999999999996 71
12.5625 -2.0273 0.7378 25
12.5703 -2.0293 -1.3330000000000002 241
12.5547 -2.0273 1.0352 64
12.539100000000001 -2.0234 -1.0342 124
12.4844 -2.0156 1.3241999999999998 50
12.5469 -2.0254 -0.7368000000000001 232
12.648399999999999 -2.043 1.6425999999999998 78
12.5547 -2.0273 -0.4424 135
12.601600000000001 -2.0352 1.9394999999999998 224
12.5547 -2.0254 -0.1478 102
12.9844 -2.0957 2.3105 58
12.5547 -2.0703 0.1478 121
12.5547 -2.0723 0.4424 20
12.5547 -2.0723 0.7378 3
12.5703 -2.0742 -1.335 93
12.5703 -2.0742 1.0371 100
12.539100000000001 -2.0684 -1.0342 224
12.4844 -2.0605 1.3252000000000002 68
12.531199999999998 -2.0684 -0.7363 156
12.6406 -2.0859 1.6425999999999998 232
12.5625 -2.0723 -0.4429 216
12.6172 -2.082 1.9434 242
12.5469 -2.0703 -0.1478 205
12.9531 -2.1367 2.3066 197
12.5469 -2.1152 0.1479 93
12.5625 -2.1172 0.4429 207
12.5469 -2.1152 0.7378 137
12.5547 -2.1172 -1.334 24
12.5625 -2.1191 1.0371 198
12.5469 -2.1152 -1.0352 211
12.4922 -2.1055 1.3271000000000002 232
12.531199999999998 -2.1133 -0.7368000000000001 24
12.648399999999999 -2.1328 1.6444999999999999 194
12.5703 -2.1191 -0.4434 54
12.6172 -2.127 1.9453 71
12.5469 -2.1152 -0.1478 95
12.8672 -2.1699 2.293 99
12.5547 -2.1621 0.1481 226
12.5625 -2.1621 0.4434 43
12.5469 -2.1602 0.7383 88
12.5547 -2.1621 -1.334 131
12.5625 -2.1641 1.0381 239
12.5469 -2.1602 -1.0361 170
12.4922 -2.1523 1.3281 96
12.531199999999998 -2.1582 -0.7373000000000001 67
12.625 -2.1738 1.6425999999999998 149
12.5625 -2.1621 -0.4434 118
12.625 -2.1738 1.9472999999999998 203
12.5469 -2.1602 -0.1479 200
12.8828 -2.2188 2.2969 225
12.539100000000001 -2.2051 0.1481 211
12.5469 -2.2051 0.44310000000000005 248
12.5469 -2.207 0.7387999999999999 95
12.5547 -2.207 -1.335 236
12.5547 -2.207 1.0371 214
12.531199999999998 -2.2031 -1.0361 172
12.5 -2.1973 1.3291 208
12.539100000000001 -2.2031 -0.7378 161
12.648399999999999 -2.2227 1.6465 231
12.5469 -2.2051 -0.44310000000000005 76
12.6172 -2.2188 1.9472999999999998 81
12.5547 -2.207 -0.1482 22
12.906199999999998 -2.2676 2.3027 80
12.5625 -2.252 0.1483 76
12.5469 -2.25 0.4434 33
12.5625 -2.2539 0.7397 210
12.5547 -2.252 -1.3359 157
12.5547 -2.252 1.0381 53
12.523399999999999 -2.2461 -1.0352 9
12.4922 -2.2402 1.3291 255
12.531199999999998 -2.248 -0.7378 105
12.6328 -2.2676 1.6455000000000002 218
12.5625 -2.2539 -0.44380000000000003 130
12.601600000000001 -2.2617 1.9463 186
12.539100000000001 -2.248 -0.1481 156
12.906199999999998 -2.3164 2.3047 141
12.5625 -2.2969 0.1484 176
8.2734 -1.5116999999999998 -1.2754 241
12.5469 -2.293 0.4436 110
12.5469 -2.2949 0.7397 192
12.5625 -2.2969 1.04 122
12.531199999999998 -2.291 -1.0371 161
12.468800000000002 -2.2793 1.3281 9
12.523399999999999 -2.2891 -0.7378 115
12.6328 -2.3086 1.6465 232
12.5625 -2.2969 -0.4443 42
12.6094 -2.3066 1.9482 179
12.539100000000001 -2.291 -0.1481 48
12.8906 -2.3574 2.3027 32
12.539100000000001 -2.3359 0.1483 230
12.5469 -2.3379 0.44380000000000003 75
8.2578 -1.5381 -1.0752 191
12.539100000000001 -2.3359 0.7393000000000001 201
8.2734 -1.5419999999999998 -0.8804000000000001 166
12.5625 -2.3398 1.04 28
8.2891 -1.5430000000000001 -0.6846 175
12.4844 -2.3262 1.3300999999999998 251
12.539100000000001 -2.3359 -0.7393000000000001 122
12.6406 -2.3535 1.6484 107
12.5625 -2.3398 -0.4443 124
12.625 -2.3516 1.9512 161
12.539100000000001 -2.3359 -0.1483 240
12.906199999999998 -2.4043 2.3086 121
12.539100000000001 -2.3828 0.1483 81
12.5469 -2.3848 0.4443 246
12.5469 -2.3848 0.7402 59
12.539100000000001 -2.3828 -1.3369 94
12.5625 -2.3887 1.041 115
8.2891 -1.5752000000000002 -0.6855 186
12.4922 -2.373 1.3311000000000002 48
8.2969 -1.5762 -0.4885 234
12.6172 -2.3965 1.6465 1
12.6172 -2.3984 1.9521000000000002 186
12.531199999999998 -2.3809 -0.1483 161
12.9219 -2.457 2.3125 188
12.5547 -2.4316 0.1487 103
12.5469 -2.4297 0.4443 125
12.5547 -2.4316 0.7412000000000001 151
12.5547 -2.4316 -1.3397999999999999 28
12.5469 -2.4297 1.041 131
12.5547 -2.4316 -1.041 60
12.4844 -2.418 1.3319999999999999 203
12.5625 -2.4336 -0.7417 254
12.625 -2.4453 1.6484 143
8.3125 -1.6094 -0.2937 140
12.601600000000001 -2.4414 1.9512 253
8.3125 -1.6103999999999998 -0.0981 34
12.898399999999999 -2.498 2.3105 56
8.3203 -1.6416 0.0983 44
12.5547 -2.4766 0.7417 207
12.664100000000001 -2.498 -1.3516 99
12.5469 -2.4766 1.041 127
12.5469 -2.4746 -1.041 26
12.4844 -2.4629 1.3330000000000002 40
12.5703 -2.4805 -0.7432 185
12.6328 -2.4922 1.6503999999999999 226
12.5625 -2.4785 -0.4456 164
12.593800000000002 -2.4844 1.9512 89
12.531199999999998 -2.4707 -0.1484 235
12.8281 -2.5312 2.2988 166
8.3359 -1.6747999999999998 0.09849999999999999 135
8.3281 -1.6728999999999998 0.2949 177
8.3438 -1.6758000000000002 0.4924 71
12.6797 -2.5469 -1.3544999999999998 148
12.7422 -2.5605 -1.0576 11
12.468800000000002 -2.5059 1.3319999999999999 48
12.7031 -2.5527 -0.7515000000000001 15
12.6172 -2.5352 1.6503999999999999 109
12.6719 -2.5469 -0.4497 136
12.6094 -2.5332 1.9550999999999998 162
12.593800000000002 -2.5293 -0.1493 138
12.773399999999999 -2.5664 2.2891 1
12.6094 -2.5801 0.1497 99
12.585899999999999 -2.5742000000000003 0.4468 107
8.3438 -1.7061000000000002 0.4927 157
12.6719 -2.5918 -1.3544999999999998 150
8.3672 -1.7119 0.6943 19
12.726600000000001 -2.6035000000000004 -1.0576 231
8.375 -1.7128999999999999 0.894 94
12.7422 -2.6074 -0.7544 26
12.773399999999999 -2.6132999999999997 -0.4534 218
12.625 -2.582 1.9580000000000002 69
12.7422 -2.6074 -0.1512 29
12.75 -2.6074 2.2871 138
12.7656 -2.6582 0.1516 188
12.656199999999998 -2.6348000000000003 0.4497 197
12.539100000000001 -2.6094 0.7422 27
12.664100000000001 -2.6367000000000003 -1.3544999999999998 201
12.531199999999998 -2.6074 1.042 135
12.7578 -2.6562 -1.0605 244
8.3828 -1.7450999999999999 0.895 196
12.726600000000001 -2.6483999999999996 -0.7534000000000001 6
8.3672 -1.7422 1.0947 135
12.6953 -2.6426 -0.4509 202
12.6172 -2.627 1.959 145
12.6328 -2.6308999999999996 -0.15 68
12.75 -2.6543 2.2891 135
12.6719 -2.6836 0.4507 86
12.5469 -2.6562 0.7432 156
12.664100000000001 -2.6816000000000004 -1.3555000000000001 88
12.531199999999998 -2.6543 1.043 185
12.7344 -2.6992000000000003 -1.0595999999999999 3
12.476600000000001 -2.6426 1.3359 224
12.7578 -2.7031 -0.7559 88
8.3203 -1.7627000000000002 1.0889 118
12.773399999999999 -2.7051 -0.45409999999999995 88
12.6094 -2.6719 1.959 227
12.7578 -2.7012 -0.1516 114
12.851600000000001 -2.7226999999999997 2.3086 112
12.8203 -2.7617000000000003 0.1525 175
12.7031 -2.7382999999999997 0.4521 151
12.5469 -2.7051 0.7441 206
12.6719 -2.7305 -1.3574000000000002 64
12.523399999999999 -2.6992000000000003 1.043 254
12.7031 -2.7382999999999997 -1.0576 155
12.476600000000001 -2.6895 1.3369 248
12.7344 -2.7441000000000004 -0.7548999999999999 170
12.625 -2.7207 1.6553 230
12.718800000000002 -2.7422000000000004 -0.4526 170
12.6094 -2.7168 1.96 222
12.7344 -2.7441000000000004 -0.1514 19
12.8672 -2.7733999999999996 2.3145 61
12.726600000000001 -2.7870999999999997 0.4531 35
12.539100000000001 -2.7461 0.7441 0
12.6797 -2.7754000000000003 -1.3594 48
12.523399999999999 -2.7422000000000004 1.0439 12
12.7422 -2.7891000000000004 -1.0615 52
12.476600000000001 -2.7305 1.3378999999999999 71
12.726600000000001 -2.7870999999999997 -0.7554000000000001 18
12.625 -2.7656 1.6572 50
12.773399999999999 -2.7969 -0.4548 35
12.6094 -2.7598000000000003 1.9609 224
12.710899999999999 -2.7832 -0.1512 49
12.875 -2.8202999999999996 2.3164 79
12.6875 -2.8223000000000003 0.4521 127
12.539100000000001 -2.7891000000000004 0.7445999999999999 208
12.664100000000001 -2.8164 -1.3584 225
12.523399999999999 -2.7851999999999997 1.0449 69
12.710899999999999 -2.8281 -1.0605 192
12.476600000000001 -2.7754000000000003 1.3388999999999998 82
12.6953 -2.8242000000000003 -0.7544 93
12.625 -2.8086 1.6582 16
12.7656 -2.8379000000000003 -0.4548 22
12.601600000000001 -2.8026999999999997 1.9628999999999999 83
12.7344 -2.832 -0.1516 251
12.906199999999998 -2.8711 2.3242 4
12.773399999999999 -2.8906 0.4556 124
12.539100000000001 -2.8358999999999996 0.7451000000000001 139
12.664100000000001 -2.8651999999999997 -1.3603999999999998 222
12.5078 -2.8301 1.0439 152
12.781199999999998 -2.8926 -1.0674 105
12.4844 -2.8262 1.3408000000000002 83
12.726600000000001 -2.8808999999999996 -0.7568 235
12.6094 -2.8535000000000004 1.6572 10
12.718800000000002 -2.877 -0.4536 129
12.6172 -2.8555 1.9658000000000002 6
12.726600000000001 -2.8808999999999996 -0.1517 24
12.875 -2.9120999999999997 2.3203 254
12.7656 -2.9355 0.4556 139
12.5469 -2.8848000000000003 0.7461 152
12.664100000000001 -2.9120999999999997 -1.3613 219
12.5 -2.873 1.0439 19
12.75 -2.9316000000000004 -1.0645 233
12.476600000000001 -2.8691000000000004 1.3408000000000002 94
12.75 -2.9316000000000004 -0.7587999999999999 127
12.6172 -2.9004000000000003 1.6602000000000001 211
12.7969 -2.9433999999999996 -0.4568 187
12.601600000000001 -2.8964999999999996 1.9647999999999999 242
12.8047 -2.9452999999999996 -0.1527 156
12.8672 -2.9589999999999996 2.3203 173
12.851600000000001 -3.002 0.1534 196
12.710899999999999 -2.9707 0.45409999999999995 90
12.539100000000001 -2.9297000000000004 0.7465999999999999 49
12.664100000000001 -2.9589999999999996 -1.3622999999999998 188
12.5 -2.9199 1.0449 138
12.726600000000001 -2.9745999999999997 -1.0645 37
12.468800000000002 -2.9120999999999997 1.3408000000000002 197
12.710899999999999 -2.9707 -0.7568 80
12.625 -2.9492000000000003 1.6621000000000001 178
12.6953 -2.9648000000000003 -0.4534 179
12.593800000000002 -2.9433999999999996 1.9658000000000002 162
12.7344 -2.9745999999999997 -0.152 162
12.875 -3.0077999999999996 2.3242 210
12.8125 -3.0391000000000004 0.1531 214
12.773399999999999 -3.0312 0.4568 99
12.531199999999998 -2.9745999999999997 0.7465999999999999 186
12.6719 -3.0077999999999996 -1.3643 64
12.5 -2.9668 1.0459 22
12.7344 -3.0214999999999996 -1.0654000000000001 58
12.460899999999999 -2.957 1.3418 90
12.7422 -3.0254000000000003 -0.7593000000000001 241
12.6172 -2.9941000000000004 1.6631 170
12.7656 -3.0293 -0.45649999999999996 120
12.593800000000002 -2.9901999999999997 1.9678 141
12.718800000000002 -3.0176 -0.152 230
12.875 -3.0547000000000004 2.3262 160
12.726600000000001 -3.0683999999999996 0.4556 96
12.531199999999998 -3.0195 0.7471 223
12.656199999999998 -3.0507999999999997 -1.3643 213
12.5 -3.0137 1.0469 110
12.6719 -3.0547000000000004 -1.0615 57
12.4531 -3.002 1.3418 23
12.6875 -3.0586 -0.7568 134
12.6172 -3.0391000000000004 1.6631 224
12.75 -3.0742000000000003 -0.45630000000000004 100
12.601600000000001 -3.0370999999999997 1.9707 173
12.726600000000001 -3.0664 -0.1522 169
12.8672 -3.1016000000000004 2.3262 9
12.835899999999999 -3.1406 0.1536 50
12.8203 -3.1387 0.4592 146
12.523399999999999 -3.0645 0.7476 148
12.648399999999999 -3.0957 -1.3643 135
12.4922 -3.0566000000000004 1.0469 250
12.7656 -3.123 -1.0693000000000001 226
12.468800000000002 -3.0507999999999997 1.3447 7
12.7578 -3.123 -0.7617 161
12.601600000000001 -3.0839999999999996 1.6631 249
12.726600000000001 -3.1132999999999997 -0.4558 74
12.6094 -3.0858999999999996 1.9727000000000001 153
12.7344 -3.1151999999999997 -0.1523 234
12.8594 -3.1464999999999996 2.3262 208
12.773399999999999 -3.1699 0.4578 240
12.539100000000001 -3.1132999999999997 0.7490000000000001 189
12.664100000000001 -3.1426 -1.3672 241
12.476600000000001 -3.0976999999999997 1.0469 234
12.710899999999999 -3.1562 -1.0664 130
12.476600000000001 -3.0957 1.3457 107
12.7344 -3.1620999999999997 -0.7606999999999999 134
12.6172 -3.1327999999999996 1.6669999999999998 71
12.75 -3.1641000000000004 -0.457 103
12.6094 -3.1289 1.9746000000000001 177
12.75 -3.1641000000000004 -0.1527 179
12.875 -3.1952999999999996 2.332 3
12.6953 -3.1973000000000003 0.4556 177
12.5469 -3.1582 0.75 150
12.656199999999998 -3.1875 -1.3672 86
12.5 -3.1464999999999996 1.0488 86
12.7578 -3.2108999999999996 -1.0713 104
12.460899999999999 -3.1387 1.3466999999999998 114
12.75 -3.2089999999999996 -0.7622 228
12.6094 -3.1738 1.6669999999999998 41
12.6953 -3.1952999999999996 -0.45530000000000004 131
12.585899999999999 -3.168 1.9727000000000001 117
12.726600000000001 -3.2031 -0.15259999999999999 31
12.8828 -3.2441000000000004 2.3359 64
12.898399999999999 -3.2949 0.1548 93
12.773399999999999 -3.2637 0.4587 233
12.531199999999998 -3.2012 0.75 27
12.6719 -3.2363 -1.3700999999999999 208
12.5 -3.1933999999999996 1.0508 120
12.75 -3.2558999999999996 -1.0713 87
12.4531 -3.1816000000000004 1.3457 98
12.789100000000001 -3.2676 -0.7656000000000001 82
12.6172 -3.2226999999999997 1.6688999999999998 116
12.8203 -3.2754000000000003 -0.46020000000000005 121
12.601600000000001 -3.2188 1.9766 101
12.773399999999999 -3.2617000000000003 -0.1532 21
12.851600000000001 -3.2832 2.332 179
12.835899999999999 -3.3242000000000003 0.1542 101
12.781199999999998 -3.3105 0.4592 63
12.5156 -3.2422000000000004 0.7495 100
12.648399999999999 -3.2773000000000003 -1.3691 113
12.5 -3.2363 1.0508 1
12.7031 -3.2891000000000004 -1.0684 198
12.460899999999999 -3.2266000000000004 1.3477000000000001 153
12.6875 -3.2851999999999997 -0.7598 110
12.601600000000001 -3.2637 1.6688999999999998 159
12.726600000000001 -3.2969 -0.4575 107
12.6172 -3.2676 1.9813999999999998 128
12.7344 -3.2988 -0.153 233
12.851600000000001 -3.3281 2.334 183
12.718800000000002 -3.3438 0.4575 23
12.523399999999999 -3.293 0.7505 236
12.648399999999999 -3.3262 -1.3700999999999999 78
12.5 -3.2851999999999997 1.0518 11
12.7578 -3.3535000000000004 -1.0742 25
12.4844 -3.2812 1.3516 247
12.7344 -3.3476999999999997 -0.7631999999999999 219
12.601600000000001 -3.3125 1.6709 196
12.75 -3.3535000000000004 -0.4587 166
12.6328 -3.3223000000000003 1.9853999999999998 82
12.726600000000001 -3.3457 -0.153 144
12.8594 -3.3808999999999996 2.3359 45
12.8672 -3.4297000000000004 0.1548 106
12.75 -3.4004000000000003 0.45899999999999996 42
12.531199999999998 -3.3418 0.752 240
12.656199999999998 -3.375 -1.3721 17
12.4922 -3.3301 1.0518 33
12.710899999999999 -3.3887 -1.0703 72
12.468800000000002 -3.3262 1.3516 60
12.6875 -3.3827999999999996 -0.7612000000000001 46
12.593800000000002 -3.3574 1.6709 54
12.7344 -3.3945 -0.4585 138
12.6406 -3.3691000000000004 1.9883000000000002 4
12.710899999999999 -3.3887 -0.153 229
12.8672 -3.4316000000000004 2.3418 24
12.7344 -3.4452999999999996 0.4587 250
12.523399999999999 -3.3887 0.7524 129
12.664100000000001 -3.4257999999999997 -1.374 197
12.4844 -3.377 1.0527 66
12.7344 -3.4452999999999996 -1.0742 82
12.4531 -3.3691000000000004 1.3516 71
12.718800000000002 -3.4414 -0.7642 110
12.601600000000001 -3.4082 1.6738 210
12.7031 -3.4375 -0.4578 190
12.656199999999998 -3.4238 1.9931999999999999 203
12.718800000000002 -3.4414 -0.1532 61
12.875 -3.4844 2.3457 239
12.7578 -3.498 0.46 46
12.523399999999999 -3.4355 0.7529 184
12.6719 -3.4766000000000004 -1.376 157
12.5 -3.4297000000000004 1.0556999999999999 40
12.726600000000001 -3.4922000000000004 -1.0742 226
12.4453 -3.4141000000000004 1.3516 127
12.7344 -3.4941000000000004 -0.7656000000000001 173
12.601600000000001 -3.457 1.6747999999999998 250
12.781199999999998 -3.5058999999999996 -0.46090000000000003 222
12.6719 -3.4745999999999997 1.9961000000000002 104
12.726600000000001 -3.4901999999999997 -0.1534 154
12.898399999999999 -3.5370999999999997 2.3516 172
12.781199999999998 -3.5547000000000004 0.4617 185
12.5156 -3.4805 0.7534000000000001 72
12.648399999999999 -3.5176 -1.375 56
12.5 -3.4745999999999997 1.0556999999999999 204
12.7422 -3.543 -1.0762 33
12.460899999999999 -3.4648000000000003 1.3544999999999998 40
12.6953 -3.5293 -0.7642 244
12.593800000000002 -3.502 1.6758000000000002 153
12.7031 -3.5332 -0.4587 112
12.6797 -3.5254000000000003 2.0 104
12.710899999999999 -3.5351999999999997 -0.1534 59
12.8828 -3.582 2.3516 50
12.718800000000002 -3.5839999999999996 0.4597 152
12.523399999999999 -3.5293 0.7544 71
12.6328 -3.5605 -1.375 59
12.4844 -3.5195 1.0556999999999999 226
12.7656 -3.5976999999999997 -1.0791 147
12.460899999999999 -3.5117000000000003 1.3563999999999998 173
12.773399999999999 -3.5995999999999997 -0.7695000000000001 163
12.5781 -3.5449 1.6758000000000002 112
12.8203 -3.6132999999999997 -0.46340000000000003 73
12.6875 -3.5762 2.0039 79
12.781199999999998 -3.6035000000000004 -0.15439999999999998 30
12.8594 -3.625 2.3496 87
12.835899999999999 -3.6620999999999997 0.1552 47
12.781199999999998 -3.6464999999999996 0.4622 105
12.531199999999998 -3.5762 0.7554000000000001 155
12.656199999999998 -3.6132999999999997 -1.3788999999999998 192
12.4844 -3.5625 1.0566 122
12.6875 -3.6211 -1.0742 102
12.460899999999999 -3.5586 1.3574000000000002 31
12.718800000000002 -3.6289 -0.7666 66
12.5781 -3.5898000000000003 1.6777000000000002 124
12.8047 -3.6543 -0.46340000000000003 136
12.6797 -3.6191000000000004 2.0039 196
12.7969 -3.6523000000000003 -0.1548 69
12.8594 -3.6699 2.3516 4
12.789100000000001 -3.6973000000000003 0.1548 141
12.75 -3.6836 0.4617 251
12.531199999999998 -3.6211 0.7563 38
12.6406 -3.6543 -1.3788999999999998 106
12.468800000000002 -3.6035000000000004 1.0566 48
12.656199999999998 -3.6582 -1.0723 0
12.4531 -3.5995999999999997 1.3574000000000002 186
12.656199999999998 -3.6582 -0.7642 171
12.593800000000002 -3.6387 1.6806999999999999 213
12.656199999999998 -3.6582 -0.4585 209
12.6797 -3.6641000000000004 2.0059 156
12.6797 -3.6641000000000004 -0.1534 14
12.843800000000002 -3.7108999999999996 2.3496 72
12.664100000000001 -3.7089999999999996 0.1534 62
12.6719 -3.7089999999999996 0.4592 240
12.523399999999999 -3.6660000000000004 0.7563 175
12.539100000000001 -3.6719 -1.3691 43
12.468800000000002 -3.6504000000000003 1.0576 64
12.5781 -3.6816000000000004 -1.0664 218
12.4375 -3.6426 1.3574000000000002 223
12.6094 -3.6914 -0.7617 98
12.593800000000002 -3.6875 1.6825999999999999 227
12.6719 -3.7089999999999996 -0.4592 88
12.6875 -3.7148000000000003 2.0098 78
12.8047 -3.75 2.3457 203
12.6406 -3.7461 0.1532 31
12.648399999999999 -3.748 0.4587 26
12.5156 -3.7108999999999996 0.7568 179
12.5156 -3.7108999999999996 -1.3672 212
12.460899999999999 -3.6933999999999996 1.0586 155
12.523399999999999 -3.7129000000000003 -1.0635 154
12.4453 -3.6895 1.3603999999999998 31
12.5156 -3.7089999999999996 -0.7568 103
12.585899999999999 -3.7305 1.6825999999999999 70
12.539100000000001 -3.7168 -0.4551 18
12.6797 -3.7598000000000003 2.0098 92
12.531199999999998 -3.7148000000000003 -0.152 5
12.7031 -3.7656 2.3281 83
12.5156 -3.7656 0.152 115
12.5547 -3.7773000000000003 0.4561 156
12.5078 -3.7637 0.7573000000000001 251
12.5078 -3.7617000000000003 -1.3681999999999999 70
12.4453 -3.7441000000000004 1.0586 70
12.523399999999999 -3.7676 -1.0645 137
12.4531 -3.7441000000000004 1.3622999999999998 55
12.5078 -3.7637 -0.7573000000000001 154
12.5703 -3.7812 1.6825999999999999 205
12.523399999999999 -3.7656 -0.4548 58
12.6406 -3.8007999999999997 2.0059 151
12.5156 -3.7656 -0.152 44
12.664100000000001 -3.8086 2.3242 151
12.5 -3.8105 0.152 255
12.5078 -3.8125 0.4548 229
12.523399999999999 -3.8183999999999996 0.7593000000000001 227
12.5156 -3.8125 -1.3700999999999999 108
12.4453 -3.7910000000000004 1.0586 232
12.5078 -3.8125 -1.0645 229
12.4531 -3.7969 1.3643 76
12.5156 -3.8145 -0.7583 103
12.5781 -3.8339999999999996 1.6865 135
12.5078 -3.8125 -0.4548 210
12.585899999999999 -3.8358999999999996 2.0 146
12.523399999999999 -3.8164 -0.1522 148
12.6094 -3.8438 2.3184 10
12.5156 -3.8535000000000004 0.1522 231
12.5078 -3.8516000000000004 0.4551 147
12.5156 -3.8555 0.7593000000000001 99
12.5156 -3.8555 -1.3721 99
12.4375 -3.8301 1.0595999999999999 103
12.5078 -3.8535000000000004 -1.0654000000000001 30
12.4453 -3.832 1.3633000000000002 139
12.5156 -3.8555 -0.7593000000000001 223
12.593800000000002 -3.8789 1.6894999999999998 51
12.5078 -3.8535000000000004 -0.45530000000000004 67
12.593800000000002 -3.8789 2.002 120
12.5156 -3.8535000000000004 -0.1522 73
12.6094 -3.8827999999999996 2.3184 73
12.5156 -3.9004000000000003 0.1523 232
12.5078 -3.8983999999999996 0.4558 229
12.5156 -3.9004000000000003 0.7598 118
12.531199999999998 -3.9062 -1.375 202
12.4453 -3.8789 1.0615 146
12.5078 -3.8983999999999996 -1.0664 127
12.4375 -3.875 1.3643 59
12.5 -3.8964999999999996 -0.7593000000000001 185
12.593800000000002 -3.9257999999999997 1.6913999999999998 142
12.523399999999999 -3.9023000000000003 -0.4561 152
12.585899999999999 -3.9219 2.0039 169
12.5078 -3.8983999999999996 -0.1523 216
12.601600000000001 -3.9276999999999997 2.3203 221
12.5 -3.9492000000000003 0.1525 161
12.5156 -3.9531 0.45649999999999996 162
12.5078 -3.9512 0.7603 204
12.5156 -3.9531 -1.375 51
12.4375 -3.9297000000000004 1.0625 228
12.5 -3.9492000000000003 -1.0674 137
12.4453 -3.9297000000000004 1.3672 41
12.5 -3.9473000000000003 -0.7598 118
12.585899999999999 -3.9745999999999997 1.6913999999999998 17
12.523399999999999 -3.9551 -0.4568 190
12.601600000000001 -3.9785000000000004 2.0078 116
12.5156 -3.9512 -0.15259999999999999 160
12.585899999999999 -3.9766000000000004 2.3203 128
12.5 -3.9961 0.15259999999999999 154
12.5156 -4.0 0.457 178
12.5078 -3.998 0.7612000000000001 111
12.5078 -3.998 -1.376 168
12.4219 -3.9726999999999997 1.0615 66
12.5156 -4.0 -1.0693000000000001 3
12.460899999999999 -3.9844 1.3700999999999999 185
12.5 -3.998 -0.7612000000000001 46
12.5703 -4.0195 1.6913999999999998 113
12.5156 -4.0 -0.457 117
12.601600000000001 -4.0273 2.0098 95
12.5078 -4.0 -0.1527 27
12.593800000000002 -4.0273 2.3242 222
12.5078 -4.0469 0.1528 188
12.5078 -4.043 0.4573 22
12.5156 -4.0469 0.7626999999999999 48
12.5078 -4.043 -1.3769999999999998 41
12.4219 -4.0156 1.0625 234
12.5 -4.043 -1.0693000000000001 50
12.476600000000001 -4.0352 1.374 7
12.5 -4.043 -0.7617 120
12.5703 -4.0664 1.6943000000000001 120
12.5078 -4.043 -0.4573 171
12.585899999999999 -4.0703 2.0117 230
12.5156 -4.0469 -0.153 10
12.593800000000002 -4.0742 2.3262 51
12.5078 -4.0898 0.1531 212
12.5078 -4.0898 0.4575 109
12.5156 -4.0938 0.7637 142
12.5156 -4.0938 -1.3799000000000001 134
12.4375 -4.0664 1.0654000000000001 179
12.5 -4.0898 -1.0703 186
12.476600000000001 -4.0781 1.375 157
12.5078 -4.0898 -0.7626999999999999 249
12.585899999999999 -4.1133 1.6972999999999998 106
12.523399999999999 -4.0938 -0.4583 228
12.5781 -4.1133 2.0117 28
12.5078 -4.0898 -0.1531 237
12.593800000000002 -4.1211 2.3301 70
12.5156 -4.1445 0.1532 5
12.5 -4.1367 0.45799999999999996 60
12.5078 -4.1406 0.7642 112
12.523399999999999 -4.1445 -1.3818000000000001 192
12.4453 -4.1211 1.0674 220
12.4922 -4.1367 -1.0713 51
12.5078 -4.1406 1.3809 230
12.5 -4.1367 -0.7631999999999999 72
12.585899999999999 -4.168 1.6991999999999998 215
12.523399999999999 -4.1484 -0.45899999999999996 248
12.585899999999999 -4.168 2.0156 193
12.5 -4.1406 -0.1531 224
12.585899999999999 -4.168 2.3301 42
12.5078 -4.1914 0.1533 144
12.4922 -4.1875 0.4585 221
12.5 -4.1875 0.7642 247
12.5078 -4.1914 -1.3818000000000001 17
12.4375 -4.1641 1.0674 112
12.5156 -4.1953 -1.0752 173
12.5547 -4.207 1.3866999999999998 70
12.4844 -4.1836 -0.7637 140
12.5781 -4.2109 1.7002000000000002 216
12.531199999999998 -4.1953 -0.4597 142
12.593800000000002 -4.2188 2.0195 121
12.5078 -4.1875 -0.1533 4
12.5781 -4.2148 2.332 74
12.4922 -4.2383 0.1534 189
12.5 -4.2383 0.45899999999999996 87
12.5078 -4.2383 0.7656000000000001 117
12.5078 -4.2383 -1.3828 158
12.4297 -4.2148 1.0684 139
12.5156 -4.2422 -1.0762 112
12.5781 -4.2656 1.3916 191
12.4922 -4.2344 -0.7646 111
12.5703 -4.2617 1.7021000000000002 217
12.523399999999999 -4.2461 -0.46 66
12.593800000000002 -4.2695 2.0215 69
12.5 -4.2383 -0.1534 150
12.5781 -4.2656 2.334 78
12.4844 -4.2812 0.1534 122
12.4922 -4.2852 0.4595 152
12.5078 -4.2891 0.7666 80
12.414100000000001 -4.2578 -1.375 43
12.406199999999998 -4.2539 1.0684 132
12.4844 -4.2812 -1.0752 35
12.585899999999999 -4.3164 1.3944999999999999 83
12.5 -4.2852 -0.7661 222
12.539100000000001 -4.3008 1.7002000000000002 97
12.5078 -4.2891 -0.46 3
12.593800000000002 -4.3203 2.0234 240
12.5078 -4.2891 -0.1537 125
12.593800000000002 -4.3164 2.3398 88
12.4922 -4.332 0.1537 15
12.4844 -4.332 0.4597 208
12.5078 -4.3398 0.7676000000000001 132
12.3906 -4.3008 -1.374 192
12.4375 -4.3125 1.0713 180
12.375 -4.293 -1.0664 121
12.593800000000002 -4.3672 1.3965 189
12.398399999999999 -4.3008 -0.7612000000000001 221
12.5469 -4.3516 1.7031 215
12.468800000000002 -4.3242 -0.45899999999999996 57
12.5703 -4.3594 2.0234 105
12.4922 -4.332 -0.1537 35
12.593800000000002 -4.3672 2.3438 3
12.414100000000001 -4.3555 0.153 192
12.460899999999999 -4.3711 0.4592 249
12.4844 -4.3789 0.7670999999999999 136
12.4922 -4.3828 -1.3866999999999998 100
12.4297 -4.3594 1.0723 96
12.3672 -4.3398 -1.0674 240
12.5547 -4.4062 1.3944999999999999 164
12.375 -4.3398 -0.7603 131
12.539100000000001 -4.3984 1.7041 153
12.4219 -4.3555 -0.4578 52
12.5781 -4.4141 2.0254 105
12.398399999999999 -4.3477 -0.1527 95
12.585899999999999 -4.4141 2.3438 59
3.8202999999999996 -1.3535 -0.7075 35
12.406199999999998 -4.3945 0.1531 177
3.8926 -1.3788999999999998 -0.6235 223
12.406199999999998 -4.3945 0.4578 54
12.406199999999998 -4.3945 0.7631999999999999 12
12.5156 -4.4336 -1.3906 166
12.4297 -4.4062 1.0732 172
12.5 -4.4297 -1.0791 238
12.4453 -4.4062 1.3828 242
12.4531 -4.4102 -0.7656000000000001 132
12.4844 -4.4219 1.6982 190
12.414100000000001 -4.3984 -0.4583 235
12.5156 -4.4336 2.0195 254
12.3906 -4.3906 -0.1528 171
12.523399999999999 -4.4375 2.3359 129
3.832 -1.3721 -0.71 1
12.3906 -4.4375 0.1531 182
3.8398000000000003 -1.375 -0.6152000000000001 63
12.4219 -4.4453 0.45899999999999996 188
3.8438 -1.376 -0.5195000000000001 233
12.414100000000001 -4.4453 0.7646 122
3.8574 -1.3809 -0.426 249
12.4297 -4.4492 1.0742 3
12.4375 -4.4531 1.3838 152
12.4922 -4.4727 -0.7695000000000001 224
12.460899999999999 -4.4609 1.6972999999999998 129
12.5156 -4.4805 -0.46240000000000003 151
12.5078 -4.4805 2.0195 93
12.5 -4.4766 -0.1543 177
12.4844 -4.4727 2.332 31
3.7773000000000003 -1.3691 -0.7012 48
12.4531 -4.5117 0.1539 113
3.793 -1.375 -0.6089 89
12.4375 -4.5078 0.46020000000000005 104
3.8281 -1.3877000000000002 -0.5186 62
12.4297 -4.5039 0.7666 116
12.414100000000001 -4.4961 1.0742 205
3.8358999999999996 -1.3906 -0.3296 115
12.4375 -4.5078 1.3857 31
12.460899999999999 -4.5156 1.6991999999999998 230
12.5 -4.5312 -0.46259999999999996 127
12.5 -4.5312 2.0215 255
12.5 -4.5312 -0.1547 151
12.4844 -4.5234 2.334 82
3.7324 -1.3672 -0.6934 99
12.4922 -4.5781 0.1547 170
3.7676 -1.3799000000000001 -0.605 184
12.4844 -4.5742 0.46240000000000003 51
3.7714999999999996 -1.3818000000000001 -0.5112 235
12.5 -4.582 0.772 69
3.8086 -1.3955000000000002 -0.4216 193
12.414100000000001 -4.5508 1.0762 134
3.8281 -1.4022999999999999 -0.3293 44
12.5547 -4.5977 1.4003999999999999 16
3.8613 -1.415 -0.2366 195
12.539100000000001 -4.5938 1.7128999999999999 234
12.5547 -4.5977 2.0312 21
12.5 -4.5781 -0.1548 131
12.5625 -4.6016 2.3516 164
3.6797000000000004 -1.3622999999999998 -0.6846 25
12.5 -4.6289 0.155 100
3.7129000000000003 -1.375 -0.5972 225
12.4844 -4.625 0.4631 37
3.7305 -1.3809 -0.5063 215
12.4922 -4.625 0.7725 154
3.7714999999999996 -1.3965 -0.4182 134
12.4219 -4.6016 1.0791 187
3.7832 -1.4013999999999998 -0.3259 135
12.5703 -4.6523 1.4043 218
3.832 -1.4188999999999998 -0.2351 139
12.5703 -4.6523 1.7187999999999999 154
3.8789 -1.4365 -0.1426 78
12.5781 -4.6562 2.0391 154
12.4922 -4.625 -0.1549 104
12.5781 -4.6562 2.3574 226
3.6348000000000003 -1.3603999999999998 -0.6768000000000001 208
12.4844 -4.6719 0.155 180
3.6738 -1.375 -0.5918 250
12.4922 -4.6758 0.46409999999999996 83
3.6836 -1.3788999999999998 -0.5005 40
12.4844 -4.6719 0.7729 115
3.7226999999999997 -1.3925999999999998 -0.4131 110
12.414100000000001 -4.6445 1.0791 255
3.7363 -1.3984 -0.322 10
12.5703 -4.707 1.4062000000000001 233
3.7637 -1.4091999999999998 -0.23120000000000002 84
12.5625 -4.7031 1.7197 33
3.8398000000000003 -1.4375 -0.1414 180
12.5703 -4.7031 2.0391 243
12.5 -4.6758 -0.1552 215
12.5625 -4.7031 2.3574 241
3.5957 -1.3594 -0.6704000000000001 60
12.4844 -4.7227 0.1552 142
3.625 -1.3700999999999999 -0.5845 192
12.4922 -4.7227 0.4646 0
3.6543 -1.3809 -0.4968 47
12.4844 -4.7227 0.7739 143
3.6719 -1.3887 -0.408 197
12.406199999999998 -4.6914 1.0801 140
3.6895 -1.3955000000000002 -0.3186 142
12.5781 -4.7539 1.4082 63
3.7108999999999996 -1.4033000000000002 -0.2281 146
12.5625 -4.75 1.7216999999999998 198
3.7988 -1.4365 -0.14 208
12.5781 -4.7539 2.043 186
12.5 -4.7266 -0.15539999999999998 26
12.5625 -4.75 2.3613 81
3.5370999999999997 -1.3506 -0.6602 35
12.4844 -4.7656 0.15539999999999998 141
3.5801 -1.3672 -0.5776 64
12.4844 -4.7695 0.4648 68
3.6035000000000004 -1.376 -0.4907 207
12.5078 -4.7773 0.7764 186
3.623 -1.3838 -0.4031 19
12.406199999999998 -4.7383 1.0811 161
3.6387 -1.3896000000000002 -0.3145 14
12.5781 -4.8008 1.4102000000000001 4
3.6776999999999997 -1.4043 -0.22640000000000002 203
12.5703 -4.8008 1.7246000000000001 127
3.7401999999999997 -1.4277000000000002 -0.1381 51
12.5625 -4.7969 2.0449 79
12.5078 -4.7773 -0.15560000000000002 172
12.5625 -4.7969 2.3652 251
3.5077999999999996 -1.3544999999999998 -0.6557999999999999 200
12.4844 -4.8203 0.15560000000000002 134
3.5391000000000004 -1.3662 -0.5722999999999999 3
12.476600000000001 -4.8164 0.46509999999999996 199
3.5547000000000004 -1.3721 -0.48460000000000003 77
12.4922 -4.8242 0.7764 57
3.5976999999999997 -1.3887 -0.40090000000000003 212
12.4219 -4.793 1.084 180
3.6016000000000004 -1.3906 -0.3118 116
12.5781 -4.8555 1.4121000000000001 93
3.6562 -1.4111000000000002 -0.2253 223
12.5625 -4.8516 1.7275 142
3.7168 -1.4346 -0.1373 210
12.5625 -4.8477 2.0469 212
12.4844 -4.8203 -0.15560000000000002 21
12.5625 -4.8516 2.3672 114
3.4882999999999997 -1.3603999999999998 -0.6528 205
12.4922 -4.8711 0.1559 216
3.5117000000000003 -1.3700999999999999 -0.5684 56
12.476600000000001 -4.8672 0.4658 176
3.5137 -1.3700999999999999 -0.47950000000000004 33
12.4922 -4.8711 0.7773 129
3.5605 -1.3887 -0.397 246
12.4219 -4.8438 1.085 170
3.5645 -1.3906 -0.30879999999999996 123
12.5625 -4.8984 1.4121000000000001 75
3.5858999999999996 -1.3994 -0.2213 89
12.5625 -4.9023 1.7294999999999998 84
3.6895 -1.4394999999999998 -0.1365 218
12.5625 -4.8984 2.0488 176
12.476600000000001 -4.8672 -0.1558 68
12.5547 -4.8984 2.3691 56
3.4297000000000004 -1.3516 -0.6426000000000001 104
12.476600000000001 -4.9141 0.1559 203
12.476600000000001 -4.9141 0.46659999999999996 187
3.4824 -1.3721 -0.47609999999999997 0
12.4844 -4.918 0.7783 103
3.5117000000000003 -1.3838 -0.3921 83
12.4219 -4.8945 1.0869 239
3.5273000000000003 -1.3896000000000002 -0.3059 243
12.5703 -4.9492 1.415 27
3.5526999999999997 -1.3994 -0.2195 255
12.5547 -4.9453 1.7305000000000001 88
3.6172000000000004 -1.4247999999999998 -0.13390000000000002 6
12.5703 -4.9492 2.0527 239
12.4844 -4.918 -0.156 95
12.5547 -4.9453 2.373 119
3.4043 -1.3535 -0.6386999999999999 165
12.468800000000002 -4.9609 0.156 217
3.4120999999999997 -1.3574000000000002 -0.5532 29
12.5 -4.9727 0.4678 152
3.4492000000000003 -1.3721 -0.4719 163
12.4844 -4.9688 0.7793000000000001 2
3.4648000000000003 -1.3779 -0.3875 154
12.414100000000001 -4.9375 1.0879 162
3.498 -1.3916 -0.304 27
12.5703 -5.0 1.4180000000000001 9
3.5058999999999996 -1.3944999999999999 -0.2169 105
12.5469 -4.9883 1.7313999999999998 129
3.6132999999999997 -1.4365 -0.13390000000000002 116
12.5703 -5.0 2.0566 32
12.5625 -4.9961 2.377 39
3.3848000000000003 -1.3613 -0.6357 93
12.4922 -5.0234 0.1566 121
3.3848000000000003 -1.3613 -0.5498 243
12.476600000000001 -5.0195 0.4678 131
3.4101999999999997 -1.3721 -0.4673 88
12.5 -5.0273 0.7812 153
3.4395 -1.3838 -0.385 171
12.398399999999999 -4.9883 1.0879 139
3.4433999999999996 -1.3847999999999998 -0.29960000000000003 138
12.5703 -5.0586 1.4199000000000002 233
3.4785000000000004 -1.3994 -0.2155 210
12.5469 -5.0469 1.7334 103
3.5702999999999996 -1.4355000000000002 -0.1326 37
12.5547 -5.0508 2.0566 232
3.7832 -1.5215 -0.046799999999999994 203
12.5703 -5.0547 2.3809 195
3.3358999999999996 -1.3555000000000001 -0.6274000000000001 46
4.3477 -1.7666 0.054000000000000006 21
3.3535000000000004 -1.3622999999999998 -0.5454 89
12.460899999999999 -5.0625 0.4678 237
3.373 -1.3700999999999999 -0.46259999999999996 214
12.4844 -5.0703 0.7812 157
3.3945 -1.3788999999999998 -0.3804 112
12.406199999999998 -5.043 1.0908 130
3.4160000000000004 -1.3877000000000002 -0.29760000000000003 54
12.5078 -5.082 1.4141 35
3.4433999999999996 -1.3994 -0.21359999999999998 237
12.523399999999999 -5.0859 1.7334 251
3.5098000000000003 -1.4258000000000002 -0.1305 20
12.5547 -5.0977 2.0586 214
3.6973000000000003 -1.5019999999999998 -0.0458 104
12.5625 -5.1016 2.3828 127
3.2988 -1.3525 -0.6211 55
4.3086 -1.7666 0.0536 250
3.3339999999999996 -1.3681999999999999 -0.5429999999999999 251
12.343800000000002 -5.0625 0.46409999999999996 239
12.3672 -5.0703 0.7748999999999999 165
3.375 -1.3838 -0.3789 222
12.3906 -5.082 1.0908 123
3.373 -1.3838 -0.2942 223
12.3906 -5.082 1.4022999999999999 185
3.3983999999999996 -1.3936000000000002 -0.21109999999999998 141
12.406199999999998 -5.0859 1.7187999999999999 147
3.5039 -1.4375 -0.1305 108
12.4375 -5.1016 2.043 247
3.6113 -1.4813999999999998 -0.0447 167
12.468800000000002 -5.1133 2.3691 75
3.2577999999999996 -1.3486000000000002 -0.6143 60
12.2969 -5.0938 0.1548 75
3.3047000000000004 -1.3681999999999999 -0.5390999999999999 231
12.2578 -5.0742 0.46140000000000003 0
3.3066000000000004 -1.3691 -0.4548 119
12.218800000000002 -5.0586 0.7666 179
3.3438 -1.3838 -0.3757 244
12.2656 -5.0781 1.0801 139
3.3438 -1.3847999999999998 -0.292 87
12.2578 -5.0742 1.3896000000000002 128
3.375 -1.3965 -0.20980000000000001 99
12.289100000000001 -5.0859 1.7050999999999998 242
3.4805 -1.4413999999999998 -0.1298 201
12.3203 -5.1016 2.0273 95
3.5586 -1.4736000000000002 -0.0441 173
12.3281 -5.1055 2.3457 34
3.2305 -1.3516 -0.6099 214
3.2558999999999996 -1.3622999999999998 -0.5317000000000001 186
3.2539 -1.3613 -0.4482 32
12.0781 -5.0547 0.7593000000000001 38
3.2910000000000004 -1.3769999999999998 -0.3704 220
12.1328 -5.0742 1.0703 168
3.3202999999999996 -1.3896000000000002 -0.2903 62
12.148399999999999 -5.082 1.3788999999999998 222
3.332 -1.3936000000000002 -0.20739999999999997 97
12.1406 -5.0781 1.6875 68
3.4766000000000004 -1.4541 -0.1298 185
12.1875 -5.0977 2.0078 33
3.5137 -1.4697 -0.0436 153
12.210899999999999 -5.1055 2.3262 218
3.1992000000000003 -1.3516 -0.605 166
4.3867 -1.8525 0.0548 158
3.2188 -1.3594 -0.5264 225
4.3711 -1.8457 0.1638 39
3.2129000000000003 -1.3574000000000002 -0.44310000000000005 34
11.960899999999999 -5.0547 0.7529 40
3.2598000000000003 -1.3769999999999998 -0.3674 233
11.976600000000001 -5.0586 1.0586 78
3.2695 -1.3818000000000001 -0.2864 236
12.0078 -5.0703 1.3652000000000002 111
3.2969 -1.3925999999999998 -0.20559999999999998 122
12.031199999999998 -5.082 1.6747999999999998 216
12.0703 -5.0977 1.9912 3
3.457 -1.4609 -0.043 109
12.101600000000001 -5.1133 2.3086 187
3.1719 -1.3535 -0.6006 20
11.906199999999998 -5.0781 0.15039999999999998 251
3.1933999999999996 -1.3622999999999998 -0.5229 67
11.8828 -5.0664 0.44920000000000004 80
3.2089999999999996 -1.3691 -0.4434 17
11.8906 -5.0742 0.7495 212
3.2401999999999997 -1.3818000000000001 -0.3657 100
11.898399999999999 -5.0781 1.0537 193
3.2305 -1.3779 -0.2832 57
11.9219 -5.0859 1.3574000000000002 190
3.2637 -1.3916 -0.20370000000000002 84
11.906199999999998 -5.0781 1.6602000000000001 189
11.9297 -5.0859 1.9707 217
3.4004000000000003 -1.4512 -0.042300000000000004 42
11.968800000000002 -5.1055 2.2871 83
3.125 -1.3457 -0.5922999999999999 85
11.898399999999999 -5.125 0.1506 245
3.1660000000000004 -1.3643 -0.5195000000000001 126
11.875 -5.1133 0.4497 8
3.1699 -1.3652000000000002 -0.4385 188
11.8906 -5.1211 0.7505 24
11.9219 -5.1328 1.0566 186
3.1973000000000003 -1.3769999999999998 -0.2805 139
11.906199999999998 -5.125 1.3574000000000002 14
3.2324 -1.3925999999999998 -0.2021 94
11.898399999999999 -5.1211 1.6602000000000001 160
3.2949 -1.4188999999999998 -0.1235 83
11.8906 -5.1211 1.9678 64
3.3398000000000003 -1.4385 -0.0416 64
11.906199999999998 -5.1289 2.2773 161
3.0938 -1.3457 -0.5874 137
11.8828 -5.167999999999999 0.1506 125
3.1464999999999996 -1.3681999999999999 -0.5166 137
11.8828 -5.1640999999999995 0.4507 58
3.1367000000000003 -1.3633000000000002 -0.4343 58
11.8906 -5.171900000000001 0.752 78
3.1483999999999996 -1.3691 -0.35619999999999996 144
11.906199999999998 -5.175800000000001 1.0566 205
3.1757999999999997 -1.3809 -0.2791 89
11.906199999999998 -5.175800000000001 1.3603999999999998 237
3.1952999999999996 -1.3896000000000002 -0.20010000000000003 88
11.8828 -5.1640999999999995 1.6611000000000002 76
3.2637 -1.4199000000000002 -0.1225 216
11.898399999999999 -5.175800000000001 1.9727000000000001 19
3.3047000000000004 -1.4365 -0.0412 133
11.8906 -5.167999999999999 2.2773 141
3.0605 -1.3437999999999999 -0.5820000000000001 123
11.875 -5.2148 0.1508 42
3.1094 -1.3652000000000002 -0.5112 68
11.875 -5.2148 0.4512 165
3.1035000000000004 -1.3622999999999998 -0.4307 111
11.8906 -5.2188 0.7524 196
3.1308999999999996 -1.374 -0.3547 41
11.8906 -5.2227 1.0576 97
3.1464999999999996 -1.3809 -0.2771 25
11.898399999999999 -5.2227 1.3613 172
3.168 -1.3906 -0.1986 251
11.875 -5.2148 1.6631 54
3.1933999999999996 -1.4022999999999999 -0.12 52
11.8906 -5.2188 1.9736000000000002 86
3.2793 -1.4394999999999998 -0.040999999999999995 76
11.8906 -5.2188 2.2832 128
3.0410000000000004 -1.3477000000000001 -0.5791 240
11.8906 -5.269500000000001 0.15109999999999998 142
3.0625 -1.3574000000000002 -0.5044 129
11.875 -5.261699999999999 0.45189999999999997 221
3.082 -1.3652000000000002 -0.428 244
11.8906 -5.269500000000001 0.7544 199
3.1094 -1.3779 -0.3528 45
11.8906 -5.269500000000001 1.0586 174
3.1055 -1.376 -0.2737 193
11.898399999999999 -5.2734000000000005 1.3633000000000002 133
3.1504000000000003 -1.3965 -0.1979 89
11.8672 -5.261699999999999 1.665 83
3.1895 -1.4131 -0.12 117
11.898399999999999 -5.2734000000000005 1.9775 125
3.248 -1.4385 -0.0406 117
11.8828 -5.265599999999999 2.2852 112
3.0214999999999996 -1.3516 -0.5761999999999999 247
11.8828 -5.3164 0.1512 127
3.0370999999999997 -1.3584 -0.501 44
11.8594 -5.3047 0.45189999999999997 120
3.043 -1.3603999999999998 -0.42310000000000003 90
11.8906 -5.3203 0.7554000000000001 216
3.0839999999999996 -1.3799000000000001 -0.3506 217
11.8906 -5.3203 1.0605 213
11.898399999999999 -5.3203 1.3652000000000002 161
3.1191000000000004 -1.3944999999999999 -0.196 27
11.8828 -5.3164 1.6688999999999998 141
3.125 -1.3984 -0.1177 201
11.8828 -5.3164 1.9785 251
3.2129000000000003 -1.4375 -0.0403 84
11.8906 -5.3203 2.2891 143
2.9844 -1.3477000000000001 -0.5703 128
11.8906 -5.3672 0.1517 35
3.0137 -1.3603999999999998 -0.4976 26
11.8672 -5.359400000000001 0.4531 226
3.0098000000000003 -1.3594 -0.4194 199
11.8828 -5.3672 0.7559 52
3.043 -1.374 -0.3464 8
11.8906 -5.3672 1.0625 26
3.0273000000000003 -1.3662 -0.2676 188
11.8906 -5.3672 1.3662 157
3.0742000000000003 -1.3877000000000002 -0.1935 154
11.8906 -5.3711 1.6728999999999998 44
3.1797000000000004 -1.4355000000000002 -0.12 151
11.8828 -5.3672 1.9813999999999998 33
3.1797000000000004 -1.4355000000000002 -0.039900000000000005 23
11.8828 -5.3672 2.293 90
2.9551 -1.3466999999999998 -0.5654 57
11.875 -5.4140999999999995 0.1517 93
2.9863 -1.3613 -0.4939 251
11.8906 -5.417999999999999 0.4543 111
2.9901999999999997 -1.3633000000000002 -0.4172 6
11.8828 -5.4140999999999995 0.7568 170
3.0176 -1.375 -0.344 223
11.8906 -5.421900000000001 1.0645 123
3.0233999999999996 -1.3779 -0.26780000000000004 239
11.8906 -5.421900000000001 1.3691 10
3.0410000000000004 -1.3857 -0.1918 51
11.8828 -5.417999999999999 1.6747999999999998 6
3.1738 -1.4463 -0.12 63
11.8906 -5.421900000000001 1.9863 104
3.1445 -1.4325999999999999 -0.0395 38
11.8828 -5.4140999999999995 2.2949 84
2.9276999999999997 -1.3457 -0.5605 53
11.8828 -5.4609000000000005 0.152 185
2.957 -1.3584 -0.48969999999999997 120
11.8906 -5.4648 0.45530000000000004 48
2.9629000000000003 -1.3613 -0.41409999999999997 45
11.8828 -5.4609000000000005 0.7583 184
2.9863 -1.3721 -0.3408 84
11.8906 -5.4609000000000005 1.0654000000000001 23
3.0214999999999996 -1.3887 -0.26780000000000004 163
11.898399999999999 -5.4688 1.3721 250
3.0214999999999996 -1.3877000000000002 -0.1907 68
11.875 -5.457000000000001 1.6758000000000002 20
3.0957 -1.4228999999999998 -0.11720000000000001 126
11.898399999999999 -5.4688 1.9912 3
3.123 -1.4355000000000002 -0.0393 30
11.8828 -5.4609000000000005 2.2988 203
2.9043 -1.3457 -0.5571 122
11.875 -5.5039 0.1522 163
2.9297000000000004 -1.3574000000000002 -0.4858 41
11.8828 -5.5078 0.4556 244
2.9452999999999996 -1.3652000000000002 -0.4121 153
11.8906 -5.511699999999999 0.7598 243
2.9648000000000003 -1.374 -0.3389 27
11.875 -5.5078 1.0654000000000001 28
2.9824 -1.3828 -0.26489999999999997 140
11.914100000000001 -5.519500000000001 1.375 176
3.002 -1.3916 -0.1898 168
11.875 -5.5039 1.6777000000000002 228
3.0410000000000004 -1.4102000000000001 -0.1152 5
11.898399999999999 -5.515599999999999 1.9922 46
3.0898000000000003 -1.4325999999999999 -0.038900000000000004 75
11.8906 -5.511699999999999 2.3027 126
2.8789 -1.3477000000000001 -0.5532 53
3.8047000000000004 -1.7812000000000001 0.0482 165
2.9141000000000004 -1.3633000000000002 -0.4841 221
11.8672 -5.5547 0.4556 111
2.9004000000000003 -1.3574000000000002 -0.40619999999999995 98
11.8906 -5.5664 0.7612000000000001 203
2.9473000000000003 -1.3788999999999998 -0.33740000000000003 196
11.8828 -5.5625 1.0684 131
2.9355 -1.374 -0.261 133
11.8906 -5.5664 1.375 159
11.875 -5.5586 1.6816 59
3.0293 -1.4169999999999998 -0.115 4
11.8906 -5.5625 1.9950999999999999 224
3.0566000000000004 -1.4306999999999999 -0.038599999999999995 4
11.898399999999999 -5.5664 2.3086 48
2.8379000000000003 -1.3397999999999999 -0.5459 252
3.6367000000000003 -1.7178 0.0461 210
2.8789 -1.3594 -0.479 90
11.875 -5.609400000000001 0.4568 93
2.877 -1.3584 -0.40380000000000005 41
11.875 -5.609400000000001 0.7617 192
2.918 -1.3779 -0.3345 215
11.8906 -5.613300000000001 1.0703 90
2.9101999999999997 -1.375 -0.2593 226
11.8828 -5.613300000000001 1.3769999999999998 130
2.9414 -1.3887 -0.1865 95
11.875 -5.609400000000001 1.6846 136
3.0195 -1.4268 -0.1148 150
11.8828 -5.613300000000001 1.9971 166
3.0273000000000003 -1.4297 -0.0382 25
11.8828 -5.609400000000001 2.3086 169
2.8047000000000004 -1.3359 -0.5405 21
3.5370999999999997 -1.6855000000000002 0.0449 234
2.8516000000000004 -1.3594 -0.4753 192
11.8828 -5.6602 0.4578 4
2.8555 -1.3613 -0.40159999999999996 222
11.875 -5.6602 0.7626999999999999 253
2.8906 -1.3779 -0.332 40
11.8906 -5.667999999999999 1.0723 38
2.8789 -1.3721 -0.2568 112
11.8906 -5.6640999999999995 1.3799000000000001 193
2.8926 -1.3788999999999998 -0.1837 127
11.8672 -5.6562 1.6855000000000002 90
2.9863 -1.4228999999999998 -0.1137 225
11.8906 -5.6640999999999995 2.002 22
2.998 -1.4287 -0.0379 3
11.875 -5.6562 2.3105 27
2.7870999999999997 -1.3397999999999999 -0.5381 220
3.4082 -1.6387 0.0433 37
2.8007999999999997 -1.3466999999999998 -0.4675 86
11.875 -5.7109000000000005 0.4585 11
2.8339999999999996 -1.3622999999999998 -0.39890000000000003 143
11.8828 -5.7109000000000005 0.7642 184
2.8457 -1.3681999999999999 -0.3271 112
11.8906 -5.7188 1.0742 242
2.8613 -1.376 -0.2556 33
11.8906 -5.7188 1.3818000000000001 35
2.9004000000000003 -1.3944999999999999 -0.18460000000000001 186
11.8672 -5.707000000000001 1.6885 45
2.9668 -1.4268 -0.11320000000000001 69
11.8906 -5.7148 2.0039 69
2.9901999999999997 -1.4375 -0.0379 98
11.875 -5.7109000000000005 2.3164 208
2.7637 -1.3408000000000002 -0.5342 220
3.3906 -1.6444999999999999 0.0432 135
2.7793 -1.3477000000000001 -0.4644 186
11.875 -5.761699999999999 0.45899999999999996 56
2.8145 -1.3652000000000002 -0.397 146
11.8828 -5.765599999999999 0.7656000000000001 64
2.8262 -1.3711000000000002 -0.32539999999999997 4
11.875 -5.761699999999999 1.0752 4
2.8398000000000003 -1.3779 -0.25420000000000004 52
11.8906 -5.769500000000001 1.3847999999999998 5
2.8535000000000004 -1.3847999999999998 -0.1819 236
11.8672 -5.7578 1.6913999999999998 169
2.8535000000000004 -1.3847999999999998 -0.10890000000000001 83
11.8828 -5.765599999999999 2.0078 162
2.9589999999999996 -1.4355000000000002 -0.0375 220
11.8828 -5.765599999999999 2.3223 143
2.748 -1.3447 -0.5317000000000001 85
3.3945 -1.6621000000000001 0.0433 117
2.7558999999999996 -1.3486000000000002 -0.46140000000000003 11
11.8672 -5.8086 0.4595 28
2.7891000000000004 -1.3652000000000002 -0.39380000000000004 244
11.8828 -5.8164 0.7670999999999999 148
2.7910000000000004 -1.3662 -0.322 239
11.8828 -5.8164 1.0771 126
2.8066000000000004 -1.374 -0.25170000000000003 243
11.8828 -5.8164 1.3857 58
2.8418 -1.3916 -0.1814 113
11.875 -5.8125 1.6953 19
2.8672000000000004 -1.4033000000000002 -0.1097 219
11.875 -5.8125 2.0098 230
2.9257999999999997 -1.4325999999999999 -0.037200000000000004 187
11.8906 -5.8203 2.3281 105
2.7305 -1.3486000000000002 -0.5293 10
3.3339999999999996 -1.6465 0.0426 166
2.7558999999999996 -1.3613 -0.46240000000000003 120
11.875 -5.863300000000001 0.4607 206
2.7441000000000004 -1.3555000000000001 -0.3882 152
11.8828 -5.8672 0.7681 3
2.7870999999999997 -1.3769999999999998 -0.3223 108
11.8828 -5.8672 1.0791 193
2.7851999999999997 -1.375 -0.25 200
11.875 -5.863300000000001 1.3877000000000002 226
2.8164 -1.3906 -0.1801 201
11.875 -5.863300000000001 1.6982 185
2.8476999999999997 -1.4062000000000001 -0.1091 111
11.8828 -5.8672 2.0156 180
2.8827999999999996 -1.4238 -0.036699999999999997 186
11.875 -5.863300000000001 2.3281 140
2.6719 -1.3300999999999998 -0.5186 222
3.2656 -1.6269999999999998 0.0417 104
2.7129000000000003 -1.3516 -0.4556 85
11.875 -5.9140999999999995 0.46140000000000003 132
11.8672 -5.9140999999999995 0.769 59
2.7676 -1.3779 -0.32030000000000003 206
11.875 -5.9140999999999995 1.0801 39
2.7637 -1.3769999999999998 -0.24850000000000003 153
11.8828 -5.921900000000001 1.3906 39
2.7851999999999997 -1.3866999999999998 -0.1783 205
11.875 -5.9140999999999995 1.7012 206
2.8574 -1.4228999999999998 -0.1097 132
11.8906 -5.921900000000001 2.0195 132
2.8691000000000004 -1.4297 -0.0366 44
11.8828 -5.917999999999999 2.334 82
2.6641000000000004 -1.3388999999999998 -0.5186 29
3.2188 -1.6172 0.0412 110
2.6895 -1.3516 -0.4524 165
11.8828 -5.9688 0.46240000000000003 167
11.8672 -5.9648 0.7705 9
