# .PCD v0.7 - Point Cloud Data file format
VERSION 0.7
FIELDS x y z intensity
SIZE 4 4 4 4
TYPE F F F F
COUNT 1 1 1 1
WIDTH 1397
HEIGHT 1
VIEWPOINT 0 0 0 1 0 0 0
POINTS 1397
DATA ascii
10.5781 11.3828 -1.2656 189
13.3672 14.3906 -1.1396 211
19.6875 21.1875 -1.0088 184
21.9219 23.5938 -0.3757 195
5.609400000000001 5.9961 -1.4404 221
6.3711 6.8086 -1.415 169
7.386699999999999 7.894500000000001 -1.3847999999999998 69
21.9688 23.4844 1.8681999999999999 248
8.7188 9.3125 -1.3359 249
10.6094 11.335899999999999 -1.2646 44
13.4375 14.3594 -1.1416 90
19.7812 21.125 -1.0088 20
25.5156 27.2656 -0.43579999999999997 32
5.6211 5.9648 -1.4375 225
25.625 27.1875 0.436 15
6.4023 6.792999999999999 -1.4169999999999998 241
25.5625 27.125 1.2997999999999998 24
7.421900000000001 7.875 -1.3866999999999998 145
25.3906 26.9531 2.1523 185
8.7734 9.3047 -1.3397999999999999 133
10.656199999999998 11.3125 -1.2656 125
13.4844 14.3047 -1.1416 120
19.8906 21.0938 -1.0107 62
5.644500000000001 5.949199999999999 -1.4385 101
25.7812 27.1719 0.43729999999999997 0
6.4609000000000005 6.8086 -1.4247999999999998 163
25.7344 27.1094 1.3037 67
7.4648 7.863300000000001 -1.3896000000000002 72
25.5469 26.9219 2.1562 71
8.7969 9.2734 -1.3388999999999998 134
10.710899999999999 11.289100000000001 -1.2676 154
13.523399999999999 14.25 -1.1406 42
20.0 21.0781 -1.0127 29
5.667999999999999 5.9297 -1.4394999999999998 130
25.9688 27.1719 0.4385 7
6.488300000000001 6.7890999999999995 -1.4258000000000002 102
25.9062 27.1094 1.3075999999999999 120
7.511699999999999 7.859400000000001 -1.3925999999999998 180
25.7344 26.9375 2.1641 245
8.8594 9.2656 -1.3428 163
10.781199999999998 11.281199999999998 -1.2705 196
13.6328 14.2656 -1.1455 164
55.4375 58.0312 10.3203 244
5.703099999999999 5.925800000000001 -1.4434 73
26.1875 27.2188 0.4409 210
6.515599999999999 6.7734000000000005 -1.4268 96
26.0469 27.0781 1.3105000000000002 134
7.5547 7.8515999999999995 -1.3955000000000002 141
25.9062 26.9219 2.1719 65
8.8906 9.2422 -1.3428 50
10.7969 11.218800000000002 -1.2686 9
13.6953 14.226600000000001 -1.1465 112
5.738300000000001 5.925800000000001 -1.4472999999999998 94
26.1562 27.0156 0.439 104
6.542999999999999 6.7539 -1.4277000000000002 86
26.1406 26.9844 1.3105000000000002 101
7.5859000000000005 7.8359000000000005 -1.3975 150
26.0781 26.9375 2.1797 111
8.9375 9.2344 -1.3457 226
10.843800000000002 11.1953 -1.2695 133
13.7422 14.1875 -1.1465 200
20.3906 21.0469 -1.0215 70
5.7578 5.9062 -1.4472999999999998 6
6.5898 6.761699999999999 -1.4336000000000002 253
26.2344 26.9219 1.3105000000000002 52
7.625 7.8203 -1.3994 242
26.2656 26.9375 2.1855 241
8.9922 9.2266 -1.3496000000000001 52
10.914100000000001 11.1953 -1.2734 228
13.8047 14.156199999999998 -1.1475 22
20.5781 21.1094 -1.0273 137
5.7812 5.886699999999999 -1.4472999999999998 221
26.5469 27.0312 0.4421 154
6.6172 6.738300000000001 -1.4336000000000002 107
26.4531 26.9375 1.3163999999999998 73
7.667999999999999 7.8086 -1.4022999999999999 104
26.4375 26.9219 2.1934 95
9.0312 9.1953 -1.3506 130
10.976600000000001 11.1797 -1.2754 40
13.8594 14.1172 -1.1484 222
56.625 57.6562 10.3906 217
20.7656 21.1562 -1.0332 105
6.644500000000001 6.7188 -1.4346 73
26.6719 26.9688 1.3232 165
7.707000000000001 7.792999999999999 -1.4043 28
26.625 26.9219 2.1992 80
9.0703 9.1719 -1.3506 43
11.039100000000001 11.164100000000001 -1.2783 85
13.914100000000001 14.0703 -1.1494 5
20.875 21.1094 -1.0352 165
26.9531 27.0625 0.4456 117
6.6797 6.707000000000001 -1.4375 181
26.8594 26.9688 1.3271000000000002 149
7.7539 7.7852 -1.4082 127
26.7969 26.9062 2.207 211
9.1328 9.1719 -1.3555000000000001 97
11.101600000000001 11.1406 -1.2812000000000001 23
13.976600000000001 14.039100000000001 -1.1504 235
21.0625 21.1562 -1.04 189
21.1094 21.2031 -0.3489 88
27.1562 27.0781 0.44780000000000003 142
6.7109000000000005 6.6914 -1.4385 35
26.8906 26.8125 1.3241999999999998 27
7.792999999999999 7.769500000000001 -1.4102000000000001 70
26.9844 26.9062 2.2148 215
9.1797 9.1484 -1.3574000000000002 210
11.125 11.093800000000002 -1.2793 215
14.085899999999999 14.0469 -1.1543 59
21.1406 21.0781 -1.04 74
21.3594 21.2969 -0.3518 115
27.375 27.1094 0.4495 9
6.7578 6.6914 -1.4434 217
26.8438 26.5781 1.3174000000000001 48
7.828099999999999 7.7539 -1.4121000000000001 135
27.1562 26.8906 2.2207 162
9.2188 9.1328 -1.3594 2
11.1875 11.0781 -1.2822 50
14.164100000000001 14.023399999999999 -1.1572 168
64.8125 64.125 11.726600000000001 207
21.3438 21.1406 -1.0479 203
21.2656 21.0625 -0.34909999999999997 242
6.792999999999999 6.6836 -1.4463 150
27.0469 26.5938 1.3232 199
7.8711 7.7422 -1.415 149
27.3281 26.875 2.2266 210
9.2656 9.1094 -1.3603999999999998 213
11.2422 11.0547 -1.2841999999999998 12
14.226600000000001 13.9922 -1.1582 50
21.3438 20.9844 -0.34909999999999997 93
6.8203 6.6602 -1.4472999999999998 73
27.2188 26.5781 1.3271000000000002 109
7.921900000000001 7.734400000000001 -1.4188999999999998 159
27.5469 26.8906 2.2383 143
9.3125 9.0938 -1.3633000000000002 38
11.289100000000001 11.023399999999999 -1.2852000000000001 186
14.289100000000001 13.9531 -1.1592 178
27.4062 26.5781 1.3311000000000002 13
7.957000000000001 7.7148 -1.4199000000000002 254
27.7344 26.8906 2.2441 233
9.3594 9.0781 -1.3662 60
11.343800000000002 11.0 -1.2871000000000001 251
14.3594 13.9219 -1.1611 253
28.0 26.9844 0.4539 5
27.8438 26.8125 1.3477000000000001 179
7.984400000000001 7.6914 -1.4209 179
27.8906 26.875 2.25 88
9.4062 9.0625 -1.3681999999999999 229
11.3906 10.968800000000002 -1.2881 5
14.4297 13.898399999999999 -1.1631 162
28.0938 26.8906 1.3563999999999998 124
8.0234 7.675800000000001 -1.4228999999999998 2
28.1094 26.8906 2.2598 217
9.4609 9.0469 -1.3711000000000002 218
11.460899999999999 10.968800000000002 -1.2919999999999998 116
14.4922 13.875 -1.165 113
22.1406 21.1875 -1.0684 198
28.5 27.0781 0.4587 54
30.4062 28.875 1.4628999999999999 182
8.0781 7.675800000000001 -1.4277000000000002 110
28.2812 26.875 2.2676 185
9.5 9.0234 -1.3721 173
11.5156 10.9375 -1.2938999999999998 138
14.5469 13.8125 -1.1641 216
28.6719 27.0469 1.375 20
8.1172 7.6562 -1.4297 173
28.4688 26.8438 2.2734 109
9.5391 9.0 -1.374 125
11.5703 10.9219 -1.2959 106
14.6406 13.8125 -1.168 21
30.375 28.4688 0.4858 231
28.8594 27.0312 1.3788999999999998 30
8.1641 7.6484000000000005 -1.4336000000000002 245
28.6875 26.875 2.2852 255
9.5859 8.9766 -1.376 54
11.6094 10.875 -1.2959 46
14.6875 13.7578 -1.168 70
30.4062 28.2969 0.4849 101
29.0469 27.0312 1.3838 88
8.2031 7.6328 -1.4365 252
28.875 26.8594 2.291 43
9.6328 8.9609 -1.3788999999999998 215
11.664100000000001 10.851600000000001 -1.2978999999999998 207
14.773399999999999 13.7422 -1.1709 11
22.9062 21.2969 -0.36469999999999997 51
0.5659000000000001 0.5225 -0.1284 108
30.3906 28.0625 0.4829 243
29.2344 27.0 1.3877000000000002 237
8.2344 7.605499999999999 -1.4365 232
29.0469 26.8281 2.2988 36
9.6797 8.9453 -1.3809 7
27.7969 25.6875 3.0879000000000003 103
11.7344 10.835899999999999 -1.3008000000000002 195
14.835899999999999 13.7031 -1.1729 143
58.5312 54.0625 10.2422 77
22.9844 21.2344 -1.0908 168
23.0625 21.3125 -0.36619999999999997 82
0.5732 0.5259 -0.1298 176
30.4219 27.9062 0.4819 129
29.4375 27.0 1.3936000000000002 253
8.2734 7.5898 -1.4394999999999998 81
29.25 26.8438 2.3066 249
9.7109 8.9141 -1.3809 227
11.7656 10.7969 -1.3008000000000002 148
14.906199999999998 13.6797 -1.1748 93
58.5625 53.7188 10.2188 243
23.0625 21.1562 -1.0908 221
23.25 21.3281 -0.3682 13
0.5869 0.5347 -0.1326 170
30.3438 27.6406 0.479 24
29.6406 27.0 1.3984 170
8.3203 7.578099999999999 -1.4424000000000001 196
29.4844 26.8594 2.3184 232
9.75 8.8828 -1.3818000000000001 74
27.7344 25.2656 3.0605 23
11.8281 10.773399999999999 -1.3027000000000002 195
14.9531 13.6172 -1.1738 150
58.7188 53.5 10.2109 0
23.2344 21.1562 -1.0957 207
0.6089 0.5508 -0.1375 41
30.3125 27.4219 0.47729999999999995 219
30.2656 27.375 1.4228999999999998 231
8.3594 7.5625 -1.4443000000000001 58
27.7969 25.1406 2.1777 159
9.7969 8.8594 -1.3838 245
27.9219 25.25 3.0702999999999996 227
11.875 10.7422 -1.3037 11
15.085899999999999 13.648399999999999 -1.1806999999999999 78
23.4219 21.1875 -1.1006 137
0.6108 0.5488000000000001 -0.1375 208
30.1875 27.125 0.4736 42
0.6694 0.6011 -0.1307 44
30.2344 27.1562 1.4180000000000001 84
8.3906 7.5352 -1.4453 251
27.9531 25.1094 2.1836 23
9.8438 8.8438 -1.3866999999999998 242
28.1094 25.25 3.082 26
11.9219 10.7031 -1.3047 215
15.1328 13.585899999999999 -1.1806999999999999 102
30.0625 27.0 -0.4717 173
0.5893999999999999 0.5259 -0.1318 113
30.2188 26.9531 0.47240000000000004 46
30.125 26.875 1.4082 198
8.4219 7.511699999999999 -1.4463 145
27.6406 24.6562 2.1523 248
9.8906 8.8203 -1.3887 169
28.2188 25.1719 3.0858999999999996 73
11.968800000000002 10.6719 -1.3066 232
15.1875 13.5469 -1.1816 193
30.1875 26.9219 -0.4722 73
0.5884 0.521 -0.13119999999999998 14
30.2969 26.8438 1.4121000000000001 149
27.75 24.5781 2.1543 223
9.9219 8.7969 -1.3896000000000002 150
28.0469 24.8438 3.0566000000000004 90
12.039100000000001 10.664100000000001 -1.3096 97
15.2422 13.5078 -1.1826 4
0.5928 0.522 -0.1318 205
28.9062 25.4375 1.3428 249
27.8438 24.5156 2.1562 222
9.9688 8.7734 -1.3916 19
28.0625 24.6875 3.0488 188
12.085899999999999 10.6406 -1.3115 158
15.3125 13.476600000000001 -1.1845999999999999 217
0.583 0.5093 -0.129 168
0.6777 0.5918 -0.1307 238
30.7969 26.8906 1.4258000000000002 240
27.8906 24.375 2.1523 164
10.0234 8.75 -1.3936000000000002 73
28.2031 24.625 3.0547000000000004 109
12.101600000000001 10.5703 -1.3096 241
15.398399999999999 13.4531 -1.1875 206
0.6054999999999999 0.5254 -0.13390000000000002 95
29.4375 25.5312 1.3584 71
27.9531 24.25 2.1504 77
10.0703 8.7344 -1.3965 248
28.25 24.5 3.0507999999999997 83
12.148399999999999 10.539100000000001 -1.3096 17
15.468800000000002 13.414100000000001 -1.1885 169
31.6562 27.4531 -0.489 171
0.6103999999999999 0.5259 -0.1346 73
31.7344 27.3281 0.4888 199
29.4844 25.3906 1.3563999999999998 185
28.0625 24.1719 2.1523 37
10.1172 8.7109 -1.3984 72
28.8281 24.8281 3.1035000000000004 4
12.1953 10.5 -1.3105000000000002 179
15.523399999999999 13.3672 -1.1895 54
0.5854 0.5005 -0.1284 178
31.375 26.8281 1.4394999999999998 217
27.7969 23.7656 2.125 65
10.1406 8.6719 -1.3984 234
12.25 10.476600000000001 -1.3125 143
15.6172 13.351600000000001 -1.1924 54
0.5962 0.5063 -0.1305 128
0.6855 0.5825 -0.1307 196
28.7656 24.4219 1.3163999999999998 18
27.8906 23.6875 2.127 160
10.1953 8.6641 -1.4013999999999998 103
12.281199999999998 10.4297 -1.3125 106
15.6719 13.3125 -1.1934 155
0.6221 0.5244 -0.136 238
31.8594 26.875 1.4541 13
28.1875 23.7656 2.1426 85
10.2578 8.6484 -1.4053 239
29.0312 24.4844 3.0976999999999997 168
12.335899999999999 10.406199999999998 -1.3144999999999998 90
15.7422 13.273399999999999 -1.1953 160
0.5903 0.49439999999999995 -0.1284 238
0.6899 0.5776 -0.1307 101
29.0938 24.3594 1.3232 131
28.5781 23.9219 2.166 63
10.289100000000001 8.6172 -1.4062000000000001 176
12.375 10.3594 -1.3144999999999998 128
15.843800000000002 13.2656 -1.2002 110
0.6011 0.5 -0.1305 177
0.6919 0.5752 -0.1307 177
30.5469 25.4062 1.3857 67
27.75 23.0625 2.0977 196
10.3672 8.6172 -1.4121000000000001 7
12.5 10.3906 -1.3241999999999998 151
28.6875 23.8438 3.9160000000000004 118
15.8828 13.2031 -1.1992 11
25.6562 21.3281 -0.3892 56
0.6182 0.5103 -0.13390000000000002 215
0.6938 0.5728 -0.1307 130
30.7031 25.3438 1.3887 180
27.75 22.9062 2.0918 46
10.406199999999998 8.5938 -1.4141 76
12.539100000000001 10.351600000000001 -1.3241999999999998 223
28.8125 23.7812 3.9219 226
15.9844 13.1953 -1.2031 53
25.625 21.1562 -0.38770000000000004 108
0.6108 0.5005 -0.1318 228
29.2031 23.9375 0.4407 226
0.6958 0.5703 -0.1307 10
30.75 25.2031 1.3866999999999998 37
28.0312 22.9688 2.1055 19
10.4531 8.5625 -1.415 163
29.8281 24.4375 3.1464999999999996 250
12.601600000000001 10.3281 -1.3271000000000002 230
28.8906 23.6719 3.9199 195
16.0625 13.164100000000001 -1.2061 22
25.6719 21.0469 -0.3872 9
0.6093999999999999 0.4961 -0.13119999999999998 79
28.1094 22.8906 2.1055 29
10.5078 8.5547 -1.4188999999999998 76
29.1875 23.7656 3.0723000000000003 197
12.656199999999998 10.3047 -1.3291 189
29.0156 23.625 3.9276999999999997 228
16.1094 13.1094 -1.2061 136
25.7188 20.9375 -0.387 51
0.6201 0.5015 -0.1333 220
29.5 23.8594 0.4429 25
0.6997 0.5654 -0.1307 141
28.3594 22.9375 2.1191 109
10.5469 8.5312 -1.4209 192
28.4688 23.0156 2.9863 0
12.7031 10.273399999999999 -1.3311000000000002 161
30.0312 24.2812 4.0547 67
16.2031 13.101600000000001 -1.21 47
25.8438 20.8906 -0.38770000000000004 212
0.6313 0.5063 -0.1354 131
0.7017 0.563 -0.1307 187
29.1719 23.4062 1.3037 218
28.5469 22.9062 2.127 216
10.585899999999999 8.4922 -1.4219 141
29.1875 23.4219 3.0526999999999997 206
12.7578 10.2344 -1.3319999999999999 138
30.0312 24.0938 4.043 55
16.2656 13.0547 -1.2109 101
25.9844 20.8438 -0.3887 164
0.6299 0.502 -0.1346 237
29.5781 23.5625 0.4414 74
0.7036 0.5605 -0.1307 54
28.6562 22.8281 2.1289 208
10.6328 8.4688 -1.4238 53
29.5 23.5 3.0781 239
12.8203 10.2109 -1.335 84
16.3438 13.0156 -1.2129 229
26.1406 20.8281 -0.3899 162
0.6255 0.4949 -0.1333 199
0.7056 0.5581 -0.1307 204
29.8281 23.5938 1.3262 181
28.7812 22.7656 2.1328 167
10.6719 8.4453 -1.4258000000000002 253
29.3281 23.2031 3.0507999999999997 210
12.875 10.1875 -1.3378999999999999 18
16.4375 13.0078 -1.2168 87
26.3438 20.8438 -0.3918 147
0.6118 0.4807 -0.1298 164
0.7075 0.5557 -0.1307 51
29.9062 23.5 1.3262 193
28.8906 22.7031 2.1348 107
10.710899999999999 8.4219 -1.4277000000000002 141
29.3438 23.0625 3.0449 219
12.9219 10.1484 -1.3378999999999999 95
16.5312 12.9922 -1.2207 227
26.5156 20.8438 -0.3936 74
0.6011 0.46880000000000005 -0.127 124
0.7095 0.5532 -0.1307 174
29.7812 23.2188 1.3163999999999998 104
28.8438 22.5 2.125 58
10.773399999999999 8.4062 -1.4316 113
29.3125 22.8594 3.0312 216
12.968800000000002 10.1172 -1.3397999999999999 92
16.6406 12.968800000000002 -1.2246 83
26.6562 20.7969 -0.3945 236
0.6118 0.4739 -0.129 16
0.7114 0.5508 -0.1307 96
30.1875 23.375 1.3311000000000002 69
29.3594 22.7344 2.1582 134
10.8281 8.3828 -1.4355000000000002 190
13.0469 10.1016 -1.3437999999999999 251
29.7969 23.0781 3.957 125
16.6875 12.9219 -1.2256 207
26.8594 20.7969 -0.39649999999999996 109
0.6386999999999999 0.491 -0.1346 42
0.6567000000000001 0.5049 -0.1198 145
31.25 24.0312 1.375 44
29.125 22.3906 2.1348 107
10.8672 8.3516 -1.4355000000000002 212
29.5938 22.75 3.0449 117
13.1094 10.0781 -1.3466999999999998 75
29.7656 22.8906 3.9414 114
16.7812 12.898399999999999 -1.2285 49
27.0156 20.7656 -0.39770000000000005 211
0.6436 0.49119999999999997 -0.1354 123
0.7153 0.5459 -0.1307 237
31.2656 23.8594 1.3721 193
28.5156 21.7656 2.084 12
10.906199999999998 8.3203 -1.4375 49
29.7969 22.75 3.0586 24
13.164100000000001 10.0469 -1.3486000000000002 228
29.5625 22.5625 3.9043 101
16.8594 12.8672 -1.2314 229
27.2031 20.7656 -0.3994 46
0.6294 0.4771 -0.1318 53
0.7168000000000001 0.5435 -0.1307 142
35.2812 26.75 1.5449000000000002 183
28.3594 21.4844 2.0684 70
10.968800000000002 8.3125 -1.4413999999999998 4
30.0 22.7344 3.0702999999999996 112
13.2031 10.0 -1.3486000000000002 121
29.7188 22.5156 3.9141000000000004 156
16.9219 12.8125 -1.2324 148
27.4219 20.7812 -0.4014 189
0.6215999999999999 0.4678 -0.1298 163
0.7188 0.5405 -0.1307 35
29.8281 22.4375 2.1699 109
11.031199999999998 8.2969 -1.4463 201
13.273399999999999 9.9844 -1.3525 87
29.6719 22.3281 3.8983999999999996 143
17.0312 12.8047 -1.2373 232
27.5781 20.75 -0.40259999999999996 159
0.6235 0.4656 -0.1298 20
0.667 0.498 -0.1204 245
35.7188 26.6719 1.5547 167
29.5781 22.0938 2.1445 48
11.0703 8.2656 -1.4472999999999998 35
29.875 22.3281 3.043 48
13.3281 9.9531 -1.3555000000000001 124
29.8438 22.2969 3.9101999999999997 227
17.1094 12.781199999999998 -1.2402 98
27.7656 20.7344 -0.4043 163
0.5932999999999999 0.44020000000000004 -0.1229 254
0.6685 0.49579999999999996 -0.1204 156
35.9375 26.6562 1.5605000000000002 29
30.2969 22.4688 2.1914 115
30.0625 22.2969 3.0547000000000004 78
13.398399999999999 9.9375 -1.3594 144
30.0 22.2656 3.9219 138
17.1719 12.7344 -1.2412 179
27.9688 20.75 -0.40619999999999995 223
0.6235 0.45899999999999996 -0.129 35
0.645 0.4746 -0.11560000000000001 46
36.2188 26.6719 1.5693000000000001 19
30.4531 22.4219 2.1973 51
29.2031 21.5 2.9589999999999996 254
13.4453 9.8984 -1.3603999999999998 59
30.0312 22.1094 3.9160000000000004 190
17.3125 12.7422 -1.248 38
28.1562 20.7188 -0.408 91
0.625 0.4568 -0.129 221
0.6655 0.4866 -0.1192 132
36.5625 26.7188 1.5791 230
30.1719 22.0469 2.1719 89
29.2031 21.3438 2.9512 29
13.5156 9.875 -1.3643 83
29.9688 21.9062 3.8964999999999996 171
17.3594 12.6797 -1.248 154
28.4062 20.7656 -0.4106 78
0.6426000000000001 0.46630000000000005 -0.1326 177
0.6738 0.489 -0.1204 254
36.8125 26.7188 1.5859 233
30.5625 22.1875 2.1953 94
29.375 21.3281 2.9608999999999996 147
13.5469 9.8359 -1.3643 123
17.4062 12.6328 -1.249 192
28.5781 20.7344 -0.4121 203
0.6279 0.4526 -0.129 173
0.6689 0.4819 -0.1192 30
36.9688 26.625 1.5888999999999998 102
31.2969 22.5469 2.2422 64
29.3906 21.1719 2.9551 83
13.6094 9.8125 -1.3672 147
30.4062 21.9062 3.9336 225
17.4844 12.601600000000001 -1.252 32
28.75 20.7188 -0.41359999999999997 222
0.6138 0.4387 -0.12560000000000002 111
0.6577 0.4705 -0.1168 209
37.3125 26.6875 1.6006 59
31.3594 22.4219 2.2402 206
29.4219 21.0469 2.9512 32
13.6719 9.7734 -1.3691 229
30.5 21.8125 3.9375 200
17.5781 12.5703 -1.2549 37
29.0 20.7344 -0.41600000000000004 79
0.6089 0.4321 -0.1242 21
0.6465000000000001 0.45899999999999996 -0.1144 118
37.5625 26.6719 1.6074000000000002 33
31.5625 22.4062 2.25 224
30.6562 21.7656 3.0683999999999996 199
13.7422 9.75 -1.3730000000000002 75
30.5938 21.7188 3.9375 87
17.6562 12.531199999999998 -1.2568000000000001 163
29.2188 20.75 -0.4182 7
0.6362 0.44799999999999995 -0.1298 191
37.7812 26.6094 1.6113 234
31.7188 22.3438 2.2559 198
30.9062 21.7656 3.0839999999999996 68
13.7969 9.7188 -1.375 161
17.7969 12.531199999999998 -1.2637 87
29.4219 20.7344 -0.4199 0
0.6343 0.4436 -0.129 82
38.0938 26.625 1.6211000000000002 217
43.375 30.3281 3.0762 135
31.2031 21.8125 3.1055 54
13.835899999999999 9.6719 -1.376 226
17.9219 12.531199999999998 -1.2695 195
29.6875 20.7656 -0.4229 100
0.6328 0.43920000000000003 -0.1284 38
38.3438 26.625 1.6279 140
43.2812 30.0469 3.0645 142
31.3594 21.7656 3.1132999999999997 40
13.914100000000001 9.6641 -1.3799000000000001 175
17.9375 12.4531 -1.2676 66
29.8906 20.75 -0.42460000000000003 239
0.6698999999999999 0.4617 -0.136 17
43.3125 29.8594 3.0586 68
13.9844 9.6406 -1.3838 103
18.0312 12.4375 -1.2725 91
30.1094 20.75 -0.4268 182
38.9062 26.625 1.6444999999999999 102
43.2812 29.625 3.0488 152
14.0547 9.6172 -1.3877000000000002 29
18.125 12.398399999999999 -1.2754 210
39.2188 26.6406 1.6533000000000002 202
43.2812 29.3906 3.0410000000000004 56
14.093800000000002 9.5781 -1.3887 203
18.2656 12.406199999999998 -1.2822 249
31.5781 21.4531 -0.4456 207
39.5312 26.6406 0.5566 248
43.2812 29.1719 3.0332 116
14.164100000000001 9.5469 -1.3916 164
18.3438 12.3594 -1.2841999999999998 248
31.5625 21.2812 -0.4443 145
39.7812 26.625 1.6699000000000002 194
43.2812 28.9375 3.0254000000000003 128
14.210899999999999 9.5078 -1.3925999999999998 192
18.4062 12.3125 -1.2861000000000002 117
31.5781 21.125 -0.4434 60
40.0625 26.5781 1.6768 147
43.2812 28.7188 3.0195 9
14.289100000000001 9.4766 -1.3975 113
18.4688 12.2578 -1.2871000000000001 31
31.625 20.9844 -0.4429 176
40.4062 26.5938 1.6875 68
43.2812 28.4844 3.0137 120
14.3594 9.4453 -1.4003999999999999 194
18.625 12.2578 -1.2938999999999998 202
31.625 20.8125 -0.44189999999999996 38
43.25 28.2812 3.0039 87
11.148399999999999 7.2890999999999995 -1.3955000000000002 71
14.406199999999998 9.4219 -1.4022999999999999 123
18.75 12.25 -1.2997999999999998 120
31.6562 20.6875 -0.4414 74
41.0 26.6094 1.7050999999999998 59
43.25 28.0781 2.998 245
11.2031 7.2734000000000005 -1.3994 180
14.4844 9.3984 -1.4062000000000001 224
18.8125 12.210899999999999 -1.3027000000000002 238
31.7188 20.5781 -0.4412 2
43.2188 27.8281 2.9882999999999997 74
11.2031 7.2109000000000005 -1.3955000000000002 160
14.5547 9.3672 -1.4102000000000001 183
18.9062 12.1719 -1.3056999999999999 34
31.8281 20.4844 -0.44189999999999996 240
41.5938 26.5625 1.7216999999999998 167
43.2188 27.6094 2.9824 206
11.2578 7.1875 -1.3994 146
14.625 9.3438 -1.4141 216
18.9844 12.125 -1.3075999999999999 159
32.0312 20.4531 -0.4436 14
43.25 27.4219 2.9766000000000004 36
11.281199999999998 7.1523 -1.3994 25
14.7031 9.3203 -1.4180000000000001 12
19.0312 12.0703 -1.3086000000000002 0
32.25 20.4531 -0.4458 65
43.1875 27.1875 2.9668 166
11.3203 7.1289 -1.4013999999999998 4
8.8047 5.542999999999999 -0.8462000000000001 157
19.1719 12.0703 -1.3154 247
32.5 20.4531 -0.44799999999999995 80
43.2188 27.0 2.9629000000000003 182
11.3672 7.0977 -1.4043 109
8.7969 5.4922 -0.8432999999999999 162
19.2656 12.039100000000001 -1.3193000000000001 225
32.7188 20.4375 -0.45020000000000004 255
8.7891 5.453099999999999 -1.3252000000000002 184
43.1875 26.7656 2.9531 93
11.406199999999998 7.074199999999999 -1.4062000000000001 128
8.7891 5.449199999999999 -0.8412999999999999 191
19.3438 12.0 -1.3222999999999998 238
32.9375 20.4219 -0.4521 221
8.7578 5.386699999999999 -1.3174000000000001 97
43.1562 26.5469 2.9452999999999996 155
8.8203 5.425800000000001 -1.084 79
8.7578 5.386699999999999 -0.8359000000000001 197
8.8359 5.4297 -0.6006 180
8.9219 5.484400000000001 -0.3638 122
33.1875 20.4219 -0.4548 87
8.7812 5.355499999999999 -1.3174000000000001 114
43.3125 26.4219 2.9492000000000003 15
8.8203 5.3828 -1.082 196
8.7578 5.3438 -0.8345 35
8.8125 5.3789 -0.5981000000000001 231
8.8672 5.4140999999999995 -0.3611 228
33.4375 20.4062 -0.457 124
43.9062 26.5781 0.5996 104
8.8203 5.3359000000000005 -1.3203 231
43.6875 26.4375 2.9688 191
8.8281 5.3438 -1.0801 94
8.7812 5.3164 -0.835 158
8.8047 5.328099999999999 -0.5962 211
8.8438 5.3515999999999995 -0.3591 197
8.9453 5.4140999999999995 -0.12140000000000001 77
44.2812 26.5781 0.603 77
43.0938 25.875 1.7538999999999998 72
44.0 26.4219 2.9844 74
8.8672 5.324199999999999 -1.083 90
8.7812 5.269500000000001 -0.833 155
8.8125 5.292999999999999 -0.5957 114
8.8438 5.3086 -0.35840000000000005 117
8.8984 5.3438 -0.12050000000000001 250
44.5938 26.5781 0.606 85
43.125 25.7031 1.7519999999999998 151
44.3438 26.4219 3.002 142
11.6094 6.917999999999999 -1.416 185
8.7969 5.2422 -0.833 103
8.8047 5.2461 -0.5932999999999999 157
8.8516 5.2734000000000005 -0.3579 5
8.8906 5.296900000000001 -0.1201 125
44.9062 26.5469 0.6089 66
44.75 26.4688 1.8144999999999998 132
44.6562 26.4219 3.0176 213
11.625 6.875 -1.415 236
8.8047 5.207000000000001 -0.8320000000000001 44
8.7969 5.203099999999999 -0.5918 131
8.8359 5.2265999999999995 -0.3567 20
8.9062 5.265599999999999 -0.1201 76
45.25 26.5469 0.6128 53
45.0938 26.4531 1.8232 32
9.0312 5.296900000000001 -1.3408000000000002 48
45.0312 26.4219 3.0351999999999997 104
11.664100000000001 6.8438 -1.4169999999999998 60
8.8125 5.171900000000001 -0.8311 32
8.8125 5.171900000000001 -0.5918 118
8.8281 5.175800000000001 -0.3555 206
8.9453 5.25 -0.1204 247
45.5938 26.5469 0.6162 56
43.0 25.0469 1.7363 101
9.0234 5.2578 -1.3378999999999999 81
45.375 26.4062 3.0507999999999997 118
11.710899999999999 6.8164 -1.4199000000000002 108
8.8281 5.140599999999999 -0.8311 135
8.8438 5.1484000000000005 -0.5928 184
8.7969 5.1211 -0.35350000000000004 152
8.9688 5.2227 -0.12050000000000001 197
45.9688 26.5312 0.6196 221
43.125 24.8906 1.7372999999999998 38
9.0234 5.207000000000001 -1.335 108
45.7188 26.3906 3.0702999999999996 48
9.0312 5.2109000000000005 -1.0908 190
8.8516 5.1094 -0.8311 14
8.8672 5.1172 -0.5932999999999999 219
8.8125 5.0859 -0.35350000000000004 216
8.9844 5.1836 -0.1204 159
46.125 26.4062 1.8535 20
9.0469 5.1797 -1.335 9
44.9375 25.7188 3.0098000000000003 135
9.0391 5.175800000000001 -1.0908 171
8.875 5.0781 -0.8315 183
8.8906 5.0898 -0.5932999999999999 212
8.8359 5.0586 -0.354 13
46.6562 26.5156 0.627 177
43.0 24.4219 1.7246000000000001 190
44.2812 25.1562 2.9608999999999996 238
9.0625 5.1484000000000005 -1.0908 98
8.9062 5.0586 -0.833 91
9.0234 5.1289 -0.6011 219
35.875 20.375 -0.4817 199
43.0938 24.2812 1.7256 67
44.25 24.9375 2.9531 150
11.843800000000002 6.675800000000001 -1.4238 59
100.1875 56.4688 9.3906 146
8.9453 5.043 -0.8354 51
26.0312 14.6719 -1.042 149
36.1562 20.375 -0.4844 27
47.4062 26.5 0.6343 74
11.8594 6.6289 -1.4238 233
8.9766 5.0195 -0.8364 159
20.7031 11.5703 -1.3779 111
26.0312 14.5469 -1.0391 109
36.4375 20.375 -0.48729999999999996 149
47.75 26.4688 0.6377 117
11.8672 6.578099999999999 0.7866 206
11.906199999999998 6.6015999999999995 -1.4268 66
11.9219 6.605499999999999 1.1094 78
12.101600000000001 6.7109000000000005 -1.127 97
12.2031 6.765599999999999 -0.8090999999999999 199
26.0469 14.4375 -1.0381 73
12.1719 6.7461 -0.16190000000000002 102
12.2578 6.738300000000001 0.16260000000000002 146
12.1875 6.699199999999999 0.4839 58
11.8125 6.4961 0.7817000000000001 121
11.9219 6.5547 -1.4258000000000002 192
11.9375 6.5664 1.1094 210
12.1172 6.6640999999999995 -1.126 14
12.1797 6.6953 -0.8062 109
12.164100000000001 6.6875 -0.16149999999999998 170
12.2344 6.667999999999999 0.162 37
12.1797 6.640599999999999 0.4827 152
11.8047 6.4336 0.7793000000000001 227
11.960899999999999 6.519500000000001 -1.4268 81
11.875 6.4765999999999995 1.1016 252
12.125 6.609400000000001 -1.124 33
12.2031 6.6562 -0.8062 248
12.1797 6.640599999999999 -0.1613 82
12.1797 6.640599999999999 2.4395 233
12.273399999999999 6.6328 0.16219999999999998 96
12.210899999999999 6.6015999999999995 0.4829 225
11.843800000000002 6.4023 0.7807999999999999 62
12.0078 6.4922 -1.4297 161
12.1719 6.582000000000001 -1.127 216
12.2969 6.6484000000000005 1.4647999999999999 156
12.2578 6.6289 -0.8081 95
12.1875 6.5898 1.7763999999999998 66
8.6875 4.6992 -0.3433 16
12.25 6.625 2.1172 43
12.2344 6.6172 -0.1617 38
12.164100000000001 6.578099999999999 2.4316 52
12.3281 6.609400000000001 0.16269999999999998 49
12.2578 6.5703 0.4839 127
11.8203 6.3359000000000005 0.7773 77
12.0156 6.4414 -1.4287 124
11.9219 6.390599999999999 1.1016 121
12.2656 6.574199999999999 -1.1328 249
21.3125 11.4297 -1.4043 58
12.2422 6.5625 1.7812000000000001 25
8.6953 4.6641 -0.3428 76
12.210899999999999 6.546900000000001 2.4355 14
49.6875 26.4219 0.6572 2
44.2812 23.5469 1.75 46
11.835899999999999 6.296900000000001 0.7773 231
12.0703 6.417999999999999 -1.4325999999999999 109
11.9219 6.3359000000000005 1.0986 224
12.3281 6.5547 -1.1367 206
8.7031 4.6289 -0.3425 178
8.6875 4.6211 -0.1142 30
12.2578 6.519500000000001 2.4414 196
49.9375 26.3438 0.6597 227
44.4375 23.4219 1.7519999999999998 20
11.843800000000002 6.2461 0.7764 242
12.1094 6.386699999999999 -1.4346 218
11.875 6.261699999999999 1.0928 97
8.7031 4.5898 -0.5698 169
8.7188 4.5977 -0.3423 83
8.6875 4.582 -0.114 36
44.7188 23.375 1.7607 225
11.8672 6.203099999999999 0.7764 211
12.1328 6.3438 -1.4346 187
8.6406 4.5195 -0.5645 142
8.6953 4.5469 -0.3411 134
8.6875 4.543 -0.11380000000000001 133
44.0938 22.8594 1.7324000000000002 215
11.9922 6.2148 0.7831999999999999 233
8.8828 4.6055 -1.0469 160
8.8125 4.5664 -0.8070999999999999 76
8.6328 4.4766 -0.563 145
8.6953 4.5078 -0.3403 194
8.6953 4.5078 -0.11359999999999999 35
45.25 23.2656 1.7744 185
12.8125 6.5859000000000005 0.8354 5
8.8594 4.5547 -1.042 109
8.7734 4.5117 -0.8018000000000001 35
8.6328 4.4375 -0.562 6
8.7031 4.4727 -0.3398 198
8.7109 4.4766 -0.11359999999999999 51
8.8984 4.5391 0.1159 226
46.1875 23.5469 1.8086000000000002 145
8.5547 4.3633 -1.2305 234
44.1562 22.5156 2.8808999999999996 249
8.6719 4.4219 -1.0186 129
100.0 51.0 9.1641 173
8.6797 4.4258 -0.792 119
8.6406 4.4062 -0.562 83
8.7188 4.4453 -0.3398 153
8.7109 4.4414 -0.1134 88
8.875 4.4844 0.11539999999999999 140
45.0938 22.7969 1.7627000000000002 84
8.5703 4.332 -1.2305 108
45.5312 23.0156 2.9648000000000003 17
8.6562 4.375 -1.0146 255
8.6562 4.375 -0.7881 107
8.6484 4.3711 -0.561 186
8.6797 4.3867 -0.33759999999999996 9
8.7031 4.3984 -0.1131 199
8.8672 4.4453 0.1151 90
45.0 22.5781 1.7568000000000001 37
45.5312 22.8281 2.9608999999999996 251
8.6406 4.332 -1.0107 190
100.0625 50.1562 9.1406 75
8.6719 4.3477 -0.7886 42
8.6562 4.3398 -0.5605 52
8.6641 4.3438 -0.3367 158
8.7188 4.3711 -0.11320000000000001 126
8.8828 4.4141 0.1151 14
45.3438 22.5312 1.7666 207
52.7188 26.2031 3.4238 37
8.6641 4.3047 -1.0127 15
99.9375 49.6562 9.1094 190
8.6875 4.3164 -0.7886 180
8.6094 4.2812 -0.5571 247
8.5938 4.2695 -0.3333 103
8.7344 4.3398 -0.11320000000000001 149
8.9141 4.3906 0.1153 252
45.5938 22.4531 1.7734 146
46.3438 22.8125 3.002 27
8.6875 4.2812 -1.0137 150
99.9375 49.2188 9.0938 113
8.6953 4.2812 -0.7876000000000001 244
8.6328 4.2539 -0.5571 125
8.5859 4.2305 -0.3325 242
8.7344 4.3008 -0.113 36
54.0938 26.3906 0.7031000000000001 124
45.8438 22.3594 1.7793 185
8.7578 4.2734 -1.0195 201
99.9375 48.7812 9.0781 123
8.7344 4.2617 -0.7905 157
8.6719 4.2305 -0.5586 20
8.5781 4.1875 -0.33149999999999996 241
8.7188 4.2578 -0.11259999999999999 249
47.0312 22.75 1.8222999999999998 163
100.0 48.375 6.4609000000000005 250
12.414100000000001 6.0039 -1.4443000000000001 224
99.9375 48.3438 9.0625 192
8.7969 4.2539 -0.7939 58
8.7266 4.2188 -0.5615 117
8.6172 4.168 -0.3325 90
8.7266 4.2227 -0.1125 119
47.0312 22.5625 1.8193000000000001 1
99.9375 47.9688 6.449199999999999 242
12.4375 5.9648 -1.4453 70
99.875 47.9375 9.0469 252
8.7734 4.2109 -0.5635 253
8.6484 4.1484 -0.33299999999999996 172
8.7656 4.2031 -0.1127 79
55.125 26.2188 2.1309 0
47.9375 22.7969 3.0858999999999996 170
12.4531 5.921900000000001 -1.4443000000000001 224
99.9375 47.5312 9.0391 37
8.6719 4.125 -0.3335 55
8.8047 4.1875 -0.1131 235
55.5938 26.1719 2.1445 226
12.476600000000001 5.875 -1.4453 99
99.875 47.0312 9.0156 53
8.7109 4.1016 -0.3345 177
8.8203 4.1523 -0.113 108
56.0 26.1094 2.1562 62
12.5156 5.8359000000000005 -1.4463 21
8.7344 4.0742 -0.335 148
56.5 26.125 2.1719 136
12.539100000000001 5.796900000000001 -1.4472999999999998 0
8.7656 4.0547 -0.3354 246
56.9688 26.0938 2.1855 183
12.5547 5.75 -1.4463 115
99.9375 45.75 8.9766 93
57.8125 26.25 0.7417 122
12.5703 5.703099999999999 -1.4463 154
19.4219 8.8203 -1.2383 192
12.601600000000001 5.667999999999999 -1.4472999999999998 173
99.875 44.9062 8.9375 239
29.9844 13.4844 -1.1465 158
60.25 27.0781 -0.7715000000000001 197
99.9375 44.5312 6.363300000000001 133
99.875 44.5 8.9297 249
14.968800000000002 6.667999999999999 -1.335 143
15.023399999999999 6.6953 -0.9541 179
60.1562 26.7969 -0.769 115
99.875 44.0938 6.3477 232
99.875 44.125 8.9141 41
14.9219 6.5898 -1.3291 76
14.8906 6.578099999999999 -0.9448000000000001 199
15.0 6.625 -0.5708 102
99.875 43.6562 6.3398 216
99.875 43.6875 8.8984 60
14.9219 6.5234000000000005 -1.3262 199
14.9219 6.5234000000000005 -0.9448000000000001 145
14.906199999999998 6.519500000000001 -0.5664 111
60.1562 26.3125 -0.7670999999999999 71
55.5312 24.0469 2.1113 63
100.0625 43.3438 6.3438 124
99.875 43.25 8.8828 126
14.9453 6.4727 -1.3262 6
14.851600000000001 6.4336 -0.9390000000000001 190
14.9297 6.4648 -0.5664 9
61.4688 26.625 -0.7822 18
99.8125 42.8438 8.8672 143
14.8672 6.386699999999999 -1.3184 13
14.8594 6.3828 -0.9384999999999999 81
14.843800000000002 6.375 -0.5625 254
61.3438 26.3438 -0.7798 146
61.4375 26.1406 0.7798 205
55.7812 23.7344 2.1152 153
99.75 42.4375 8.8516 184
14.8828 6.3359000000000005 -1.3174000000000001 122
14.8906 6.3359000000000005 -0.9384999999999999 138
14.8594 6.324199999999999 -0.562 110
61.5938 26.2031 -0.7817000000000001 131
56.9375 23.9688 2.1562 162
99.8125 42.0312 8.8438 57
14.906199999999998 6.2773 -1.3174000000000001 64
14.9375 6.2890999999999995 -0.9404 9
14.9219 6.2812 -0.5635 232
99.8125 41.5938 8.8281 81
14.960899999999999 6.238300000000001 -1.3203 68
14.976600000000001 6.2461 -0.5649000000000001 17
99.75 41.1875 8.8125 247
15.023399999999999 6.207000000000001 -1.3241999999999998 177
15.039100000000001 6.2109000000000005 -0.5664 255
57.5312 23.5469 3.6151999999999997 215
99.8125 40.8125 8.8047 102
15.0547 6.1602 -1.3252000000000002 178
15.156199999999998 6.203099999999999 -0.9501999999999999 128
65.125 26.6406 -0.8218000000000001 119
99.75 40.375 8.7891 125
15.1719 6.140599999999999 -1.3330000000000002 64
16.0781 6.5078 -1.0068000000000001 193
16.1094 6.519500000000001 -0.2023 98
16.1406 6.4688 0.2025 167
16.1406 6.4648 0.605 20
16.1719 6.4765999999999995 1.0107 98
16.1875 6.484400000000001 1.4209 16
16.0938 6.4453 -1.4121000000000001 140
16.0938 6.4453 -1.0059 202
16.2031 6.4922 2.2402 91
16.125 6.457000000000001 -0.6045 67
16.0938 6.449199999999999 -0.20190000000000002 127
16.1562 6.4727 3.0625 113
16.1094 6.390599999999999 0.2018 1
16.1094 6.386699999999999 0.6035 41
16.125 6.394500000000001 1.0068000000000001 202
16.125 6.390599999999999 1.4131 187
16.125 6.390599999999999 -1.4131 171
16.125 6.394500000000001 1.8184 206
16.1094 6.386699999999999 -1.0059 77
16.1094 6.390599999999999 2.2246 217
16.1406 6.3984000000000005 -0.6045 18
16.125 6.3984000000000005 2.6387 169
16.1094 6.386699999999999 -0.2018 88
16.1094 6.386699999999999 3.0488 46
16.125 6.332000000000001 0.2018 116
16.125 6.328099999999999 0.603 67
16.125 6.328099999999999 1.0049 129
16.125 6.324199999999999 1.4111000000000002 203
16.1719 6.3438 -1.415 131
16.1406 6.332000000000001 1.8174000000000001 135
16.1562 6.3398 -1.0068000000000001 239
16.0938 6.3164 2.2188 115
16.1562 6.3438 -0.6045 31
16.125 6.328099999999999 2.6348000000000003 211
16.125 6.328099999999999 -0.20170000000000002 13
16.125 6.328099999999999 3.0469 188
16.1562 6.2812 0.2018 105
16.1406 6.2734000000000005 0.603 21
16.1406 6.2734000000000005 1.0049 135
16.125 6.269500000000001 1.4102000000000001 190
16.2031 6.300800000000001 -1.4169999999999998 253
16.1562 6.2773 1.8163999999999998 205
16.2188 6.3047 -1.0098 113
16.125 6.269500000000001 2.2207 138
16.2031 6.296900000000001 -0.6054999999999999 157
16.125 6.269500000000001 2.6327999999999996 146
16.1875 6.2890999999999995 -0.2021 35
16.1562 6.2773 3.0488 120
16.2188 6.2422 0.2023 211
16.1875 6.230499999999999 0.604 27
16.2031 6.234400000000001 1.0068000000000001 149
16.1562 6.2188 1.4111000000000002 89
16.2812 6.265599999999999 -1.4209 177
16.1875 6.230499999999999 1.8184 80
19.2656 7.417999999999999 -1.1992 238
16.1562 6.2188 2.2227 3
16.3281 6.2852 -0.6093999999999999 27
16.1875 6.230499999999999 2.6387 52
16.2344 6.25 -0.2026 121
16.2031 6.234400000000001 3.0526999999999997 140
16.2656 6.1914 0.606 250
16.2656 6.1875 1.0098 54
16.2656 6.1914 1.4180000000000001 146
16.3594 6.2265999999999995 1.8359 216
19.2969 7.3438 -1.1982 203
16.2969 6.203099999999999 2.6523000000000003 241
17.9375 6.7578 1.1133 30
99.9375 37.6562 8.7188 209
19.2969 7.269500000000001 -1.1973 46
58.4062 21.7656 2.1738 207
17.9375 6.6836 1.1113 213
17.8281 6.644500000000001 -0.6626000000000001 98
17.8281 6.6484000000000005 -0.2217 150
17.9219 6.609400000000001 0.2225 79
17.8438 6.582000000000001 0.6626000000000001 29
17.9219 6.605499999999999 1.1084 40
99.875 36.8125 8.6875 28
19.5 7.1875 -1.2061 29
17.8906 6.5977 -0.22219999999999998 175
17.9531 6.550800000000001 1.1094 136
100.0 36.5 8.6875 243
19.6094 7.1562 -1.2119 105
17.9375 6.480499999999999 1.1074 168
99.9375 36.0938 8.6797 70
19.8438 7.167999999999999 -1.2246 211
99.9375 35.6562 8.6641 193
20.0625 7.1562 -1.2363 215
21.7188 7.7539 -0.2688 41
68.75 24.2812 2.5449 52
99.9375 35.25 8.6484 142
20.2031 7.1289 -1.2441 247
68.5625 23.9531 2.5352 170
71.0625 24.8281 4.3789 146
99.9375 34.875 8.6406 249
20.4844 7.1523 -1.2598 92
99.8125 34.5 8.625 244
20.7031 7.1562 -0.7631999999999999 41
99.8125 34.0938 8.6094 68
20.7031 7.0664 -0.7617 82
68.4375 23.0938 4.1992 201
99.875 33.7188 8.6094 169
20.7344 6.9961 -0.7622 77
67.8125 22.625 2.4961 13
99.875 33.3125 8.5938 74
20.7656 6.9297 -0.7626999999999999 223
68.375 22.5469 4.1875 169
99.875 32.9375 8.5859 2
67.8125 22.1094 2.4902 18
68.3125 22.2656 4.1758 247
99.8125 32.5312 8.5703 214
69.875 22.5156 4.2695 183
67.625 21.5156 2.4746 42
69.4375 22.0938 4.2383 190
101.0625 32.1562 8.6562 67
69.4375 21.8281 4.2344 250
68.125 21.1719 2.4883 38
101.0 31.3906 6.1484000000000005 76
22.8125 7.0938 -1.3877000000000002 126
68.0 20.8906 2.4824 116
22.9062 7.0390999999999995 -1.3916 223
22.9062 7.0352 -0.835 197
71.75 21.7344 4.3594 167
23.2344 7.042999999999999 -1.4102000000000001 136
107.75 31.0625 6.519500000000001 210
25.7344 7.324199999999999 -0.9326000000000001 227
25.7969 7.230499999999999 -0.9336 107
24.7188 6.199199999999999 -0.8881999999999999 235
25.2969 6.2539 -0.304 234
25.3281 6.1602 0.304 225
25.3281 6.1602 0.9087000000000001 130
25.3594 6.167999999999999 1.5156 209
25.3438 6.1640999999999995 2.127 82
25.3906 6.175800000000001 2.7422000000000004 255
25.3281 6.1602 3.3457 15
25.2969 6.1562 -0.9077 75
25.3281 6.1602 3.9668 21
25.2969 6.1523 -0.3035 218
25.2969 6.1562 4.5859 161
25.2969 6.0586 0.3032 159
25.2969 6.0586 0.9067000000000001 38
25.3125 6.0625 1.5116999999999998 155
25.2812 6.0547 2.1191 170
25.2969 6.0586 2.7285000000000004 158
25.2812 6.0547 3.3379000000000003 56
25.3438 6.0703 -0.9087000000000001 123
25.3125 6.0625 3.9608999999999996 155
25.3125 6.0625 -0.3035 26
25.2812 6.0547 4.5781 204
25.375 5.9922 0.304 28
25.3125 5.980499999999999 0.9067000000000001 223
25.3281 5.984400000000001 1.5116999999999998 166
25.3125 5.9765999999999995 2.1211 163
25.3125 5.980499999999999 2.7285000000000004 178
25.2969 5.9727 3.3379000000000003 72
25.3281 5.980499999999999 3.9608999999999996 217
25.375 5.9961 -0.304 208
25.3125 5.980499999999999 4.5781 88
25.375 5.9062 0.9081999999999999 163
25.3906 5.9102 1.5146000000000002 43
12.6875 2.9531 -1.3643 4
25.375 5.9062 2.125 14
12.6797 2.9512 -1.0595999999999999 126
12.585899999999999 2.9297000000000004 1.3535 92
12.6797 2.9512 -0.7548999999999999 179
12.5781 2.9276999999999997 1.6562000000000001 95
12.6719 2.9492000000000003 -0.4526 129
12.656199999999998 2.9452999999999996 -0.15109999999999998 249
12.781199999999998 2.9257999999999997 0.1525 161
12.6797 2.9023000000000003 -1.3633000000000002 216
12.6719 2.9004000000000003 -1.0586 240
12.601600000000001 2.8827999999999996 1.3535 195
12.6875 2.9023000000000003 -0.7544 45
12.5781 2.8789 1.6543 14
12.6953 2.9043 -0.45289999999999997 168
12.6719 2.9004000000000003 -0.15109999999999998 78
12.6719 2.8535000000000004 0.151 59
12.6875 2.8574 0.4524 226
12.6719 2.8535000000000004 0.7529 177
12.6797 2.8555 -1.3613 158
12.6719 2.8535000000000004 1.0576 212
12.6875 2.8574 -1.0586 114
12.6094 2.8398000000000003 1.3535 176
12.664100000000001 2.8516000000000004 -0.7524 125
12.585899999999999 2.8339999999999996 1.6533000000000002 225
12.6875 2.8574 -0.4524 245
12.664100000000001 2.8516000000000004 -0.1509 38
12.6719 2.8066000000000004 0.1509 19
12.6797 2.8086 0.45189999999999997 236
12.6719 2.8066000000000004 0.7524 12
12.6797 2.8086 -1.3603999999999998 1
12.6875 2.8105 1.0576 109
12.6875 2.8105 -1.0576 143
12.6094 2.793 1.3525 201
12.664100000000001 2.8047000000000004 -0.752 5
12.5703 2.7832 1.6503999999999999 239
12.6875 2.8105 -0.45189999999999997 156
12.6797 2.8086 1.9736000000000002 239
12.6719 2.8066000000000004 -0.1509 2
12.648399999999999 2.8026999999999997 2.2773 119
12.6797 2.7617000000000003 0.1509 65
12.6797 2.7617000000000003 0.4514 143
12.6875 2.7637 0.7529 136
12.6719 2.7598000000000003 -1.3584 62
12.6719 2.7598000000000003 1.0556999999999999 85
12.664100000000001 2.7598000000000003 -1.0547 240
12.6094 2.7461 1.3516 210
12.6719 2.7598000000000003 -0.752 124
12.5781 2.7401999999999997 1.6503999999999999 121
12.6797 2.7617000000000003 -0.4512 246
12.656199999999998 2.7577999999999996 1.9687999999999999 244
12.6797 2.7617000000000003 -0.1508 199
12.656199999999998 2.7577999999999996 2.2773 159
12.6797 2.7129000000000003 0.1506 130
12.6719 2.7108999999999996 0.4507 86
12.6875 2.7148000000000003 0.7524 183
12.6875 2.7148000000000003 -1.3594 63
12.6797 2.7129000000000003 1.0556999999999999 15
12.648399999999999 2.707 -1.0527 143
12.601600000000001 2.6973000000000003 1.3496000000000001 119
12.664100000000001 2.7108999999999996 -0.7509999999999999 191
12.5781 2.6914 1.6494 134
12.6797 2.7129000000000003 -0.4509 138
12.648399999999999 2.707 1.9668 169
12.664100000000001 2.7108999999999996 -0.1506 114
12.6719 2.7108999999999996 2.2773 23
12.6875 2.6699 0.1508 124
12.6797 2.6660000000000004 0.4507 225
12.6875 2.668 0.7515000000000001 82
12.6953 2.6699 -1.3584 131
12.6875 2.6699 1.0556999999999999 217
12.664100000000001 2.6641000000000004 -1.0537 136
12.593800000000002 2.6483999999999996 1.3477000000000001 135
12.664100000000001 2.6641000000000004 -0.75 202
12.585899999999999 2.6464999999999996 1.6484 240
12.6875 2.668 -0.4509 162
12.648399999999999 2.6620999999999997 1.9647999999999999 248
12.656199999999998 2.6641000000000004 -0.15039999999999998 152
12.664100000000001 2.6641000000000004 2.2734 203
12.6797 2.623 0.1505 70
12.6797 2.625 0.45039999999999997 168
12.664100000000001 2.6211 0.75 109
12.6797 2.623 -1.3563999999999998 98
12.6875 2.625 1.0547 224
12.656199999999998 2.6191000000000004 -1.0518 157
12.593800000000002 2.6055 1.3466999999999998 5
12.656199999999998 2.6191000000000004 -0.7490000000000001 19
12.5781 2.6016000000000004 1.6465 115
12.6875 2.625 -0.4507 209
12.664100000000001 2.6191000000000004 1.9647999999999999 159
12.664100000000001 2.6191000000000004 -0.1503 181
12.648399999999999 2.6172000000000004 2.2695 122
12.664100000000001 2.5781 0.1503 171
12.6797 2.5801 0.45 0
12.664100000000001 2.5762 0.7495 114
12.664100000000001 2.5762 -1.3535 107
12.664100000000001 2.5781 1.0527 19
12.664100000000001 2.5781 -1.0527 234
12.601600000000001 2.5625 1.3466999999999998 173
12.656199999999998 2.5762 -0.7490000000000001 31
12.5625 2.5547 1.6436000000000002 111
12.6719 2.5781 -0.45 107
12.664100000000001 2.5762 1.9638999999999998 17
12.6719 2.5781 -0.15039999999999998 143
12.6406 2.5723000000000003 2.2676 136
12.664100000000001 2.5293 0.1501 38
12.6719 2.5293 0.4495 176
12.6797 2.5312 0.7495 39
12.6797 2.5312 -1.3544999999999998 163
12.664100000000001 2.5293 1.0518 206
12.664100000000001 2.5293 -1.0518 11
12.601600000000001 2.5156 1.3466999999999998 243
12.6719 2.5293 -0.7490000000000001 222
12.5703 2.5098 1.6436000000000002 105
12.664100000000001 2.5273 -0.44920000000000004 89
12.656199999999998 2.5273 1.9619 39
12.6719 2.5312 -0.1503 74
12.648399999999999 2.5254 2.2676 90
12.6719 2.4844 0.1501 89
12.6719 2.4824 0.449 191
12.6875 2.4863 0.7495 7
12.6875 2.4863 -1.3544999999999998 138
12.6719 2.4844 1.0508 20
12.664100000000001 2.4824 -1.0508 225
12.585899999999999 2.4668 1.3437999999999999 178
12.664100000000001 2.4824 -0.748 104
12.5703 2.4629 1.6425999999999998 85
12.6719 2.4824 -0.449 186
12.6406 2.4785 1.9580000000000002 107
12.664100000000001 2.4824 -0.15 253
12.656199999999998 2.4805 2.2676 76
12.6797 2.4414 0.1501 27
12.664100000000001 2.4375 0.4485 219
12.664100000000001 2.4395 0.7476 170
12.6875 2.4434 -1.3535 206
12.6797 2.4414 1.0508 229
12.6719 2.4395 -1.0508 105
12.585899999999999 2.4238 1.3428 119
12.664100000000001 2.4375 -0.7476 179
12.5703 2.4219 1.6416 138
12.6719 2.4414 -0.449 181
12.6406 2.4336 1.9561000000000002 181
12.6406 2.4336 -0.1497 252
12.6406 2.4355 2.2637 237
12.6719 2.3965 0.1499 17
12.6797 2.3984 0.4487 122
12.664100000000001 2.3945 0.7471 61
12.6719 2.3965 -1.3506 246
12.6797 2.3984 1.0498 107
12.6719 2.3965 -1.0498 197
12.585899999999999 2.3809 1.3418 107
12.656199999999998 2.3945 -0.7465999999999999 119
12.5703 2.377 1.6396000000000002 205
12.6797 2.3984 -0.449 27
12.656199999999998 2.3926 1.9569999999999999 193
12.656199999999998 2.3926 -0.1497 118
12.6406 2.3906 2.2598 196
12.664100000000001 2.3457 0.1497 53
12.6797 2.3477 0.4485 231
12.6719 2.3457 0.7471 152
12.664100000000001 2.3457 -1.3486000000000002 36
12.664100000000001 2.3457 1.0488 90
12.6797 2.3477 -1.0498 248
12.593800000000002 2.332 1.3418 243
12.664100000000001 2.3438 -0.7465999999999999 141
12.5547 2.3242 1.6377000000000002 34
12.664100000000001 2.3457 -0.44799999999999995 67
12.664100000000001 2.3438 1.9569999999999999 99
12.656199999999998 2.3438 -0.1497 246
12.6328 2.3398 2.2578 135
12.6797 2.3008 0.14980000000000002 178
12.664100000000001 2.2988 0.4475 61
12.6797 2.3027 0.7471 195
12.664100000000001 2.2988 -1.3486000000000002 129
12.648399999999999 2.2969 1.0469 169
12.6719 2.3008 -1.0479 35
12.593800000000002 2.2871 1.3408000000000002 201
12.664100000000001 2.2988 -0.7461 19
12.5625 2.2812 1.6377000000000002 33
12.664100000000001 2.2988 -0.44780000000000003 1
12.656199999999998 2.2969 1.9550999999999998 79
12.656199999999998 2.2988 -0.1495 120
12.648399999999999 2.2949 2.2578 222
12.664100000000001 2.2559 0.1495 82
12.656199999999998 2.2539 0.4473 105
12.6797 2.2578 0.7465999999999999 99
12.664100000000001 2.2559 -1.3477000000000001 102
12.656199999999998 2.2539 1.0459 18
12.6719 2.2559 -1.0479 69
12.585899999999999 2.2422 1.3397999999999999 228
12.6719 2.2578 -0.7461 117
12.5703 2.2383 1.6366999999999998 88
12.656199999999998 2.2559 -0.4473 77
12.6328 2.25 1.9502000000000002 244
12.648399999999999 2.252 -0.1493 74
12.648399999999999 2.252 2.2578 94
12.6875 2.2168 0.1497 35
12.656199999999998 2.2109 0.447 196
12.6719 2.2129 0.7456 247
12.6719 2.2148 -1.3477000000000001 5
12.648399999999999 2.2109 1.0459 30
12.664100000000001 2.2129 -1.0469 95
12.5781 2.1973 1.3369 37
12.656199999999998 2.2109 -0.7445999999999999 74
12.5781 2.1973 1.6366999999999998 138
12.6719 2.2129 -0.4473 34
12.6406 2.209 1.9502000000000002 54
12.6328 2.207 -0.149 213
12.6406 2.209 2.2559 208
12.664100000000001 2.1621 0.1493 82
12.656199999999998 2.1621 0.4468 11
12.656199999999998 2.1621 0.7445999999999999 207
12.664100000000001 2.1621 -1.3457 44
12.656199999999998 2.1602 1.0449 72
12.6719 2.1641 -1.0459 84
12.585899999999999 2.1484 1.3378999999999999 125
12.648399999999999 2.1602 -0.7437 18
12.5625 2.1445 1.6338 30
12.6797 2.1641 -0.4473 15
12.648399999999999 2.1602 1.9502000000000002 8
12.6406 2.1582 -0.149 245
12.6406 2.1582 2.2539 244
12.648399999999999 2.1133 0.149 222
12.664100000000001 2.1172 0.4465 76
12.664100000000001 2.1172 0.7441 147
12.656199999999998 2.1152 -1.3437999999999999 194
12.656199999999998 2.1152 1.0449 226
12.6797 2.1191 -1.0459 15
12.593800000000002 2.1055 1.3369 125
12.664100000000001 2.1172 -0.7441 62
12.5625 2.0996 1.6328 129
12.664100000000001 2.1172 -0.4465 101
12.648399999999999 2.1152 1.9491999999999998 44
12.648399999999999 2.1133 -0.149 111
12.6406 2.1133 2.252 149
12.656199999999998 2.0723 0.149 87
12.648399999999999 2.0723 0.4458 7
12.664100000000001 2.0742 0.7441 192
12.664100000000001 2.0742 -1.3437999999999999 120
12.656199999999998 2.0723 1.0439 27
12.656199999999998 2.0723 -1.0439 172
12.593800000000002 2.0625 1.3369 50
12.664100000000001 2.0742 -0.7441 220
12.5547 2.0566 1.6309 96
12.656199999999998 2.0723 -0.446 152
12.6406 2.0703 1.9463 9
12.656199999999998 2.0723 -0.149 65
12.6406 2.0703 2.252 125
12.6797 2.0332 0.1493 151
12.6406 2.0273 0.44530000000000003 94
12.664100000000001 2.0293 0.7432 200
12.664100000000001 2.0312 -1.3437999999999999 72
12.656199999999998 2.0293 1.043 94
12.648399999999999 2.0273 -1.043 38
12.585899999999999 2.0176 1.335 157
12.664100000000001 2.0312 -0.7437 200
12.5625 2.0137 1.6309 48
12.664100000000001 2.0312 -0.446 157
12.6328 2.0254 1.9443000000000001 24
12.6406 2.0273 -0.14880000000000002 172
12.6406 2.0273 2.25 106
12.6719 1.9844 0.149 167
12.6406 1.9805000000000001 0.4451 92
12.656199999999998 1.9813999999999998 0.7426999999999999 94
12.6719 1.9844 -1.3428 249
12.6719 1.9844 1.0439 0
12.656199999999998 1.9824000000000002 -1.043 10
12.5781 1.9687999999999999 1.3330000000000002 28
12.656199999999998 1.9813999999999998 -0.7426999999999999 63
12.5625 1.9668 1.6299000000000001 190
12.664100000000001 1.9834 -0.4458 50
12.648399999999999 1.9805000000000001 1.9453 64
12.6328 1.9785 -0.1487 123
12.648399999999999 1.9805000000000001 2.25 207
12.664100000000001 1.9375 0.1489 239
12.648399999999999 1.9346 0.4448 118
12.648399999999999 1.9355000000000002 0.7417 145
12.664100000000001 1.9375 -1.3418 157
12.664100000000001 1.9375 1.043 189
12.6719 1.9385 -1.043 169
12.5703 1.9238 1.3319999999999999 210
