# .PCD v0.7 - Point Cloud Data file format
VERSION 0.7
FIELDS x y z intensity
SIZE 4 4 4 4
TYPE F F F F
COUNT 1 1 1 1
WIDTH 1216
HEIGHT 1
VIEWPOINT 0 0 0 1 0 0 0
POINTS 1216
DATA ascii
-6.480499999999999 -3.8457 -0.2615 197
-12.1172 -7.1875 2.1426 23
-12.6719 -7.519500000000001 -0.1714 251
-12.164100000000001 -7.2148 2.4863 131
-6.238300000000001 -3.6738 -1.2695 47
-12.718800000000002 -7.488300000000001 0.1716 14
-6.457000000000001 -3.8026999999999997 -1.1367 105
-12.6953 -7.4765999999999995 0.5127 223
-6.1914 -3.6445 -0.9185 51
-12.6719 -7.4648 0.853 172
-6.2422 -3.6757999999999997 -0.7568 7
-12.6953 -7.4727 1.1992 204
-6.296900000000001 -3.707 -0.5932999999999999 73
-12.6797 -7.4648 1.5419999999999998 3
-11.9297 -7.0234000000000005 1.7753999999999999 112
-6.4688 -3.8086 -0.26030000000000003 34
-12.1328 -7.144500000000001 2.1406 18
-12.664100000000001 -7.453099999999999 -0.1709 15
-12.1406 -7.1523 2.4766 126
-6.199199999999999 -3.6211 -1.2588 46
-12.7031 -7.421900000000001 0.1711 132
-12.6953 -7.4140999999999995 0.5117 94
-6.1914 -3.6172000000000004 -0.917 201
-12.6875 -7.4102 0.8521 129
-6.234400000000001 -3.6406 -0.7539 70
-12.6797 -7.4062 1.1963 175
-6.300800000000001 -3.6816000000000004 -0.5922999999999999 220
-12.6719 -7.4023 1.5381 131
-11.914100000000001 -6.9609000000000005 1.7694999999999999 163
-6.4609000000000005 -3.7733999999999996 -0.2595 32
-12.1172 -7.078099999999999 2.1328 161
-12.6797 -7.4062 -0.17079999999999998 114
-12.1406 -7.0938 2.4727 142
-6.2773 -3.6387 -1.2725 139
-12.718800000000002 -7.3711 0.171 192
-12.6797 -7.3515999999999995 0.5103 247
-6.1914 -3.5898000000000003 -0.915 236
-12.7031 -7.363300000000001 0.8515999999999999 108
-6.230499999999999 -3.6113 -0.7524 41
-12.6953 -7.359400000000001 1.1943000000000001 132
-6.296900000000001 -3.6504000000000003 -0.5908 119
-12.656199999999998 -7.3359000000000005 1.5332 33
-11.914100000000001 -6.9062 1.7666 26
-6.457000000000001 -3.7422000000000004 -0.2588 17
-12.1172 -7.0234000000000005 2.1289 148
-12.6719 -7.3477 -0.1704 205
-12.156199999999998 -7.046900000000001 2.4707 27
-6.2227 -3.5762 -1.2578 12
-12.6875 -7.292999999999999 0.1703 12
-12.6719 -7.2852 0.5088 164
-6.1875 -3.5566000000000004 -0.9120999999999999 250
-12.6875 -7.292999999999999 0.8491 70
-6.238300000000001 -3.5858999999999996 -0.7515000000000001 115
-12.6719 -7.2852 1.1904000000000001 177
-6.296900000000001 -3.6191000000000004 -0.5893999999999999 230
-12.414100000000001 -7.136699999999999 1.501 71
-11.9297 -6.859400000000001 1.7646000000000002 230
-6.4609000000000005 -3.7129000000000003 -0.2583 162
-12.101600000000001 -6.957000000000001 2.1211 202
-12.648399999999999 -7.2734000000000005 -0.1698 89
-12.156199999999998 -6.988300000000001 2.4648 69
-6.2188 -3.5469 -1.2549 70
-12.710899999999999 -7.2461 0.1702 179
-12.6719 -7.2265999999999995 0.5078 58
-6.1797 -3.5233999999999996 -0.9097 48
-12.6797 -7.230499999999999 0.8467 147
-6.234400000000001 -3.5547000000000004 -0.75 229
-12.6797 -7.230499999999999 1.1885 37
-6.292999999999999 -3.5879000000000003 -0.5879 10
-12.281199999999998 -7.0039 1.4813999999999998 187
-11.9219 -6.800800000000001 1.7607 64
-6.457000000000001 -3.6816000000000004 -0.25780000000000003 192
-12.1094 -6.9062 2.1191 203
-12.6406 -7.207000000000001 -0.1693 64
-12.148399999999999 -6.925800000000001 2.459 223
-6.203099999999999 -3.5098000000000003 -1.249 218
-12.710899999999999 -7.1914 0.1698 83
-12.6875 -7.175800000000001 0.5073 13
-6.1836 -3.498 -0.9087000000000001 91
-12.6719 -7.167999999999999 0.8442000000000001 128
-6.234400000000001 -3.5273000000000003 -0.7484999999999999 119
-12.6875 -7.175800000000001 1.1865 226
-6.3047 -3.5664 -0.5879 174
-12.281199999999998 -6.949199999999999 1.4785 117
-11.9219 -6.7422 1.7559 198
-6.4648 -3.6582 -0.2576 110
-12.101600000000001 -6.8438 2.1133 64
-12.648399999999999 -7.1562 -0.1691 222
-12.1406 -6.8672 2.4512 215
-6.207000000000001 -3.4844 -1.2470999999999999 87
-12.6953 -7.125 0.1693 95
-12.6719 -7.1172 0.5059 146
-6.1953 -3.4766000000000004 -0.9081999999999999 218
-12.656199999999998 -7.105499999999999 0.8418000000000001 29
-6.2265999999999995 -3.4961 -0.7461 225
-12.6719 -7.113300000000001 1.1836 100
-6.300800000000001 -3.5370999999999997 -0.5864 5
-12.289100000000001 -6.8984000000000005 1.4766 106
-11.8906 -6.675800000000001 1.749 211
-6.4453 -3.6172000000000004 -0.2563 49
-12.101600000000001 -6.792999999999999 2.1094 88
-12.6406 -7.0977 -0.1686 104
-12.1406 -6.8125 2.4473 188
-6.207000000000001 -3.4531 -1.2451 115
-12.6953 -7.0625 0.1689 213
-6.3359000000000005 -3.5254000000000003 -1.0986 217
-12.6797 -7.0547 0.5049 106
-6.203099999999999 -3.4512 -0.9077 232
-12.6797 -7.0547 0.8412999999999999 105
-6.2227 -3.4629000000000003 -0.7441 38
-12.6719 -7.050800000000001 1.1806999999999999 134
-6.292999999999999 -3.502 -0.5845 68
-12.289100000000001 -6.8359000000000005 1.4736000000000002 198
-11.898399999999999 -6.6211 1.7461000000000002 19
-6.4297 -3.5762 -0.2551 102
-12.085899999999999 -6.7265999999999995 2.1035 25
-12.656199999999998 -7.0390999999999995 -0.1685 144
-12.148399999999999 -6.7578 2.4434 235
-12.7031 -7.0078 0.16870000000000002 233
-6.1836 -3.4120999999999997 -1.0703 226
-12.6719 -6.9922 0.5034000000000001 238
-6.1914 -3.4160000000000004 -0.9043000000000001 111
-12.6875 -7.0 0.8403 94
-6.230499999999999 -3.4375 -0.7432 121
-12.6797 -6.9961 1.1787 10
-6.2812 -3.4648000000000003 -0.5820000000000001 25
-12.289100000000001 -6.7812 1.4707 95
-11.914100000000001 -6.574199999999999 1.7450999999999999 214
-6.4414 -3.5547000000000004 -0.2551 113
-12.085899999999999 -6.667999999999999 2.0977 37
-12.656199999999998 -6.980499999999999 -0.1681 195
-12.1406 -6.699199999999999 2.4375 101
-6.2148 -3.4004000000000003 -1.2422 43
-12.6953 -6.949199999999999 0.16829999999999998 207
-6.1914 -3.3887 -1.0693000000000001 199
-12.6719 -6.9375 0.5029 88
-6.1914 -3.3887 -0.9028 108
-12.664100000000001 -6.9336 0.8373999999999999 232
-6.238300000000001 -3.4141000000000004 -0.7432 44
-12.523399999999999 -6.8515999999999995 1.1621 96
-6.2890999999999995 -3.4414 -0.5820000000000001 255
-12.289100000000001 -6.7227 1.4678 236
-11.914100000000001 -6.519500000000001 1.7412 141
-6.457000000000001 -3.5332 -0.2554 149
-12.0781 -6.609400000000001 2.0918 188
-12.6406 -6.917999999999999 -0.16760000000000003 21
-12.1406 -6.640599999999999 2.4316 66
-6.1914 -3.3613 -1.2354 117
-12.6953 -6.886699999999999 0.168 13
-6.1797 -3.3555 -1.0654000000000001 223
-12.6797 -6.8828 0.502 17
-6.1914 -3.3594 -0.9004000000000001 106
-12.6328 -6.855499999999999 0.8340000000000001 137
-6.2265999999999995 -3.3789 -0.7397 230
-12.4453 -6.7539 1.1523 209
-6.2852 -3.4101999999999997 -0.5806 173
-12.3125 -6.6797 1.4678 134
-11.906199999999998 -6.4609000000000005 1.7372999999999998 189
-6.457000000000001 -3.5039 -0.25489999999999996 80
-12.093800000000002 -6.5664 2.0918 66
-12.6172 -6.8477 -0.16699999999999998 93
-12.148399999999999 -6.5898 2.4297 75
-6.1953 -3.3339999999999996 -1.2334 26
-12.601600000000001 -6.7852 0.16649999999999998 155
-6.175800000000001 -3.3242000000000003 -1.0635 32
-12.4844 -6.7188 0.4932 162
-6.199199999999999 -3.3358999999999996 -0.8998999999999999 246
-12.476600000000001 -6.7148 0.8218000000000001 151
-6.2227 -3.3495999999999997 -0.7383 67
-12.398399999999999 -6.671900000000001 1.1465 180
-6.292999999999999 -3.3887 -0.5801 206
-12.351600000000001 -6.6484000000000005 1.4697 17
-11.898399999999999 -6.4062 1.7334 249
-6.4688 -3.4805 -0.2546 129
-12.1172 -6.5234000000000005 2.0918 41
-12.4297 -6.6914 -0.1642 103
-12.1953 -6.5625 2.4336 250
-6.2539 -3.3379000000000003 -1.2422 163
-12.4844 -6.6640999999999995 0.1646 223
-6.1797 -3.2988 -1.0615 180
-12.460899999999999 -6.6484000000000005 0.49119999999999997 241
-6.203099999999999 -3.3105 -0.8989 100
-12.468800000000002 -6.6523 0.8193 158
-6.2422 -3.332 -0.7393000000000001 240
-12.4297 -6.6328 1.1465 61
-6.3125 -3.3691000000000004 -0.5811 164
-12.3594 -6.5977 1.4678 40
-11.898399999999999 -6.3515999999999995 1.7294999999999998 144
-12.1719 -6.5 2.0977 249
-12.4375 -6.640599999999999 -0.16390000000000002 71
-12.210899999999999 -6.515599999999999 2.4336 228
-6.1875 -3.2754000000000003 -1.2266 231
-12.5 -6.6172 0.16440000000000002 202
-6.1836 -3.2733999999999996 -1.0605 37
-12.460899999999999 -6.5938 0.4905 208
-6.1914 -3.2773000000000003 -0.8955 80
-12.476600000000001 -6.605499999999999 0.8188 57
-6.2422 -3.3066000000000004 -0.7378 86
-12.4453 -6.5898 1.1465 164
-6.3086 -3.3398000000000003 -0.5791 145
-12.3594 -6.542999999999999 1.4647999999999999 57
-6.480499999999999 -3.4316000000000004 -0.4241 239
-11.875 -6.2890999999999995 1.7227000000000001 130
-12.164100000000001 -6.4414 2.0918 225
-12.4453 -6.5898 -0.1638 66
-12.210899999999999 -6.4648 2.4277 28
-12.523399999999999 -6.578099999999999 0.1646 190
-6.1953 -3.2539 -1.0605 179
-12.4844 -6.5586 0.4907 171
-6.1914 -3.252 -0.894 32
-12.5156 -6.574199999999999 0.8198000000000001 125
-6.230499999999999 -3.2714999999999996 -0.7349 107
-12.476600000000001 -6.5547 1.1475 173
-6.363300000000001 -3.3418 -0.5835 112
-12.398399999999999 -6.511699999999999 1.4668 114
-11.875 -6.238300000000001 1.7207 3
-12.164100000000001 -6.390599999999999 2.0879 143
-12.468800000000002 -6.546900000000001 -0.1638 35
-12.210899999999999 -6.4140999999999995 2.4238 50
-6.1797 -3.2168 -1.2217 49
-12.5469 -6.5312 0.1646 223
-6.207000000000001 -3.2324 -1.0605 90
-12.539100000000001 -6.5273 0.4917 41
-6.1836 -3.2188 -0.8916 207
-12.5469 -6.5312 0.8203 78
-6.2227 -3.2401999999999997 -0.7329000000000001 126
-12.5078 -6.5078 1.1475 206
-6.386699999999999 -3.3242000000000003 -0.5845 234
-12.351600000000001 -6.4297 1.459 32
-11.875 -6.1797 1.7168 240
-12.1797 -6.3398 2.0859 201
-12.4922 -6.5039 -0.1638 54
-12.2031 -6.3515999999999995 2.418 99
-6.1797 -3.1895 -1.2187999999999999 38
-12.585899999999999 -6.4961 0.1648 169
-6.199199999999999 -3.1992000000000003 -1.0576 82
-12.6094 -6.511699999999999 0.4939 65
-6.1953 -3.1973000000000003 -0.8916 215
-12.625 -6.515599999999999 0.8242 89
-6.2148 -3.207 -0.7304999999999999 219
-12.523399999999999 -6.4648 1.1475 125
-6.3359000000000005 -3.2695 -0.5786 201
-12.3672 -6.386699999999999 1.459 196
-11.875 -6.1289 1.7128999999999999 226
-12.1719 -6.2852 2.082 8
-12.539100000000001 -6.4727 -0.1641 77
-8.4062 -4.3398 1.6611000000000002 210
-6.1797 -3.1660000000000004 -1.2168 107
-12.656199999999998 -6.484400000000001 0.1654 105
-6.1914 -3.1699 -1.0537 192
-12.648399999999999 -6.480499999999999 0.4946 26
-6.1953 -3.1738 -0.8896 147
-12.656199999999998 -6.484400000000001 0.8247 114
-6.2265999999999995 -3.1895 -0.731 228
-12.585899999999999 -6.4453 1.1514 33
-12.3672 -6.3359000000000005 1.4561000000000002 216
-11.875 -6.082000000000001 1.7109 57
-12.164100000000001 -6.230499999999999 2.0762 227
-12.6328 -6.4727 -0.165 100
-8.4219 -4.3125 1.6602000000000001 114
-6.1914 -3.1445 -1.2168 103
-12.6719 -6.4375 0.1654 18
-6.1953 -3.1464999999999996 -1.0527 218
-12.656199999999998 -6.425800000000001 0.49369999999999997 159
-6.175800000000001 -3.1387 -0.8856999999999999 189
-12.6875 -6.4453 0.8251999999999999 138
-6.2227 -3.1601999999999997 -0.7290000000000001 9
-12.6953 -6.449199999999999 1.1592 186
-12.3594 -6.2812 1.4531 4
-11.875 -6.0312 1.7080000000000002 68
-12.164100000000001 -6.1797 2.0742 140
-12.6406 -6.421900000000001 -0.1649 62
-8.4141 -4.2734 1.6562000000000001 36
-6.1797 -3.1094 -1.2119 63
-12.710899999999999 -6.3984000000000005 0.1655 97
-6.203099999999999 -3.123 -1.0527 236
-12.7031 -6.394500000000001 0.4949 160
-6.1836 -3.1113 -0.8848 228
-12.773399999999999 -6.4297 0.8295999999999999 91
-6.2265999999999995 -3.1327999999999996 -0.728 39
-12.7656 -6.425800000000001 1.1631 66
-12.375 -6.230499999999999 1.4512 31
-11.875 -5.9765999999999995 1.7050999999999998 130
-6.5078 -3.2754000000000003 -0.2527 136
-12.148399999999999 -6.1172 2.0684 170
-12.7031 -6.394500000000001 -0.1654 23
-7.9414 -3.9961 1.5596 49
-6.175800000000001 -3.082 -1.21 187
-12.835899999999999 -6.4062 0.16690000000000002 204
-6.207000000000001 -3.0976999999999997 -1.0508 212
-12.8281 -6.3984000000000005 0.4988 212
-6.1797 -3.0839999999999996 -0.8828 146
-12.875 -6.425800000000001 0.8345 40
-6.2188 -3.1035000000000004 -0.7261 181
-12.906199999999998 -6.4414 1.1748 199
-12.4219 -6.199199999999999 1.4541 112
-11.8828 -5.9297 1.7031 80
-9.0938 -4.5391 1.5430000000000001 109
-12.8125 -6.394500000000001 -0.16649999999999998 169
-7.9609000000000005 -3.9726999999999997 1.5615 90
-6.1797 -3.0566000000000004 -1.208 196
-12.9297 -6.394500000000001 0.1677 207
-6.1836 -3.0586 -1.0449 15
-12.9453 -6.4062 0.5024000000000001 83
-6.1875 -3.0625 -0.8828 183
-12.976600000000001 -6.421900000000001 0.8398 78
-6.2109000000000005 -3.0723000000000003 -0.7236 109
-13.023399999999999 -6.4414 1.1826 137
-12.351600000000001 -6.109400000000001 1.4443000000000001 246
-11.906199999999998 -5.890599999999999 1.7041 126
-12.164100000000001 -6.019500000000001 2.0625 26
-12.9219 -6.390599999999999 -0.1677 235
-7.9765999999999995 -3.9473000000000003 1.5625 158
-6.1836 -3.0312 -1.207 172
-13.039100000000001 -6.394500000000001 0.1689 167
-6.1797 -3.0293 -1.043 38
-13.031199999999998 -6.390599999999999 0.5049 80
-6.1875 -3.0351999999999997 -0.8813 199
-13.093800000000002 -6.421900000000001 0.8462000000000001 127
-6.207000000000001 -3.043 -0.7217 71
-13.1406 -6.4453 1.1924 61
-12.3828 -6.074199999999999 1.4453 194
-11.960899999999999 -5.863300000000001 1.7080000000000002 211
-12.1406 -5.953099999999999 2.0566 144
-13.039100000000001 -6.394500000000001 -0.1689 53
-8.5703 -4.2031 1.6768 216
-6.1914 -3.0077999999999996 -1.2061 243
-13.1406 -6.386699999999999 0.17 31
-6.1797 -3.0039 -1.041 175
-13.148399999999999 -6.390599999999999 0.5088 81
-6.1836 -3.0039 -0.8784000000000001 42
-13.218800000000002 -6.425800000000001 0.8525 148
-6.2109000000000005 -3.0195 -0.7212000000000001 160
-13.2344 -6.4336 1.1982 75
-12.406199999999998 -6.0312 1.4453 27
-12.031199999999998 -5.8477 1.7147999999999999 186
-12.1172 -5.886699999999999 2.0469 220
-13.148399999999999 -6.390599999999999 -0.17 14
-12.2031 -5.9297 2.3848 226
-6.171900000000001 -2.9726999999999997 -1.2002 74
-13.273399999999999 -6.394500000000001 0.1714 137
-6.1953 -2.9824 -1.042 160
-13.25 -6.3828 0.5117 72
-6.1836 -2.9785000000000004 -0.877 204
-13.3203 -6.417999999999999 0.8573999999999999 91
-6.2109000000000005 -2.9922000000000004 -0.7202 229
-13.3594 -6.4336 1.207 40
-12.414100000000001 -5.980499999999999 1.4443000000000001 173
-12.0703 -5.8125 1.7178 131
-12.085899999999999 -5.8203 2.0391 57
-13.25 -6.3828 -0.1711 135
-8.8594 -4.2695 1.7266 187
-6.175800000000001 -2.9473000000000003 -1.1992 178
-13.3828 -6.390599999999999 0.1726 14
-6.1953 -2.9589999999999996 -1.041 128
-13.375 -6.386699999999999 0.5156000000000001 136
-6.1836 -2.9531 -0.8759999999999999 237
-13.4297 -6.4140999999999995 0.8633 228
-6.2109000000000005 -2.9648000000000003 -0.7188 232
-13.468800000000002 -6.4297 1.2158 196
-12.398399999999999 -5.921900000000001 1.4394999999999998 7
-7.9375 -3.7910000000000004 1.126 34
-8.7422 -4.1719 1.4697 6
-13.351600000000001 -6.375 -0.1721 235
-8.7266 -4.168 1.6982 63
-6.1797 -2.9238 -1.1982 127
-13.4844 -6.3828 0.1736 190
-6.1836 -2.9257999999999997 -1.0361 207
-13.5156 -6.394500000000001 0.5205 234
-6.1797 -2.9238 -0.8740000000000001 74
-13.539100000000001 -6.4062 0.8687 25
-6.203099999999999 -2.9336 -0.7162999999999999 224
-13.5625 -6.417999999999999 1.2217 213
-12.3828 -5.855499999999999 1.4346 93
-7.9648 -3.7676 1.1279000000000001 41
-8.6797 -4.1055 1.4569999999999999 47
-13.476600000000001 -6.3789 -0.17350000000000002 184
-8.5703 -4.0547 1.665 45
-6.1875 -2.9023000000000003 -1.1973 171
-13.5781 -6.3672 0.1744 152
-6.1797 -2.8983999999999996 -1.0342 115
-13.5703 -6.3672 0.522 239
-6.1914 -2.9043 -0.8740000000000001 109
-13.585899999999999 -6.375 0.8706 54
-6.207000000000001 -2.9120999999999997 -0.7158 73
-13.585899999999999 -6.3711 1.2217 203
-12.375 -5.8047 1.4316 21
-8.0 -3.7539 1.1318000000000001 90
-8.375 -3.9297000000000004 1.4043 175
-13.5625 -6.359400000000001 -0.17420000000000002 228
-8.4688 -3.9726999999999997 1.6425999999999998 222
-6.1953 -2.8808999999999996 -1.1973 4
-13.593800000000002 -6.3203 0.1744 74
-6.1797 -2.873 -1.0332 67
-13.5547 -6.300800000000001 0.52 69
-6.1797 -2.873 -0.8711 119
-13.5781 -6.3164 0.8687 114
-6.2148 -2.8887 -0.7158 82
-13.5703 -6.3125 1.2187999999999999 217
-12.3828 -5.7578 1.4306999999999999 203
-12.1797 -5.6640999999999995 1.7216999999999998 49
-8.3906 -3.9023000000000003 1.4043 218
-13.5547 -6.3047 -0.174 167
-8.0547 -3.7441000000000004 1.5586000000000002 24
-6.1836 -2.8476999999999997 -1.1924 96
-13.6094 -6.265599999999999 0.1743 47
-6.1875 -2.8495999999999997 -1.0322 55
-13.5703 -6.25 0.52 81
-6.171900000000001 -2.8418 -0.8687 92
-13.5703 -6.25 0.8662000000000001 111
-6.2188 -2.8651999999999997 -0.7153 232
-13.5703 -6.25 1.2168 236
-12.3828 -5.703099999999999 1.4287 126
-8.0078 -3.6895 1.1289 214
-11.843800000000002 -5.457000000000001 1.9824000000000002 51
-13.5547 -6.2461 -0.17370000000000002 9
-8.0547 -3.7108999999999996 1.5566 163
-6.1797 -2.8202999999999996 -1.1904000000000001 150
-13.585899999999999 -6.203099999999999 0.17379999999999998 232
-6.203099999999999 -2.8301 -1.0332 173
-13.5703 -6.1914 0.519 86
-6.175800000000001 -2.8183999999999996 -0.8682 124
-13.5547 -6.1875 0.8643000000000001 249
-6.2188 -2.8379000000000003 -0.7139 66
-13.5781 -6.1953 1.2158 88
-12.3906 -5.6562 1.4268 238
-8.0312 -3.6660000000000004 1.1299 245
-11.8672 -5.4140999999999995 1.9824000000000002 111
-13.5547 -6.1875 -0.17329999999999998 131
-8.0625 -3.6797000000000004 1.5556999999999999 37
-6.1797 -2.7949 -1.1885 2
-13.5703 -6.136699999999999 0.1732 242
-6.1875 -2.7969 -1.0283 24
-13.5703 -6.136699999999999 0.5181 175
-6.1797 -2.7949 -0.8667 89
-13.5703 -6.136699999999999 0.8637999999999999 227
-6.203099999999999 -2.8047000000000004 -0.7109000000000001 44
-13.5781 -6.136699999999999 1.2129 39
-12.4297 -5.6211 1.4297 69
-8.6953 -3.9297000000000004 1.2217 235
-8.7188 -3.9433999999999996 1.4531 137
-13.5547 -6.1289 -0.17309999999999998 22
-8.0859 -3.6543 1.5566 190
-6.1875 -2.7714999999999996 -1.1885 22
-13.5781 -6.082000000000001 0.17309999999999998 234
-6.1836 -2.7714999999999996 -1.0273 214
-13.5625 -6.078099999999999 0.5171 62
-6.1836 -2.7695 -0.8656999999999999 186
-13.5703 -6.078099999999999 0.8628 18
-6.2188 -2.7851999999999997 -0.7114 191
-13.5547 -6.074199999999999 1.21 229
-12.414100000000001 -5.5625 1.4247999999999998 67
-8.6641 -3.8827999999999996 1.2158 11
-8.5703 -3.8398000000000003 1.4258000000000002 47
-13.5469 -6.0703 -0.1727 6
-8.1016 -3.6308999999999996 1.5586000000000002 173
-6.1953 -2.748 -1.1875 100
-13.5781 -6.0234000000000005 0.1729 40
-6.1836 -2.7441000000000004 -1.0254 71
-13.5625 -6.015599999999999 0.5166 251
-6.175800000000001 -2.7382999999999997 -0.8633 106
-13.5625 -6.015599999999999 0.8604 35
-6.2188 -2.7577999999999996 -0.7104 219
-13.5625 -6.015599999999999 1.208 68
-8.0391 -3.5664 0.9198999999999999 29
-8.0625 -3.5762 1.1289 136
-11.875 -5.269500000000001 1.9746000000000001 142
-13.539100000000001 -6.0078 -0.1724 142
-8.1094 -3.5976999999999997 1.5575999999999999 188
-6.1797 -2.7148000000000003 -1.1826 171
-13.5781 -5.9688 0.1726 18
-6.1875 -2.7188 -1.0244 103
-13.5547 -5.957000000000001 0.5151 228
-6.171900000000001 -2.7108999999999996 -0.8613 182
-13.5625 -5.9609000000000005 0.8593999999999999 51
-6.2188 -2.7324 -0.7090000000000001 157
-13.5547 -5.957000000000001 1.2061 132
-8.0234 -3.5254000000000003 0.9165000000000001 231
-8.0312 -3.5293 1.123 199
-8.6953 -3.8183999999999996 1.4413999999999998 210
-13.539100000000001 -5.949199999999999 -0.172 166
-12.1875 -5.355499999999999 2.3398 94
-6.1797 -2.6914 -1.1806999999999999 45
-13.5703 -5.9062 0.1721 108
-6.1914 -2.6973000000000003 -1.0234 57
-13.5547 -5.9023 0.5146000000000001 220
-6.167999999999999 -2.6855 -0.8599 194
-13.5625 -5.9023 0.8579000000000001 35
-6.2109000000000005 -2.7051 -0.7075 177
-13.6094 -5.925800000000001 1.209 33
-8.0469 -3.502 0.9175 254
-8.0391 -3.5 1.1220999999999999 79
-11.9531 -5.203099999999999 1.9813999999999998 179
-13.5469 -5.8984000000000005 -0.17190000000000003 149
-12.164100000000001 -5.296900000000001 2.332 253
-6.171900000000001 -2.6620999999999997 -1.1777 47
-13.593800000000002 -5.8672 0.1722 141
-6.1875 -2.6699 -1.0205 145
-13.6094 -5.8711 0.5156000000000001 144
-6.175800000000001 -2.6641000000000004 -0.8599 198
-13.625 -5.8789 0.8608 255
-6.203099999999999 -2.6757999999999997 -0.7056 2
-13.6328 -5.8828 1.209 217
-8.0391 -3.4688 0.9159999999999999 105
-8.0078 -3.4551 1.1162 2
-9.0078 -3.8848000000000003 1.4893 220
-13.5469 -5.8477 -0.1716 192
-12.1719 -5.2539 2.3301 47
-6.1797 -2.6406 -1.1777 244
-13.6172 -5.8164 0.1722 67
-6.175800000000001 -2.6387 -1.0176 207
-13.648399999999999 -5.832000000000001 0.5166 233
-6.1836 -2.6426 -0.8593999999999999 234
-13.664100000000001 -5.8398 0.8618000000000001 192
-6.207000000000001 -2.6523000000000003 -0.7051000000000001 141
-13.6406 -5.828099999999999 1.208 5
-12.398399999999999 -5.296900000000001 1.4121000000000001 114
-8.2109 -3.5098000000000003 1.1436 139
-8.8359 -3.7773000000000003 1.459 59
-13.5547 -5.792999999999999 -0.17149999999999999 17
-8.8438 -3.7812 1.6894999999999998 253
-6.1875 -2.6211 -1.1777 252
-13.6094 -5.761699999999999 0.17190000000000003 101
-6.175800000000001 -2.6151999999999997 -1.0166 185
-13.648399999999999 -5.7773 0.5156000000000001 55
-6.1640999999999995 -2.6113 -0.8554999999999999 213
-13.656199999999998 -5.7852 0.8604 244
-6.2148 -2.6308999999999996 -0.7045999999999999 95
-13.6406 -5.7773 1.207 104
-12.3906 -5.2461 1.4102000000000001 7
-8.3359 -3.5293 1.1582 92
-11.8828 -5.0312 1.9609 2
-13.531199999999998 -5.730499999999999 -0.1709 160
-12.1719 -5.1562 2.3242 195
-6.1640999999999995 -2.5839999999999996 -1.1709 39
-13.6172 -5.707000000000001 0.1718 181
-6.1797 -2.5898000000000003 -1.0156 139
-13.656199999999998 -5.7265999999999995 0.5156000000000001 214
-6.167999999999999 -2.5858999999999996 -0.855 220
-13.6719 -5.730499999999999 0.8599 89
-6.2227 -2.6074 -0.7045999999999999 8
-13.656199999999998 -5.7227 1.2061 210
-12.3828 -5.1914 1.4072 5
-12.2344 -5.125 1.7002000000000002 197
-11.8594 -4.9727 1.9541 145
-13.531199999999998 -5.671900000000001 -0.1707 107
-12.1797 -5.1055 2.3223 247
-6.1640999999999995 -2.5586 -1.1699 19
-13.585899999999999 -5.640599999999999 0.1711 240
-6.1875 -2.5683999999999996 -1.0146 9
-13.648399999999999 -5.6640999999999995 0.5142 24
-6.175800000000001 -2.5625 -0.8545 243
-13.656199999999998 -5.667999999999999 0.8579000000000001 114
-6.2109000000000005 -2.5781 -0.7021 195
-13.656199999999998 -5.667999999999999 1.2041 54
-12.3906 -5.140599999999999 1.4053 18
-8.3359 -3.4589999999999996 1.1553 150
-11.8672 -4.9258 1.9521000000000002 70
-13.523399999999999 -5.613300000000001 -0.1703 69
-8.5 -3.5293 1.6162 132
-6.167999999999999 -2.5352 -1.1689 156
-13.593800000000002 -5.5859000000000005 0.1709 62
-6.167999999999999 -2.5352 -1.0107 146
-13.6797 -5.6211 0.5146000000000001 44
-6.1797 -2.5391 -0.8540000000000001 138
-6.2109000000000005 -2.5527 -0.7012 238
-12.4453 -5.1133 1.0947 1
-12.398399999999999 -5.0977 1.4043 198
-12.226600000000001 -5.0234 1.6943000000000001 216
-11.875 -4.8789 1.9512 86
-8.5391 -3.5098000000000003 1.6200999999999999 77
-6.175800000000001 -2.5117 -1.168 74
-12.5156 -5.0938 0.15710000000000002 125
-6.1602 -2.5059 -1.0078 212
-12.4375 -5.0625 0.4673 94
-6.175800000000001 -2.5137 -0.8525 244
-12.406199999999998 -5.0469 0.7764 147
-6.203099999999999 -2.5234 -0.6992 211
-12.398399999999999 -5.0469 1.0898 31
-12.398399999999999 -5.043 1.4022999999999999 101
-12.218800000000002 -4.9727 1.6913999999999998 78
-8.7344 -3.5526999999999997 1.4306999999999999 77
-12.3906 -5.0391 -0.1555 97
-12.1328 -4.9375 2.3027 57
-6.167999999999999 -2.4844 -1.165 47
-12.476600000000001 -5.0273 0.1564 99
-6.167999999999999 -2.4844 -1.0078 184
-12.3906 -4.9922 0.4646 167
-6.167999999999999 -2.4844 -0.8495999999999999 190
-12.406199999999998 -4.9961 0.7754000000000001 194
-6.2188 -2.5039 -0.6997 187
-12.414100000000001 -5.0 1.0889 172
-12.3906 -4.9922 1.3994 203
-12.218800000000002 -4.9219 1.6885 101
-8.75 -3.5233999999999996 1.4316 167
-12.3672 -4.9844 -0.155 214
-12.1328 -4.8906 2.2988 9
-6.167999999999999 -2.4609 -1.1641 128
-12.4297 -4.957 0.15560000000000002 196
-6.175800000000001 -2.4629 -1.0078 117
-12.414100000000001 -4.9492 0.4648 5
-6.1640999999999995 -2.459 -0.8481000000000001 64
-12.406199999999998 -4.9453 0.7744 48
-6.2148 -2.4785 -0.6981999999999999 213
-12.4219 -4.9531 1.0889 50
-12.375 -4.9336 1.3955000000000002 172
-12.2344 -4.8789 1.6885 102
-8.7891 -3.5039 1.4355000000000002 149
-12.375 -4.9375 -0.1549 140
-12.1172 -4.832 2.293 117
-6.1640999999999995 -2.4336 -1.1611 25
-12.4453 -4.9102 0.1555 222
-6.175800000000001 -2.4375 -1.0059 95
-12.4219 -4.9023 0.4644 185
-6.171900000000001 -2.4375 -0.8481000000000001 156
-12.4219 -4.9023 0.7744 19
-6.2109000000000005 -2.4512 -0.6968000000000001 52
-12.468800000000002 -4.9219 1.0918 238
-12.375 -4.8828 1.3936000000000002 218
-12.210899999999999 -4.8203 1.6836000000000002 121
-8.8984 -3.5117000000000003 1.4521000000000002 201
-12.398399999999999 -4.8945 -0.155 48
-12.1094 -4.7812 2.2891 216
-6.167999999999999 -2.4102 -1.1602 230
-12.4844 -4.875 0.1558 27
-6.175800000000001 -2.4121 -1.0039 79
-12.4531 -4.8672 0.4653 19
-6.171900000000001 -2.4102 -0.8467 9
-12.468800000000002 -4.8711 0.7764 218
-6.207000000000001 -2.4238 -0.6958 79
-12.5156 -4.8906 1.0937999999999999 242
-12.3828 -4.8398 1.3925999999999998 170
-12.210899999999999 -4.7695 1.6806999999999999 57
-11.851600000000001 -4.6289 1.9336000000000002 161
-12.4219 -4.8516 -0.155 158
-12.1172 -4.7344 2.2871 125
-6.171900000000001 -2.3867 -1.1592 132
-12.5078 -4.8359 0.156 192
-6.175800000000001 -2.3867 -1.0029000000000001 169
-12.5 -4.832 0.4661 195
-6.1797 -2.3887 -0.8467 109
-12.531199999999998 -4.8477 0.7793000000000001 65
-6.2109000000000005 -2.4004 -0.6953 199
-12.6172 -4.8789 1.1016 239
-12.4219 -4.8008 1.3955000000000002 72
-12.1953 -4.7148 1.6768 165
-11.8203 -4.5703 1.9268 28
-12.468800000000002 -4.8203 -0.15539999999999998 183
-12.1172 -4.6836 2.2832 0
-6.175800000000001 -2.3633 -1.1592 14
-12.6172 -4.8281 0.15710000000000002 237
-6.175800000000001 -2.3633 -1.002 167
-12.5781 -4.8125 0.4685 117
-6.167999999999999 -2.3613 -0.8442000000000001 224
-13.531199999999998 -5.1797 0.8403 5
-6.2188 -2.3809 -0.6953 155
-13.531199999999998 -5.1797 1.1797 102
-9.0 -3.4433999999999996 1.0078 76
-8.8828 -3.4004000000000003 1.2187999999999999 12
-11.8281 -4.5273 1.9247999999999998 174
-12.5078 -4.7852 -0.15560000000000002 92
-12.1094 -4.6328 2.2793 48
-6.171900000000001 -2.3359 -1.1562000000000001 176
-13.531199999999998 -5.125 0.16829999999999998 16
-6.1836 -2.3418 -1.002 6
-13.531199999999998 -5.125 0.5034000000000001 156
-6.1640999999999995 -2.334 -0.8423 236
-13.539100000000001 -5.125 0.8393999999999999 109
-6.2227 -2.3574 -0.6948000000000001 11
-13.5469 -5.1289 1.1797 146
-6.359400000000001 -2.4082 -0.5518 110
-8.9766 -3.3983999999999996 1.0039 193
-8.8906 -3.3672000000000004 1.2178 226
-11.843800000000002 -4.4844 1.9247999999999998 194
-13.5156 -5.1172 -0.1681 213
-10.0078 -3.7910000000000004 1.8799000000000001 146
-6.1640999999999995 -2.3086 -1.1533 186
-13.5469 -5.0742 0.16820000000000002 48
-6.1797 -2.3164 -1.0 13
-13.531199999999998 -5.0703 0.5029 86
-6.167999999999999 -2.3105 -0.8418000000000001 219
-13.531199999999998 -5.0703 0.8379000000000001 233
-6.2227 -2.332 -0.6938 223
-13.539100000000001 -5.0742 1.1777 247
-8.9844 -3.3672000000000004 1.0039 245
-8.8906 -3.3301 1.2158 128
-8.8594 -3.3202999999999996 1.4365 41
-13.5078 -5.0586 -0.1677 238
-12.085899999999999 -4.5273 2.2676 244
-6.171900000000001 -2.2871 -1.1533 133
-13.531199999999998 -5.0156 0.1678 216
-6.175800000000001 -2.2891 -0.998 240
-13.539100000000001 -5.0195 0.5024000000000001 200
-6.171900000000001 -2.2871 -0.8412999999999999 134
-13.531199999999998 -5.0156 0.8369 90
-6.2188 -2.3066 -0.6923999999999999 14
-13.531199999999998 -5.0156 1.1748 166
-8.9844 -3.3301 1.0029000000000001 16
-12.0469 -4.4648 1.6475 159
-8.8594 -3.2832 1.4336000000000002 189
-13.523399999999999 -5.0117 -0.1677 177
-9.9844 -3.7012 1.8700999999999999 252
-6.167999999999999 -2.2617 -1.1514 131
-13.539100000000001 -4.9648 0.1677 135
-6.171900000000001 -2.2637 -0.9956 202
-13.523399999999999 -4.9609 0.5015 210
-6.1640999999999995 -2.2598 -0.8389 204
-13.539100000000001 -4.9648 0.8364 251
-6.2188 -2.2812 -0.6919 240
-13.531199999999998 -4.9609 1.1738 45
-9.0078 -3.3047000000000004 1.0039 21
-12.039100000000001 -4.4141 1.6436000000000002 118
-8.8672 -3.2539 1.4346 137
-13.4844 -4.9453 -0.1671 206
-12.093800000000002 -4.4375 2.2637 250
-6.1797 -2.2441 -1.1523 167
-13.5469 -4.918 0.16760000000000003 249
-6.171900000000001 -2.2402 -0.9945999999999999 195
-13.523399999999999 -4.9062 0.5005 29
-6.1640999999999995 -2.2383 -0.8379000000000001 56
-13.539100000000001 -4.9141 0.8354 110
-6.2265999999999995 -2.2598 -0.6919 48
-13.531199999999998 -4.9102 1.1719 139
-9.0156 -3.2733999999999996 1.0039 225
-12.156199999999998 -4.4102 1.6572 20
-11.8281 -4.293 1.9121000000000001 179
-13.5 -4.8984 -0.16699999999999998 172
-8.8828 -3.2245999999999997 1.6591999999999998 96
-6.167999999999999 -2.2168 -1.1484 71
-13.5547 -4.8672 0.1675 240
-6.175800000000001 -2.2188 -0.9945999999999999 248
-13.523399999999999 -4.8594 0.5 202
-6.1640999999999995 -2.2129 -0.8369 159
-13.5156 -4.8555 0.833 180
-6.238300000000001 -2.2402 -0.6919 198
-13.531199999999998 -4.8633 1.1709 56
-9.0234 -3.2422000000000004 1.0029000000000001 208
-12.2031 -4.3828 1.6631 55
-13.4922 -4.8477 -0.16670000000000001 218
-8.0547 -2.8926 1.5019999999999998 37
-6.1562 -2.1855 -1.1445 41
-13.5547 -4.8125 0.1672 45
-6.1797 -2.1934 -0.9932 75
-13.523399999999999 -4.8008 0.4993 187
-6.1797 -2.1934 -0.8379000000000001 181
-13.5078 -4.7969 0.8315 206
-6.230499999999999 -2.2129 -0.6904 117
-13.531199999999998 -4.8047 1.1689 255
-9.0469 -3.2129000000000003 1.0049 143
-12.1875 -4.3281 1.6582 137
-11.8203 -4.1953 1.9062000000000001 63
-13.5 -4.793 -0.1666 217
-8.0156 -2.8476999999999997 1.4931999999999999 24
-6.167999999999999 -2.166 -1.1445 82
-13.531199999999998 -4.75 0.16670000000000001 144
-6.175800000000001 -2.168 -0.9912000000000001 147
-13.531199999999998 -4.75 0.499 59
-6.1875 -2.1719 -0.8379000000000001 22
-13.523399999999999 -4.7461 0.8311 178
-6.230499999999999 -2.1875 -0.6895 201
-13.523399999999999 -4.75 1.167 235
-9.1094 -3.1992000000000003 1.0098 197
-12.1797 -4.2773 1.6553 59
-11.8281 -4.1523 1.9053 121
-13.5078 -4.7422 -0.16649999999999998 143
-8.0234 -2.8164 1.4912 186
-6.167999999999999 -2.1426 -1.1445 64
-13.539100000000001 -4.6992 0.1666 148
-6.1562 -2.1387 -0.9873000000000001 179
-13.523399999999999 -4.6992 0.49829999999999997 62
-6.1836 -2.1465 -0.8364 86
-13.531199999999998 -4.6992 0.8311 145
-6.234400000000001 -2.166 -0.6895 157
-13.5156 -4.6914 1.165 24
-12.3594 -4.293 1.3700999999999999 150
-12.2031 -4.2383 1.6562000000000001 78
-11.8281 -4.1094 1.9033000000000002 186
-13.5156 -4.6953 -0.1664 87
-8.0469 -2.7949 1.4950999999999999 18
-6.167999999999999 -2.1172 -1.1426 31
-13.539100000000001 -4.6484 0.16649999999999998 244
-6.167999999999999 -2.1172 -0.9878 77
-13.5078 -4.6406 0.4971 108
-6.167999999999999 -2.1172 -0.8334999999999999 247
-13.5703 -4.6602 0.8320000000000001 222
-6.2422 -2.1445 -0.6895 2
-9.1094 -3.127 0.7827 9
-12.3594 -4.2461 1.3691 250
-9.3203 -3.1992000000000003 1.2617 161
-8.5156 -2.9238 1.3662 201
-13.5078 -4.6367 -0.1661 24
-12.101600000000001 -4.1562 2.248 118
-6.1562 -2.0898 -1.1387 71
-13.6172 -4.6211 0.1672 160
-6.171900000000001 -2.0938 -0.9873000000000001 60
-13.6094 -4.6211 0.5 107
-6.1640999999999995 -2.0918 -0.8320000000000001 54
-13.6797 -4.6445 0.8379000000000001 144
-6.238300000000001 -2.1172 -0.688 112
-9.1016 -3.0879000000000003 0.7812 128
-9.2266 -3.1327999999999996 1.0195 1
-9.3359 -3.1699 1.2627 189
-9.5859 -3.2558999999999996 1.5381 15
-13.585899999999999 -4.6133 -0.16690000000000002 140
-8.0703 -2.7401999999999997 1.4961000000000002 238
-6.1523 -2.0645 -1.1367 187
-13.789100000000001 -4.6289 0.16920000000000002 150
-6.1797 -2.0742 -0.9873000000000001 42
-13.773399999999999 -4.6211 0.5059 99
-6.1602 -2.0664 -0.8306 216
-14.023399999999999 -4.707 0.8579000000000001 152
-6.2265999999999995 -2.0898 -0.6855 91
-9.1016 -3.0547000000000004 0.7807999999999999 28
-9.2422 -3.1016000000000004 1.0205 156
-12.1875 -4.0898 1.6475 17
-8.0625 -2.7051 1.29 74
-13.7422 -4.6094 -0.1686 121
-8.0859 -2.7129000000000003 1.4961000000000002 18
-6.1523 -2.041 -1.1357 92
-14.0625 -4.6641 0.1724 140
-6.175800000000001 -2.0469 -0.9854 242
-14.1172 -4.6836 0.5176 63
-6.167999999999999 -2.0449 -0.8306 179
-14.218800000000002 -4.7148 0.8687 239
-6.2265999999999995 -2.0664 -0.6851 107
-9.1016 -3.0176 0.7793000000000001 164
-9.2344 -3.0625 1.0176 216
-12.1953 -4.0469 1.6475 114
-8.0703 -2.6757999999999997 1.29 99
-14.085899999999999 -4.6719 -0.1727 97
-12.085899999999999 -4.0078 2.2363 76
-6.1602 -2.0195 -1.1357 92
-14.2656 -4.6758 0.1747 220
-6.1562 -2.0176 -0.981 11
-14.273399999999999 -4.6797 0.5225 234
-6.175800000000001 -2.0234 -0.8306 202
-9.1484 -2.998 0.5571 134
-6.2265999999999995 -2.041 -0.6840999999999999 203
-9.1172 -2.9882999999999997 0.7803 219
-12.3672 -4.0547 1.3633000000000002 182
-12.1875 -3.9941000000000004 1.6444999999999999 43
-8.1016 -2.6562 1.2938999999999998 222
-14.2422 -4.668 -0.1743 72
-12.101600000000001 -3.9688 2.2383 212
-6.1640999999999995 -1.9971 -1.1348 80
-14.4375 -4.6758 0.1765 47
-6.1562 -1.9941 -0.9804999999999999 93
-14.4219 -4.6719 0.5273 205
-6.171900000000001 -1.999 -0.8291 137
-9.1328 -2.9589999999999996 0.5562 26
-6.2422 -2.0215 -0.6851 112
-9.1484 -2.9648000000000003 0.7822 172
-12.351600000000001 -4.0 1.3603999999999998 249
-12.1953 -3.9492000000000003 1.6436000000000002 75
-8.8047 -2.8535000000000004 1.4053 40
-14.3203 -4.6367 -0.175 186
-12.093800000000002 -3.918 2.2344 241
-6.1562 -1.9707 -1.1328 250
-14.585899999999999 -4.668 0.1782 76
-6.1602 -1.9727000000000001 -0.98 66
-14.585899999999999 -4.6719 0.5332 78
-6.1640999999999995 -1.9727000000000001 -0.8267 200
-9.1172 -2.918 0.5542 59
-6.2422 -1.9980000000000002 -0.6840999999999999 243
-14.7578 -4.7227 1.2617 43
-12.343800000000002 -3.9512 1.3574000000000002 119
-12.1875 -3.9004000000000003 1.6406 223
-6.457000000000001 -2.0664 -0.2349 7
-14.5703 -4.6641 -0.17800000000000002 38
-12.085899999999999 -3.8672000000000004 2.2305 28
-6.1484000000000005 -1.9443000000000001 -1.1299 149
-14.789100000000001 -4.6797 0.1805 119
-6.171900000000001 -1.9521000000000002 -0.9804999999999999 241
-9.1094 -2.8808999999999996 0.3318 193
-6.1602 -1.9491999999999998 -0.8256999999999999 40
-9.0938 -2.877 0.5522 166
-6.234400000000001 -1.9716999999999998 -0.6826000000000001 27
-14.8906 -4.7109 1.2725 149
-12.343800000000002 -3.9043 1.3563999999999998 37
-12.1797 -3.8516000000000004 1.6377000000000002 223
-6.4336 -2.0352 -0.2339 209
-14.7031 -4.6484 -0.1794 226
-12.0703 -3.8164 2.2246 197
-6.1562 -1.9228999999999998 -1.1299 234
-6.1602 -1.9247999999999998 -0.9775 153
-9.0938 -2.8398000000000003 0.3308 75
-6.171900000000001 -1.9287 -0.8262 200
-9.0938 -2.8418 0.5518 80
-6.2227 -1.9434 -0.6807 24
-15.093800000000002 -4.7148 1.2881 166
-12.343800000000002 -3.8574 1.3544999999999998 198
-12.1328 -3.7910000000000004 1.6299000000000001 36
-6.4297 -2.0078 -0.2334 109
-14.875 -4.6445 -0.1813 36
-12.0703 -3.7714999999999996 2.2227 59
-6.1562 -1.9003999999999999 -1.1289 72
-9.0547 -2.793 0.1099 95
-6.1562 -1.8994 -0.9756 57
-9.0781 -2.8007999999999997 0.3298 130
-6.175800000000001 -1.9053 -0.8256999999999999 246
-9.1016 -2.8086 0.5518 117
-6.230499999999999 -1.9228999999999998 -0.6807 91
-15.2344 -4.7031 1.2988 184
-12.3594 -3.8145 1.3544999999999998 130
-12.1172 -3.7401999999999997 1.626 246
-6.4102 -1.9785 -0.2325 37
-8.9141 -2.75 1.416 72
-9.0312 -2.7870999999999997 -0.1097 6
-12.085899999999999 -3.7285000000000004 2.2227 118
-6.1562 -1.8769999999999998 -1.1279000000000001 18
-9.0469 -2.7577999999999996 0.1097 7
-6.1523 -1.876 -0.9745999999999999 68
-9.0625 -2.7617000000000003 0.32909999999999995 225
-6.175800000000001 -1.8818000000000001 -0.8247 160
-9.1094 -2.7773000000000003 0.5513 43
-6.230499999999999 -1.8994 -0.6801999999999999 78
-9.1094 -2.7773000000000003 0.7744 163
-7.6914 -2.3438 -0.6533 72
-12.351600000000001 -3.7656 1.3525 249
-12.164100000000001 -3.707 1.6299000000000001 129
-6.4102 -1.9531 -0.2322 26
-8.8984 -2.7129000000000003 1.4121000000000001 154
-9.0156 -2.748 -0.1093 88
-12.093800000000002 -3.6855 2.2227 242
-6.1562 -1.8525 -1.126 0
-9.0391 -2.7207 0.1096 159
-6.167999999999999 -1.8563999999999998 -0.9756 93
-9.1016 -2.7382999999999997 0.3301 173
-6.1640999999999995 -1.8555000000000001 -0.8228 221
-9.1172 -2.7441000000000004 0.5513 218
-6.238300000000001 -1.8769999999999998 -0.6801999999999999 174
-9.1094 -2.7422000000000004 0.7734000000000001 26
-7.6875 -2.3145 -0.6523 164
-12.343800000000002 -3.7148000000000003 1.3496000000000001 37
-12.1719 -3.6620999999999997 1.6288999999999998 69
-6.417999999999999 -1.9316 -0.2322 166
-9.0234 -2.7148000000000003 -0.1093 79
-12.0781 -3.6348000000000003 2.2168 92
-6.1562 -1.8291 -1.125 34
-9.0547 -2.6895 0.1096 127
-6.171900000000001 -1.834 -0.9751000000000001 77
-9.1406 -2.7168 0.3311 138
-6.1640999999999995 -1.8319999999999999 -0.8218000000000001 155
-9.1484 -2.7188 0.5527000000000001 35
-6.230499999999999 -1.8506 -0.6781999999999999 241
-9.1172 -2.7108999999999996 0.7734000000000001 247
-9.0625 -2.6933999999999996 0.9893000000000001 15
-12.1797 -3.6191000000000004 1.6288999999999998 86
-6.425800000000001 -1.9091999999999998 -0.2322 117
-11.8047 -3.5077999999999996 1.8721 106
-9.0391 -2.6875 -0.1094 217
-12.0703 -3.5879000000000003 2.2129 186
-6.1562 -1.8066 -1.124 131
-9.0703 -2.6601999999999997 0.1096 56
-6.1602 -1.8066 -0.9722 81
-15.4297 -4.5273 0.5596 205
-6.1797 -1.8135 -0.8231999999999999 39
-15.4453 -4.5312 0.9336 34
-6.2227 -1.8262 -0.6772 177
-9.1406 -2.6816000000000004 0.7744 57
-9.0703 -2.6620999999999997 0.9893000000000001 1
-12.1719 -3.5702999999999996 1.626 25
-6.425800000000001 -1.8857 -0.2321 121
-11.8125 -3.4668 1.8711000000000002 144
-9.0859 -2.6660000000000004 -0.1099 164
-8.8125 -2.5839999999999996 1.6113 76
-6.167999999999999 -1.7861000000000002 -1.125 150
-9.0938 -2.6348000000000003 0.1099 18
-6.1602 -1.7841999999999998 -0.9717 68
-6.1797 -1.79 -0.8223 58
-6.230499999999999 -1.8037 -0.6772 244
-9.1719 -2.6562 0.7764 53
-9.0938 -2.6327999999999996 0.9902 72
-12.1875 -3.5293 1.6269999999999998 228
-6.4375 -1.8643 -0.2322 95
-11.8125 -3.4199 1.8681999999999999 56
-12.093800000000002 -3.502 2.2129 68
-6.1640999999999995 -1.7607 -1.123 90
-6.171900000000001 -1.7637 -0.9722 24
-6.167999999999999 -1.7627000000000002 -0.8198000000000001 223
-6.2461 -1.7861000000000002 -0.6781999999999999 86
-15.4453 -4.4141 1.3086000000000002 157
-12.3594 -3.5312 1.3457 204
-8.9688 -2.5625 1.1943000000000001 124
-6.449199999999999 -1.8428 -0.2324 252
-8.9062 -2.5449 1.4053 41
-15.4844 -4.4258 -0.18739999999999998 40
-12.093800000000002 -3.457 2.2109 246
-6.1562 -1.7363 -1.1211 53
-6.171900000000001 -1.7412 -0.9717 83
-6.1640999999999995 -1.7383000000000002 -0.8184 58
-15.476600000000001 -4.3672 0.9331 251
-6.2461 -1.7607 -0.6772 95
-15.4531 -4.3594 1.3075999999999999 45
-9.2891 -2.6191000000000004 1.0098 196
-8.9688 -2.5293 1.1934 82
-6.5 -1.8330000000000002 -0.23399999999999999 152
-8.9453 -2.5215 1.4102000000000001 166
-15.4297 -4.3516 -0.1865 49
-12.0781 -3.4062 2.2051 190
-6.1523 -1.7138999999999998 -1.1181999999999999 167
-6.171900000000001 -1.7197 -0.9706999999999999 57
-15.531199999999998 -4.3281 0.561 252
-6.171900000000001 -1.7197 -0.8188 67
-16.3125 -4.543 0.9823999999999999 85
-6.234400000000001 -1.7363 -0.6753 100
-15.4531 -4.3047 1.3066 209
-9.2812 -2.5858999999999996 1.0078 159
-6.542999999999999 -1.8232 -0.23550000000000001 119
-8.9062 -2.4824 1.4043 126
-15.4219 -4.2969 -0.1863 121
-12.0547 -3.3594 2.1992 109
-6.1562 -1.6934 -1.1181999999999999 40
-6.167999999999999 -1.6963 -0.9688 76
-18.8594 -5.1875 0.6812 75
-6.1836 -1.7012 -0.8198000000000001 226
-21.9375 -6.0352 1.3213 45
-6.2265999999999995 -1.7119 -0.6738 57
-15.4531 -4.25 1.3056999999999999 157
-9.3047 -2.5586 1.0098 202
-12.1797 -3.3516000000000004 1.6200999999999999 185
-6.5938 -1.8135 -0.2369 247
-11.8281 -3.2539 1.8643 81
-15.5469 -4.2773 -0.18760000000000002 73
-12.0781 -3.3223000000000003 2.2012 94
-6.1640999999999995 -1.6709 -1.1181999999999999 99
-18.8594 -5.1133 0.22769999999999999 19
-6.1640999999999995 -1.6709 -0.9673 115
-18.8906 -5.1211 0.6816 246
-6.175800000000001 -1.6747999999999998 -0.8179000000000001 110
-20.7344 -5.6211 1.2470999999999999 15
-6.230499999999999 -1.6894999999999998 -0.6738 199
-15.4453 -4.1875 1.3037 86
-9.3047 -2.5234 1.0088 67
-12.210899999999999 -3.3125 1.6221 116
-6.667999999999999 -1.8086000000000002 -0.2395 237
-8.8125 -2.3906 1.3857 173
-17.5938 -4.7695 -0.21230000000000002 69
-12.0781 -3.2754000000000003 2.1992 134
-6.167999999999999 -1.6494 -1.1181999999999999 36
-17.6719 -4.7266 0.213 176
-6.1640999999999995 -1.6484 -0.9668000000000001 169
-19.3281 -5.167999999999999 0.6973 15
-6.171900000000001 -1.6503999999999999 -0.8159000000000001 124
-19.5312 -5.2227 1.1738 77
-6.2422 -1.6688999999999998 -0.6743000000000001 109
-15.4375 -4.1289 1.3018 104
-9.3203 -2.4922 1.0098 83
-12.226600000000001 -3.2695 1.6221 43
-8.8828 -2.375 1.3955000000000002 161
-17.5781 -4.7031 -0.2119 175
-12.0781 -3.2285000000000004 2.1973 225
-6.1640999999999995 -1.624 -1.1162 96
-17.6719 -4.6562 0.21280000000000002 22
-6.171900000000001 -1.626 -0.9668000000000001 92
-19.5781 -5.1602 0.7051000000000001 89
-6.1640999999999995 -1.624 -0.8145 64
-19.6719 -5.1836 1.1806999999999999 56
-6.25 -1.6465 -0.6748000000000001 13
-15.476600000000001 -4.0781 1.3037 202
-9.3359 -2.4609 1.0107 89
-12.218800000000002 -3.2188 1.6191 10
-9.0547 -2.3848 1.4209 205
-17.5781 -4.6328 -0.2118 141
-12.0625 -3.1776999999999997 2.1914 26
-6.144500000000001 -1.5966999999999998 -1.1123 18
-17.7188 -4.6016 0.21309999999999998 31
-6.175800000000001 -1.6044999999999998 -0.9668000000000001 184
-19.75 -5.1289 0.7104 11
-6.167999999999999 -1.6016 -0.8140000000000001 78
-19.8906 -5.167999999999999 1.1934 1
-6.2422 -1.6221 -0.6733 254
-15.5 -4.0273 1.3047 32
-9.3828 -2.4375 1.0146 235
-12.210899999999999 -3.1719 1.6181999999999999 174
-9.1016 -2.3652 1.4277000000000002 207
-17.6094 -4.5742 -0.2118 102
-8.6641 -2.25 1.5713 47
-6.1562 -1.5771000000000002 -1.1133 119
-6.167999999999999 -1.5800999999999998 -0.9643999999999999 11
-12.406199999999998 -3.1797000000000004 0.4456 193
-6.171900000000001 -1.5811000000000002 -0.8140000000000001 90
-12.375 -3.1699 0.7406999999999999 9
-6.2461 -1.5996000000000001 -0.6729 246
-12.398399999999999 -3.1776999999999997 1.042 148
-9.3984 -2.4082 1.0156 240
-12.210899999999999 -3.1289 1.6162 165
-11.7969 -3.0214999999999996 1.8506 192
-12.351600000000001 -3.1660000000000004 -0.1482 43
-12.0 -3.0742000000000003 2.1777 235
-6.1602 -1.5566 -1.1133 255
-12.3906 -3.1308999999999996 0.14859999999999998 68
-6.167999999999999 -1.5586000000000002 -0.9634 88
-12.3594 -3.123 0.4434 206
-6.175800000000001 -1.5605000000000002 -0.8140000000000001 146
-12.3594 -3.123 0.7387999999999999 128
-6.1953 -1.5654 -0.667 54
-12.343800000000002 -3.1191000000000004 1.0361 22
-9.4297 -2.3828 1.0176 12
-12.218800000000002 -3.0858999999999996 1.6152000000000002 167
-11.789100000000001 -2.9785000000000004 1.8477000000000001 175
-12.3281 -3.1151999999999997 -0.1478 186
-11.9297 -3.0156 2.1621 79
-6.167999999999999 -1.5332 -1.1133 80
-12.375 -3.0762 0.1482 229
-6.1562 -1.5303 -0.9604 35
-12.3281 -3.0645 0.44170000000000004 29
-6.1640999999999995 -1.5332 -0.812 58
-12.3594 -3.0723000000000003 0.7383 217
-6.144500000000001 -1.5272999999999999 -0.6606000000000001 221
-12.351600000000001 -3.0702999999999996 1.0361 190
-9.4531 -2.3516 1.0195 137
-6.3789 -1.5859 -0.3799 241
-12.2422 -3.043 1.6172 40
-11.7656 -2.9238 1.8418 92
-12.3203 -3.0625 -0.1476 150
-11.843800000000002 -2.9452999999999996 2.1445 141
-6.1562 -1.5078 -1.1104 66
-12.3906 -3.0332 0.1482 54
-6.1797 -1.5127000000000002 -0.9634 150
-12.3281 -3.0176 0.4414 12
-6.1602 -1.5088 -0.8105 180
-12.351600000000001 -3.0254000000000003 0.7373000000000001 124
-6.125 -1.5 -0.6581999999999999 252
-12.375 -3.0312 1.0371 254
-9.5156 -2.3301 1.0254 19
-6.3438 -1.5537 -0.3772 33
-12.2344 -2.9961 1.6152000000000002 145
-7.078099999999999 -1.7324000000000002 -0.2527 38
-11.789100000000001 -2.8867000000000003 1.8447 5
-12.3125 -3.0156 -0.14730000000000001 28
-11.8047 -2.8906 2.1367 99
-6.144500000000001 -1.4824000000000002 -1.1074 159
-12.375 -2.9844 0.1479 242
-6.175800000000001 -1.4902000000000002 -0.9623999999999999 164
-12.3672 -2.9824 0.4424 252
-6.167999999999999 -1.4872999999999998 -0.8105 111
-12.3594 -2.9824 0.7373000000000001 7
-6.0898 -1.4687999999999999 -0.6537999999999999 168
-12.398399999999999 -2.9901999999999997 1.0381 223
-6.207000000000001 -1.4971 -0.5181 233
-9.5859 -2.3125 1.0322 140
-6.3477 -1.5312000000000001 -0.3772 81
-9.6641 -2.332 1.2734 135
-7.082000000000001 -1.7080000000000002 -0.2527 43
-11.851600000000001 -2.8574 1.8525 50
-12.343800000000002 -2.9766000000000004 -0.1476 194
-9.1875 -2.2168 1.6591999999999998 52
-6.1602 -1.4628999999999999 -1.1084 176
-12.3906 -2.9433999999999996 0.1481 209
-6.1640999999999995 -1.4638999999999998 -0.9595 87
-12.375 -2.9395 0.4424 246
-6.1797 -1.4678 -0.8115000000000001 61
-12.414100000000001 -2.9473000000000003 0.7397 65
-6.109400000000001 -1.4512 -0.6553 96
-12.4844 -2.9648000000000003 1.0439 223
-6.1914 -1.4707 -0.5161 17
-12.414100000000001 -2.9473000000000003 1.3359 190
-6.3398 -1.5059 -0.3765 40
-9.6406 -2.2891 1.2695 148
-7.2812 -1.7294999999999998 -0.2595 68
-9.6719 -2.2969 1.5088 108
-12.3594 -2.9355 -0.1477 79
-9.2031 -2.1855 1.6611000000000002 79
-6.1562 -1.4404 -1.1074 186
-12.476600000000001 -2.9199 0.1489 69
-6.167999999999999 -1.4434 -0.9595 218
-12.4297 -2.9082 0.44380000000000003 158
-6.1875 -1.4472999999999998 -0.812 15
-12.476600000000001 -2.9199 0.7432 82
-6.1211 -1.4325999999999999 -0.6562 174
-13.468800000000002 -3.1523000000000003 1.126 196
-6.1914 -1.4491999999999998 -0.5156000000000001 112
-12.4922 -2.9219 1.3437999999999999 194
-6.3515999999999995 -1.4863 -0.377 144
-9.6406 -2.2559 1.2686 143
-7.2109000000000005 -1.6875 -0.2568 24
-9.6641 -2.2617 1.5068000000000001 167
-12.398399999999999 -2.9004000000000003 -0.1479 8
-11.781199999999998 -2.7558999999999996 2.127 214
-6.1602 -1.4199000000000002 -1.1074 154
-6.1640999999999995 -1.4209 -0.9584999999999999 46
-12.601600000000001 -2.9043 0.4497 169
-6.1640999999999995 -1.4209 -0.8081 6
-13.4922 -3.1094 0.8027 183
-6.1328 -1.4141 -0.6572 58
-13.476600000000001 -3.1055 1.126 104
-6.203099999999999 -1.4297 -0.5166 131
-13.460899999999999 -3.1035000000000004 1.4472999999999998 204
-6.359400000000001 -1.4658000000000002 -0.377 12
-9.6719 -2.2305 1.2715 73
-7.375 -1.7002000000000002 -0.2625 252
-9.6641 -2.2285 1.5059 94
-12.468800000000002 -2.873 -0.1487 215
-9.6094 -2.2148 1.7313999999999998 129
-6.1484000000000005 -1.3916 -1.1035 195
-13.476600000000001 -3.0526999999999997 0.16079999999999997 235
-6.175800000000001 -1.3984 -0.9590000000000001 51
-13.468800000000002 -3.0488 0.4805 0
-6.1562 -1.3944999999999999 -0.8066 9
-13.4844 -3.0526999999999997 0.8018000000000001 51
-6.1640999999999995 -1.3965 -0.6597 26
-13.476600000000001 -3.0507999999999997 1.125 225
-13.460899999999999 -3.0488 1.4463 86
-6.363300000000001 -1.4413999999999998 -0.377 61
-7.609400000000001 -1.7227000000000001 -0.2705 42
-9.7422 -2.207 1.5166 86
-13.4453 -3.0449 -0.1604 183
-9.5703 -2.168 1.7236000000000002 86
-6.140599999999999 -1.3681999999999999 -1.1016 43
-13.468800000000002 -3.0 0.1604 235
-6.175800000000001 -1.376 -0.9584999999999999 70
-13.468800000000002 -3.002 0.4802 210
-6.1640999999999995 -1.3730000000000002 -0.8066 187
-13.468800000000002 -3.0 0.8003 196
-6.1836 -1.3779 -0.6616 159
