# .PCD v0.7 - Point Cloud Data file format
VERSION 0.7
FIELDS x y z intensity
SIZE 4 4 4 4
TYPE F F F F
COUNT 1 1 1 1
WIDTH 1270
HEIGHT 1
VIEWPOINT 0 0 0 1 0 0 0
POINTS 1270
DATA ascii
-23.7812 -28.6875 3.9101999999999997 166
-7.0859000000000005 -8.5469 1.4228999999999998 7
-12.8906 -15.5469 -0.7036 175
-6.9062 -8.3281 1.6436000000000002 183
-12.8828 -15.539100000000001 -0.2351 230
-6.957000000000001 -8.3906 1.9141 184
-0.625 -0.7484999999999999 -0.1646 216
-12.968800000000002 -15.531199999999998 0.2357 112
-4.3086 -5.1602 -1.0186 121
-12.9844 -15.5469 0.7056 91
-9.0703 -10.8594 0.8203 254
-6.488300000000001 -7.7734000000000005 -1.0595999999999999 12
-7.4727 -8.9531 0.9487000000000001 45
-6.550800000000001 -7.8477 -0.8315 151
-9.6875 -11.6094 1.585 173
-7.015599999999999 -8.3984 1.4022999999999999 71
-12.9453 -15.5078 -0.7036 12
-6.9062 -8.2734 1.6366999999999998 194
-12.960899999999999 -15.523399999999999 -0.23559999999999998 14
-6.988300000000001 -8.375 1.916 44
-0.625 -0.7432 -0.1638 157
-13.0781 -15.5547 0.23670000000000002 83
-4.3672 -5.1953 -1.0283 174
-13.0703 -15.539100000000001 0.7070000000000001 92
-9.5312 -11.335899999999999 0.8589 232
-6.4922 -7.7188 -1.0556999999999999 194
-8.0391 -9.5625 1.0166 236
-6.546900000000001 -7.7852 -0.8271 78
-9.6875 -11.5156 1.5771000000000002 85
-6.9648 -8.2812 1.3866999999999998 185
-6.9297 -8.2422 -0.3743 173
-6.984400000000001 -8.3047 1.6484 105
-9.4766 -11.273399999999999 2.5898000000000003 245
-0.5893999999999999 -0.6958 -0.1534 3
-13.164100000000001 -15.5469 0.2373 37
-4.3594 -5.1484000000000005 -1.0225 140
-13.164100000000001 -15.5469 0.7095 221
-6.480499999999999 -7.6523 -1.2841999999999998 3
-9.9766 -11.781199999999998 0.8955 181
-6.4961 -7.667999999999999 -1.0518 255
-8.0312 -9.4844 1.0117 64
-6.5547 -7.7422 -0.8251999999999999 222
-9.1406 -10.789100000000001 1.4813999999999998 57
-8.7891 -10.375 1.7431999999999999 43
-6.894500000000001 -8.1406 -0.37060000000000004 166
-6.9023 -8.1484 1.6221 52
-13.1328 -15.5078 -0.2368 130
-7.4062 -8.75 2.0137 119
-0.5815 -0.6816 -0.1506 59
-13.2422 -15.531199999999998 0.2378 144
-4.3711 -5.125 -1.0205 158
-13.2578 -15.5469 0.7119 2
-6.5039 -7.625 -1.2841999999999998 78
-10.0781 -11.8125 0.9009 33
-6.4922 -7.613300000000001 -1.0469 81
-8.0703 -9.4688 1.0127 52
-6.5664 -7.6953 -0.8228 46
-7.7812 -9.125 1.2559 200
-7.3672 -8.6406 1.4550999999999998 0
-6.8711 -8.0547 -0.3679 29
-6.9023 -8.0938 1.6152000000000002 106
-13.226600000000001 -15.5078 -0.23739999999999997 29
-9.6406 -11.3047 2.6113 209
-0.6093999999999999 -0.7095 -0.1576 59
-13.3047 -15.4922 0.2379 148
-4.3906 -5.1133 -1.0205 97
-13.351600000000001 -15.5469 0.7139 226
-6.5039 -7.5703 -1.2783 23
-9.3594 -10.8906 0.833 38
-6.4922 -7.5586 -1.043 208
-8.0859 -9.4141 1.0098 241
-6.605499999999999 -7.6914 -0.8247 210
-7.832000000000001 -9.1172 1.2588 59
-7.3047 -8.5078 1.4365 15
-6.832000000000001 -7.957000000000001 -0.36450000000000005 177
-6.9648 -8.1094 1.624 34
-13.3203 -15.5156 -0.23829999999999998 196
-7.5547 -8.7969 2.0371 34
-0.6455 -0.7461 -0.1666 247
-13.4453 -15.539100000000001 0.7158 247
-6.5039 -7.519500000000001 -1.2734 19
-9.4766 -10.960899999999999 0.8403 172
-6.4922 -7.5078 -1.0391 49
-8.1406 -9.4141 1.0127 141
-6.5703 -7.5938 -0.8169 221
-7.855499999999999 -9.0781 1.2568000000000001 104
-7.2773 -8.4141 1.4247999999999998 240
-6.8203 -7.886699999999999 -0.36229999999999996 40
-7.015599999999999 -8.1094 1.6288999999999998 140
-13.4297 -15.523399999999999 -0.2391 177
-7.449199999999999 -8.6094 2.0 31
-0.6147 -0.7056 -0.1576 49
-13.523399999999999 -15.523399999999999 0.7173 96
-6.4961 -7.457000000000001 -1.2666 162
-9.4844 -10.8828 0.8369 196
-6.511699999999999 -7.4727 -1.0371 211
-8.1875 -9.3984 1.0146 157
-6.5898 -7.5625 -0.8159000000000001 100
-9.4297 -10.8281 1.5049000000000001 241
-8.3828 -9.625 1.6366999999999998 194
-6.8164 -7.824199999999999 -0.36060000000000003 206
-7.1953 -8.2578 1.6641 99
-13.0 -14.9219 -0.2306 115
-7.453099999999999 -8.5547 1.9941 108
-0.6431 -0.7329000000000001 -0.1646 30
-13.656199999999998 -15.5625 0.2412 182
-13.625 -15.531199999999998 0.7197 160
-6.5 -7.4102 -1.2627 38
-6.5 -7.4102 -1.0312000000000001 236
-8.2109 -9.3594 1.0127 204
-8.3438 -9.5078 1.3252000000000002 161
-7.144500000000001 -8.1484 1.3887 155
-6.8086 -7.7578 -0.3586 139
-7.199199999999999 -8.2109 1.6582 201
-12.9375 -14.7422 -0.2285 210
-7.3477 -8.375 1.9580000000000002 97
-0.6665000000000001 -0.7544 -0.17 239
-13.710899999999999 -15.523399999999999 0.2413 174
-8.8672 -10.0391 0.4661 6
-6.5 -7.359400000000001 -1.2578 255
-9.375 -10.6172 0.8212999999999999 139
-6.5 -7.355499999999999 -1.0273 111
-8.2344 -9.3203 1.0127 254
-8.2266 -9.3125 1.3008000000000002 54
-8.5625 -9.6953 1.6591999999999998 44
-6.8125 -7.7109000000000005 -0.3577 84
-7.2422 -8.1953 1.6611000000000002 140
-12.960899999999999 -14.6719 -0.228 136
-7.2890999999999995 -8.25 1.9336000000000002 16
-13.8047 -15.5156 0.2419 227
-8.8828 -9.9844 0.4648 238
-6.5 -7.3086 -1.2529000000000001 24
-13.8672 -15.585899999999999 1.2109 56
-6.5 -7.3047 -1.0225 82
-8.2734 -9.2969 1.0127 28
-8.3516 -9.3828 1.3154 74
-7.4023 -8.3203 1.4268 221
-6.8125 -7.6562 -0.35600000000000004 91
-7.2812 -8.1875 1.6641 106
-13.781199999999998 -15.4922 -0.2416 128
-7.3672 -8.2812 1.9472999999999998 200
-8.75 -9.7656 0.4561 82
-6.4961 -7.2461 -1.2461 59
-13.960899999999999 -15.5781 1.2148 182
-6.5039 -7.2578 -1.0195 191
-8.3281 -9.2969 1.0156 84
-8.3516 -9.3203 1.3105000000000002 214
-7.2265999999999995 -8.0703 1.3877000000000002 198
-6.8125 -7.6015999999999995 -0.3547 25
-7.199199999999999 -8.0391 1.6387 58
-12.976600000000001 -14.4844 -0.2266 145
-7.207000000000001 -8.0469 1.8975 98
-14.0078 -15.523399999999999 0.2437 162
-14.0078 -15.523399999999999 0.7284999999999999 101
-6.488300000000001 -7.1914 -1.2402 247
-14.0547 -15.5781 1.2178 245
-6.5039 -7.207000000000001 -1.0156 64
-8.3984 -9.3047 1.0205 41
-7.8359000000000005 -8.6875 1.2246 156
-7.2812 -8.0703 1.3925999999999998 205
-6.8398 -7.578099999999999 -0.3547 41
-7.1836 -7.9609000000000005 1.6288999999999998 106
-13.968800000000002 -15.4844 -0.2429 203
-7.2265999999999995 -8.0078 1.8944999999999999 62
-14.1094 -15.531199999999998 0.2445 30
-8.8359 -9.7188 0.4568 7
-6.488300000000001 -7.140599999999999 -1.2363 169
-14.1406 -15.5625 1.2207 128
-6.5039 -7.1602 -1.0117 32
-14.156199999999998 -15.5781 1.7158000000000002 36
-7.6875 -8.4609 1.1963 169
-7.3203 -8.0547 1.3944999999999999 170
-6.855499999999999 -7.542999999999999 -0.354 9
-7.2148 -7.9375 1.6288999999999998 12
-14.0625 -15.476600000000001 -0.2437 194
-7.292999999999999 -8.0234 1.9043 121
-14.1797 -15.4922 0.24480000000000002 126
-8.8828 -9.7109 0.4578 219
-6.4922 -7.0938 -1.2314 55
-14.2344 -15.5547 1.2236 164
-6.5078 -7.109400000000001 -1.0088 34
-14.2578 -15.5781 1.7216999999999998 71
-7.7422 -8.4609 1.2002 160
-9.6953 -10.593800000000002 1.8418 215
-6.863300000000001 -7.5 -0.353 121
-7.3203 -8.0 1.6475 212
-14.1719 -15.4844 -0.2446 147
-7.3047 -7.984400000000001 1.9003999999999999 231
-14.273399999999999 -15.4844 0.24539999999999998 39
-9.0312 -9.7969 0.4636 48
-6.5 -7.0547 -1.2285 241
-14.343800000000002 -15.5625 1.2285 159
-6.5039 -7.0586 -1.0039 23
-14.3203 -15.5469 1.7227000000000001 111
-6.390599999999999 -6.9336 -0.7666 19
-7.5938 -8.2422 1.1729 140
-8.0469 -8.7344 1.5225 38
-6.8711 -7.457000000000001 -0.35229999999999995 16
-7.3398 -7.9648 1.6455000000000002 141
-14.281199999999998 -15.5 -0.2455 182
-7.3438 -7.9688 1.9033000000000002 218
-14.3906 -15.5078 0.2466 181
-9.2031 -9.9141 0.4707 249
-6.5 -7.0039 -1.2236 61
-10.6875 -11.5156 0.9116 219
-6.511699999999999 -7.015599999999999 -1.002 217
-14.4297 -15.5547 1.7294999999999998 160
-6.390599999999999 -6.886699999999999 -0.7637 251
-7.6289 -8.2188 1.1738 14
-7.605499999999999 -8.1953 1.4325999999999999 132
-6.9062 -7.4414 -0.3528 175
-10.6719 -11.5 2.3867 190
-14.3828 -15.5 -0.2463 51
-7.390599999999999 -7.9648 1.9082 57
-14.5 -15.5156 0.24739999999999998 24
-6.488300000000001 -6.9453 -1.2168 156
-10.656199999999998 -11.406199999999998 0.9053 195
-6.511699999999999 -6.9727 -0.998 229
-8.7344 -9.3438 1.041 139
-6.3984000000000005 -6.8515999999999995 -0.7622 107
-7.707000000000001 -8.25 1.1816 204
-7.5938 -8.1328 1.4258000000000002 180
-6.925800000000001 -7.4140999999999995 -0.3525 173
-10.7578 -11.5156 2.3965 2
-14.468800000000002 -15.4922 -0.24710000000000001 163
-7.953099999999999 -8.5156 2.0469 242
-14.6094 -15.539100000000001 0.24850000000000003 38
-6.5273 -6.9414 -1.4463 106
-6.484400000000001 -6.8984000000000005 -1.2129 93
-14.625 -15.5469 1.2393 85
-6.5234000000000005 -6.9375 -0.9961 198
-8.7812 -9.3359 1.043 230
-6.4414 -6.8477 -0.7642 209
-7.7188 -8.2109 1.1797 242
-7.613300000000001 -8.0938 1.4238 35
-6.949199999999999 -7.390599999999999 -0.3525 48
-10.718800000000002 -11.398399999999999 2.3789 119
-14.5625 -15.4844 -0.2477 142
-7.9727 -8.4766 2.0449 24
-14.6953 -15.5156 0.249 136
-6.5234000000000005 -6.886699999999999 -1.4404 199
-6.4922 -6.855499999999999 -1.209 204
-14.718800000000002 -15.539100000000001 1.2422 65
-6.515599999999999 -6.8789 -0.9912000000000001 199
-7.9414 -8.3828 0.9395 166
-6.4727 -6.832000000000001 -0.7651 125
-7.582000000000001 -8.0078 1.1543 208
-7.6015999999999995 -8.0234 1.416 12
-6.9688 -7.359400000000001 -0.3521 187
-7.7109000000000005 -8.1406 1.7031 80
-14.664100000000001 -15.476600000000001 -0.2484 197
-7.832000000000001 -8.2656 2.0 84
-14.7656 -15.476600000000001 0.2493 165
-6.5078 -6.8203 -1.4306999999999999 236
-6.4922 -6.8047 -1.2041 207
-11.0156 -11.5469 0.9258 88
-6.5078 -6.8203 -0.9863 80
-7.953099999999999 -8.3359 0.9375 118
-7.5859000000000005 -7.953099999999999 1.1504 65
-6.636699999999999 -6.957000000000001 -0.5566 229
-7.644500000000001 -8.0156 1.4188999999999998 102
-7.0078 -7.3438 -0.3528 13
-7.7227 -8.0938 1.6991999999999998 225
-12.843800000000002 -13.460899999999999 -0.2167 255
-7.863300000000001 -8.2422 2.002 86
-14.898399999999999 -15.5 0.2505 206
-6.5078 -6.769500000000001 -1.4247999999999998 150
-6.5039 -6.769500000000001 -1.2021 107
-10.976600000000001 -11.4219 0.9189 253
-6.519500000000001 -6.7852 -0.9843999999999999 39
-8.9922 -9.3594 1.0566 0
-7.6640999999999995 -7.9765999999999995 1.1582 2
-6.6523 -6.921900000000001 -0.5562 134
-7.6172 -7.925800000000001 1.4082 130
-7.015599999999999 -7.300800000000001 -0.3518 38
-7.7539 -8.0703 1.7002000000000002 44
-12.851600000000001 -13.375 -0.2161 42
-7.792999999999999 -8.1094 1.9756 163
-15.0 -15.5 0.25120000000000003 136
-6.5078 -6.7265999999999995 -1.4209 191
-9.5859 -9.9062 0.47950000000000004 23
-6.4922 -6.707000000000001 -1.1953 60
-7.917999999999999 -8.1797 0.6597 151
-6.5312 -6.7461 -0.9823999999999999 47
-11.0469 -11.414100000000001 1.2938999999999998 236
-7.7265999999999995 -7.984400000000001 1.1631 216
-6.640599999999999 -6.859400000000001 -0.5527000000000001 145
-7.7148 -7.9727 1.4219 129
-7.0547 -7.2890999999999995 -0.3525 130
-7.75 -8.0078 1.6934 68
-12.835899999999999 -13.2656 -0.215 200
-7.769500000000001 -8.0312 1.9628999999999999 197
-9.5234 -9.7734 0.15869999999999998 197
-6.511699999999999 -6.6875 -1.4169999999999998 191
-9.6016 -9.8516 0.47850000000000004 48
-6.484400000000001 -6.6562 -1.1895 208
-7.886699999999999 -8.0938 0.6548 137
-6.5390999999999995 -6.7109000000000005 -0.98 238
-7.7852 -7.9922 0.9077 167
-7.667999999999999 -7.875 1.1504 148
-6.6484000000000005 -6.824199999999999 -0.5518 237
-7.7539 -7.957000000000001 1.4238 160
-7.1015999999999995 -7.2890999999999995 -0.35350000000000004 221
-7.7890999999999995 -7.9961 1.6953 86
-9.4766 -9.7266 -0.1578 11
-7.796900000000001 -8.0078 1.9628999999999999 193
-9.5312 -9.7188 0.1583 35
-6.5078 -6.636699999999999 -1.4111000000000002 190
-9.6016 -9.7891 0.4771 151
-6.484400000000001 -6.609400000000001 -1.1855 31
-7.890599999999999 -8.0469 0.6528 186
-6.5273 -6.6562 -0.9756 1
-7.8125 -7.9648 0.9077 127
-6.6640999999999995 -6.792999999999999 -0.7734000000000001 45
-7.7227 -7.875 1.1553 119
-6.667999999999999 -6.800800000000001 -0.5513 157
-7.8125 -7.9648 1.4297 22
-7.1328 -7.2734000000000005 -0.354 37
-7.8047 -7.9609000000000005 1.6934 15
-9.5 -9.6875 -0.1578 151
-7.730499999999999 -7.8828 1.9394999999999998 51
-9.5703 -9.6875 0.1583 108
-6.488300000000001 -6.5664 -1.4013999999999998 96
-9.5703 -9.6875 0.4736 203
-6.488300000000001 -6.5703 -1.1826 65
-7.8398 -7.9336 0.6465000000000001 210
-6.515599999999999 -6.5977 -0.9702 18
-7.863300000000001 -7.9609000000000005 0.9106000000000001 32
-7.765599999999999 -7.859400000000001 1.1562000000000001 86
-7.8515999999999995 -7.949199999999999 1.4316 224
-7.167999999999999 -7.2578 -0.35450000000000004 226
-7.761699999999999 -7.859400000000001 1.6777000000000002 72
-8.0 -8.1016 2.0 36
-9.6406 -9.6953 0.1589 251
-6.4922 -6.5234000000000005 -1.3965 53
-9.6016 -9.6484 0.47340000000000004 101
-6.484400000000001 -6.515599999999999 -1.1768 140
-7.8477 -7.890599999999999 0.6445000000000001 215
-6.515599999999999 -6.550800000000001 -0.9668000000000001 182
-7.890599999999999 -7.9297 0.9102 73
-6.574199999999999 -6.609400000000001 -0.7578 50
-7.769500000000001 -7.8125 1.1533 77
-7.859400000000001 -7.9023 1.4277000000000002 46
-7.1914 -7.2265999999999995 -0.3542 212
-7.886699999999999 -7.925800000000001 1.6982 217
-15.156199999999998 -15.2344 -0.2505 179
-8.0391 -8.0859 2.0039 59
-15.476600000000001 -15.4453 0.25489999999999996 140
-9.6484 -9.6328 0.4744 65
-6.4727 -6.4609000000000005 -1.1709 205
-7.9102 -7.894500000000001 0.6475 137
-6.5312 -6.519500000000001 -0.9653 220
-7.9375 -7.921900000000001 0.9126000000000001 204
-6.582000000000001 -6.574199999999999 -0.7563 150
-7.800800000000001 -7.7890999999999995 1.1543 95
-11.281199999999998 -11.2656 2.0449 247
-7.238300000000001 -7.2265999999999995 -0.3555 165
-7.8828 -7.8672 1.6913999999999998 152
-15.25 -15.218800000000002 -0.251 0
-7.9414 -7.925800000000001 1.9707 89
-15.585899999999999 -15.4531 0.2556 127
-6.5312 -6.4727 -1.3955000000000002 48
-7.9922 -7.921900000000001 0.3914 123
-6.4688 -6.4140999999999995 -1.166 10
-7.980499999999999 -7.9140999999999995 0.6514 166
-6.5352 -6.480499999999999 -0.9629000000000001 165
-8.0391 -7.9727 0.9214 112
-6.5859000000000005 -6.5273 -0.7534000000000001 127
-7.8164 -7.75 1.1523 65
-17.7656 -17.6094 3.2108999999999996 82
-7.2812 -7.2188 -0.35619999999999996 122
-7.9336 -7.863300000000001 1.6963 253
-15.335899999999999 -15.2031 -0.25170000000000003 141
-7.8164 -7.7461 1.9325999999999999 45
-15.664100000000001 -15.4219 0.2561 134
-6.5 -6.3984000000000005 -1.3838 26
-8.0234 -7.9023 0.39159999999999995 38
-6.4727 -6.3711 -1.1631 3
-8.0078 -7.8789 0.6509 100
-6.5352 -6.4336 -0.9595 100
-8.0547 -7.925800000000001 0.9194 232
-6.5977 -6.4961 -0.7524 5
-7.9140999999999995 -7.792999999999999 1.1631 222
-7.8438 -7.7188 1.4102000000000001 10
-7.3477 -7.234400000000001 -0.35840000000000005 144
-7.9414 -7.8203 1.6934 24
-15.4531 -15.210899999999999 -0.2527 23
-15.8047 -15.4531 0.2576 121
-6.484400000000001 -6.3398 -1.376 211
-10.726600000000001 -10.4844 0.522 71
-6.4765999999999995 -6.332000000000001 -1.1602 77
-8.0156 -7.832000000000001 0.6494 207
-6.5273 -6.3789 -0.9545999999999999 215
-8.0703 -7.890599999999999 0.9185 190
-6.6015999999999995 -6.453099999999999 -0.7505 231
-7.949199999999999 -7.769500000000001 1.1641 179
-7.9062 -7.730499999999999 1.4169999999999998 66
-7.957000000000001 -7.7812 1.6904 148
-15.5703 -15.218800000000002 -0.25370000000000004 76
-7.9922 -7.8125 1.9628999999999999 14
-15.906199999999998 -15.4375 0.2583 65
-6.4922 -6.300800000000001 -1.3730000000000002 182
-10.8203 -10.5078 0.5249 129
-6.4765999999999995 -6.2852 -1.1553 183
-8.0469 -7.8086 0.6498999999999999 30
-6.5312 -6.3398 -0.9517 207
-8.1641 -7.9297 0.9262999999999999 32
-6.605499999999999 -6.4102 -0.748 160
-7.9961 -7.761699999999999 1.167 46
-7.9453 -7.7109000000000005 1.4188999999999998 244
-7.4414 -7.2227 -0.3604 81
-7.949199999999999 -7.7148 1.6825999999999999 92
-15.625 -15.1719 -0.25370000000000004 60
-8.0234 -7.792999999999999 1.9647999999999999 253
-16.0469 -15.468800000000002 0.25980000000000003 84
-6.488300000000001 -6.2539 -1.3672 59
-10.8672 -10.476600000000001 0.5254 205
-6.4727 -6.2422 -1.1514 16
-8.125 -7.828099999999999 0.6537999999999999 246
-6.5390999999999995 -6.3047 -0.9501999999999999 112
-16.0938 -15.5078 1.8222999999999998 105
-7.9961 -7.707000000000001 1.1621 238
-8.0078 -7.7148 1.4247999999999998 194
-7.488300000000001 -7.2188 -0.3616 50
-7.953099999999999 -7.667999999999999 1.6777000000000002 7
-15.6719 -15.101600000000001 -0.25370000000000004 122
-8.1094 -7.8203 1.9794999999999998 64
-6.5039 -6.2227 -1.3662 57
-10.8594 -10.3906 0.5229 178
-6.4688 -6.1914 -1.1465 195
-8.1562 -7.8047 0.6537999999999999 82
-6.542999999999999 -6.261699999999999 -0.9473 127
-17.7812 -17.0156 2.0078 190
-7.917999999999999 -7.578099999999999 1.1475 114
-8.0078 -7.6640999999999995 1.4209 184
-7.582000000000001 -7.2578 -0.36469999999999997 157
-8.0391 -7.6953 1.6904 153
-15.9531 -15.2656 -0.25730000000000003 37
-8.0625 -7.7148 1.96 173
-6.5039 -6.1836 -1.3622999999999998 130
-16.3594 -15.5469 0.7866 128
-6.4765999999999995 -6.1562 -1.1436 25
-16.3125 -15.5 1.3066 109
-6.550800000000001 -6.2227 -0.9448000000000001 51
-9.7656 -9.2812 1.0967 82
-7.9648 -7.5703 1.1504 249
-8.0391 -7.636699999999999 1.4199000000000002 213
-7.625 -7.2461 -0.3655 237
-8.1406 -7.738300000000001 1.7069999999999999 233
-16.0938 -15.2969 -0.2588 254
-8.1406 -7.734400000000001 1.9727000000000001 101
-6.5 -6.136699999999999 -1.3563999999999998 82
-16.3906 -15.476600000000001 0.7856000000000001 118
-6.4727 -6.109400000000001 -1.1396 126
-8.3672 -7.8984000000000005 0.667 98
-6.5547 -6.1875 -0.9429000000000001 2
-9.8203 -9.2656 1.0996 209
-8.0625 -7.609400000000001 1.1611 165
-8.0312 -7.578099999999999 1.415 106
-16.3594 -15.4453 -0.7837000000000001 28
-8.1016 -7.6484000000000005 1.6924000000000001 16
-8.1406 -7.6836 1.9668 117
-6.4922 -6.0859000000000005 -1.3506 2
-16.4688 -15.4453 0.7866 210
-6.484400000000001 -6.082000000000001 -1.1377 231
-8.3828 -7.859400000000001 0.6659999999999999 224
-6.5625 -6.1562 -0.9414 231
-9.8203 -9.2109 1.0967 9
-6.796900000000001 -6.375 -0.7573000000000001 196
-8.1094 -7.605499999999999 1.1641 124
-7.957000000000001 -7.4609000000000005 1.3975 152
-16.4219 -15.398399999999999 -0.7842 61
-8.1562 -7.6484000000000005 1.6982 71
-16.4531 -15.4219 -0.2627 128
-8.2109 -7.699199999999999 1.9775 201
-6.4961 -6.046900000000001 -1.3466999999999998 61
-16.5625 -15.414100000000001 0.7886 111
-6.484400000000001 -6.0352 -1.1338 120
-16.625 -15.476600000000001 1.3193000000000001 166
-6.5859000000000005 -6.1328 -0.9414 5
-9.7188 -9.0469 1.0811 108
-6.8203 -6.3477 -0.7573000000000001 86
-8.1172 -7.5547 1.1611 24
-7.9609000000000005 -7.4102 1.3936000000000002 215
-16.5312 -15.3906 -0.7866 239
-8.0625 -7.5039 1.6728999999999998 129
-16.5312 -15.3828 -0.2632 99
-8.2656 -7.6953 1.9834 35
-6.511699999999999 -6.019500000000001 -1.3457 210
-16.7031 -15.4297 0.792 47
-6.488300000000001 -5.9961 -1.1309 129
-16.75 -15.476600000000001 1.3241999999999998 156
-6.667999999999999 -6.1640999999999995 -0.9497 187
-9.7578 -9.0156 1.0811 117
-6.8789 -6.359400000000001 -0.7617 227
-8.1328 -7.519500000000001 1.1602 202
-7.9765999999999995 -7.375 1.3916 204
-16.6094 -15.351600000000001 -0.7881 147
-8.0938 -7.480499999999999 1.6738 188
-16.6562 -15.3906 -0.2642 161
-8.2812 -7.6523 1.9805000000000001 71
-16.875 -15.4922 0.2668 26
-6.5234000000000005 -5.988300000000001 -1.3437999999999999 144
-16.8125 -15.4297 0.7948999999999999 236
-6.4961 -5.9648 -1.1289 137
-16.8594 -15.468800000000002 1.3281 234
-6.5898 -6.050800000000001 -0.9355 163
-9.7734 -8.9688 1.0801 5
-8.2031 -7.5273 1.165 216
-7.9961 -7.3398 1.3906 250
-16.7812 -15.398399999999999 -0.7935 136
-8.1719 -7.5 1.6846 212
-16.7969 -15.414100000000001 -0.2656 56
-8.2734 -7.5977 1.9736000000000002 78
-6.4922 -5.917999999999999 -1.3330000000000002 80
-16.9219 -15.4297 0.7979 36
-6.515599999999999 -5.9375 -1.1289 160
-12.8125 -11.6797 1.0059 97
-6.613300000000001 -6.0273 -0.9355 78
-9.8125 -8.9453 1.0811 163
-8.5938 -7.8359000000000005 1.2178 213
-8.0625 -7.3515999999999995 1.3984 125
-16.9375 -15.4453 -0.7988 103
-8.1875 -7.4609000000000005 1.6816 172
-12.7969 -11.664100000000001 -0.20149999999999998 236
-8.2891 -7.5586 1.9707 130
-12.8281 -11.6094 0.2014 222
-6.4961 -5.8789 -1.3291 182
-12.8125 -11.593800000000002 0.6015999999999999 147
-6.5352 -5.9140999999999995 -1.1289 95
-12.8125 -11.601600000000001 1.0029000000000001 96
-6.699199999999999 -6.0664 -0.9453 35
-10.0156 -9.0625 1.0996 200
-8.4062 -7.605499999999999 1.1865 190
-8.0469 -7.2812 1.3896000000000002 100
-12.8047 -11.585899999999999 -0.6011 6
-8.2578 -7.4765999999999995 1.6924000000000001 40
-12.7969 -11.5781 -0.2009 62
-8.25 -7.4688 1.9550999999999998 172
-12.8281 -11.531199999999998 0.20079999999999998 167
-6.511699999999999 -5.8515999999999995 -1.3281 198
-12.8047 -11.5156 0.5996 32
-6.542999999999999 -5.8789 -1.126 82
-12.8203 -11.523399999999999 1.0 234
-6.644500000000001 -5.9727 -0.9346 65
-9.9219 -8.9141 1.0859 45
-8.2656 -7.425800000000001 1.1631 134
-8.0859 -7.269500000000001 1.3936000000000002 156
-12.8047 -11.5078 -0.5996 18
-8.1719 -7.3438 1.6680000000000001 108
-12.781199999999998 -11.4922 -0.20010000000000003 144
-8.375 -7.5312 1.9785 83
-12.835899999999999 -11.460899999999999 0.2003 62
-6.5273 -5.832000000000001 -1.3281 199
-12.7969 -11.4297 0.5977 109
-6.546900000000001 -5.8477 -1.124 128
-12.7969 -11.4297 0.9956 213
-6.699199999999999 -5.984400000000001 -0.9395 127
-9.6797 -8.6406 1.0566 71
-8.4766 -7.5664 1.1895 67
-8.25 -7.3711 1.4180000000000001 120
-12.8047 -11.4375 -0.5977 41
-8.2266 -7.3477 1.6747999999999998 246
-12.781199999999998 -11.414100000000001 -0.19949999999999998 132
-9.5859 -8.5625 2.2598 137
-12.8281 -11.375 0.1996 55
-6.542999999999999 -5.8047 -1.3271000000000002 186
-12.7969 -11.351600000000001 0.5957 210
-6.5664 -5.824199999999999 -1.123 70
-12.7969 -11.351600000000001 0.9926999999999999 45
-6.7109000000000005 -5.953099999999999 -0.9384999999999999 243
-9.7422 -8.6406 1.0595999999999999 96
-8.6641 -7.6836 1.2129 183
-8.2812 -7.3477 1.4188999999999998 240
-12.8125 -11.3672 -0.5962 168
-8.2734 -7.3438 1.6806999999999999 85
-12.781199999999998 -11.335899999999999 -0.1989 245
-12.7578 -11.3203 3.0 44
-12.8203 -11.281199999999998 0.1989 116
-6.5547 -5.765599999999999 -1.3241999999999998 28
-12.8047 -11.273399999999999 0.5942000000000001 239
-6.5859000000000005 -5.796900000000001 -1.123 224
-12.8047 -11.273399999999999 0.9897 67
-6.707000000000001 -5.9023 -0.9346 162
-12.843800000000002 -11.3047 1.3944999999999999 205
-8.6953 -7.6562 1.2129 226
-8.7266 -7.6797 1.4893 123
-12.7969 -11.2656 -0.5938 221
-12.8125 -11.273399999999999 2.5957 102
-12.781199999999998 -11.25 -0.19820000000000002 250
-12.781199999999998 -11.25 2.9941000000000004 233
-12.8125 -11.1953 0.1981 193
-6.574199999999999 -5.7461 -1.3252000000000002 137
-12.8047 -11.1875 0.5918 157
-6.6015999999999995 -5.765599999999999 -1.1220999999999999 191
-12.8047 -11.1875 0.9868000000000001 28
-6.6797 -5.8359000000000005 -0.9277 81
-9.7578 -8.5234 1.0547 253
-8.7734 -7.6640999999999995 1.2197 238
-10.3906 -9.0781 1.7694999999999999 198
-12.7969 -11.1797 -0.5913 114
-12.835899999999999 -11.218800000000002 2.5938 173
-12.789100000000001 -11.1719 -0.19760000000000003 190
-12.7969 -11.1797 2.9882999999999997 104
-12.8281 -11.1328 0.1978 145
-6.5898 -5.7188 -1.3241999999999998 17
-12.7969 -11.1094 0.5898 181
-6.730499999999999 -5.8438 -1.1416 0
-12.7969 -11.1094 0.9834 188
-6.707000000000001 -5.8203 -0.9287000000000001 196
-9.8594 -8.5625 1.0635 190
-8.7656 -7.609400000000001 1.2158 171
-10.375 -9.0078 1.7627000000000002 35
-12.7969 -11.1094 -0.5898 153
-12.773399999999999 -11.085899999999999 2.5723000000000003 53
-12.781199999999998 -11.093800000000002 -0.19699999999999998 180
-10.125 -8.7891 2.3574 112
-12.8281 -11.0625 0.1971 26
-6.6211 -5.7109000000000005 -1.3271000000000002 234
-12.7969 -11.031199999999998 0.5884 238
-12.789100000000001 -11.023399999999999 0.9795 220
-6.7188 -5.792999999999999 -0.9281999999999999 180
-12.8047 -11.039100000000001 1.3769999999999998 240
-7.359400000000001 -6.3438 -0.79 145
-8.8125 -7.5977 1.2187999999999999 88
-11.156199999999998 -9.6172 1.8887 127
-12.8047 -11.039100000000001 -0.5884 115
-12.773399999999999 -11.0156 2.5664 189
-12.7656 -11.0078 -0.1962 229
-10.7422 -9.2578 2.4922 160
-12.8125 -10.968800000000002 0.19640000000000002 20
-6.640599999999999 -5.6836 -1.3271000000000002 94
-12.7969 -10.9531 0.5864 173
-12.789100000000001 -10.9453 0.9765999999999999 25
-6.734400000000001 -5.761699999999999 -0.9268000000000001 16
-12.789100000000001 -10.9453 1.3721 20
-7.3828 -6.3164 -0.79 226
-8.8438 -7.5703 1.2187999999999999 198
-7.8789 -6.7461 -0.6006 0
-11.4531 -9.8047 1.9346 224
-12.7969 -10.9531 -0.5864 189
-12.773399999999999 -10.9297 2.5566 132
-12.7578 -10.9219 -0.1956 182
-10.8828 -9.3125 2.5176 231
-12.8047 -10.8828 0.1957 116
-6.6523 -5.6523 -1.3252000000000002 181
-12.7969 -10.875 0.5845 8
-12.789100000000001 -10.8672 0.9736 142
-6.7773 -5.761699999999999 -0.9301999999999999 197
-12.789100000000001 -10.8672 1.3672 252
-7.4023 -6.292999999999999 -0.79 56
-8.8672 -7.5352 1.2187999999999999 26
-7.9023 -6.7188 -0.6006 34
-11.4922 -9.7656 1.9346 216
-12.789100000000001 -10.8672 -0.584 240
-10.6719 -9.0703 2.1289 43
-12.773399999999999 -10.851600000000001 -0.19510000000000002 89
-10.9297 -9.2891 2.5215 90
-12.8047 -10.8125 0.19510000000000002 144
-6.671900000000001 -5.6328 -1.3252000000000002 236
-12.781199999999998 -10.789100000000001 0.5825 167
-6.8672 -5.796900000000001 -1.1504 12
-12.781199999999998 -10.789100000000001 0.9702 189
-6.828099999999999 -5.765599999999999 -0.9346 246
-12.7656 -10.773399999999999 1.3613 98
-8.9375 -7.542999999999999 1.2246 117
-12.773399999999999 -10.781199999999998 -0.9702 94
-11.5469 -9.7422 1.9375 166
-12.789100000000001 -10.7969 -0.5825 148
-12.7656 -10.773399999999999 2.541 5
-12.773399999999999 -10.781199999999998 -0.1946 125
-10.906199999999998 -9.2031 2.5078 78
-12.8281 -10.75 0.1948 86
-6.707000000000001 -5.625 -1.3281 169
-12.7656 -10.7031 0.5801 203
-6.7734000000000005 -5.6797 -1.1309 106
-12.781199999999998 -10.718800000000002 0.9678 172
-6.875 -5.765599999999999 -0.9384999999999999 152
-10.2109 -8.5625 1.085 19
-9.9609 -8.3516 1.3622999999999998 27
-12.773399999999999 -10.710899999999999 -0.9673 230
-12.7578 -10.7031 2.1367 76
-12.781199999999998 -10.718800000000002 -0.5811 63
-12.75 -10.6875 2.5312 126
-12.7578 -10.7031 -0.1938 35
-9.8984 -8.2969 2.2695 116
-12.8203 -10.664100000000001 0.1941 102
-6.734400000000001 -5.6015999999999995 -1.3291 253
-12.781199999999998 -10.6328 0.5786 89
-12.773399999999999 -10.6328 0.9643999999999999 30
-6.9102 -5.75 -0.9404 192
-12.781199999999998 -10.6328 1.3544999999999998 209
-9.9453 -8.2734 1.3544999999999998 161
-12.7656 -10.625 -0.9639 252
-12.773399999999999 -10.625 2.1328 67
-12.789100000000001 -10.6406 -0.5791 14
-12.7578 -10.6172 2.5234 111
-12.75 -10.6094 -0.1931 239
-9.9219 -8.2578 2.2695 41
-12.8203 -10.585899999999999 0.1935 73
-6.7578 -5.582000000000001 -1.3300999999999998 8
-12.781199999999998 -10.5547 0.5771000000000001 98
-6.8086 -5.625 -1.1309 206
-12.7656 -10.5469 0.9609000000000001 254
-6.9414 -5.734400000000001 -0.9419 131
-12.773399999999999 -10.5547 1.3496000000000001 58
-7.5312 -6.2227 -0.7939 129
-9.9453 -8.2188 1.3516 157
-12.7656 -10.5469 -0.9609000000000001 74
-12.7656 -10.5469 2.125 188
-12.789100000000001 -10.5625 -0.5771000000000001 7
-12.7656 -10.5469 2.5195 211
-12.7578 -10.539100000000001 -0.19260000000000002 192
-9.9453 -8.2109 2.2676 126
-12.7969 -10.5 0.19260000000000002 210
-6.7890999999999995 -5.5664 -1.3319999999999999 198
-12.789100000000001 -10.4844 0.5757 92
-6.832000000000001 -5.6015999999999995 -1.1309 225
-12.7656 -10.468800000000002 0.958 28
-6.9648 -5.7109000000000005 -0.9419 180
-12.773399999999999 -10.476600000000001 1.3457 248
-7.578099999999999 -6.2148 -0.7968999999999999 130
-12.7031 -10.4219 1.7227000000000001 127
-12.7656 -10.468800000000002 -0.958 93
-12.75 -10.4531 2.1152 118
-12.773399999999999 -10.476600000000001 -0.5752 4
-11.085899999999999 -9.0938 2.1797 234
-12.7578 -10.468800000000002 -0.19210000000000002 236
-9.9688 -8.1797 2.2656 141
-12.8047 -10.4297 0.1923 232
-6.8047 -5.542999999999999 -1.3311000000000002 21
-12.7656 -10.398399999999999 0.5732 61
-6.8515999999999995 -5.578099999999999 -1.1309 168
-12.781199999999998 -10.406199999999998 0.9561 189
-7.0 -5.703099999999999 -0.9443 187
-12.75 -10.3828 1.3397999999999999 196
-7.5859000000000005 -6.1797 -0.7954000000000001 76
-12.6875 -10.335899999999999 1.7158000000000002 120
-12.7656 -10.3906 -0.9551000000000001 0
-12.75 -10.3828 2.1094 201
-12.773399999999999 -10.406199999999998 -0.5737 221
-11.156199999999998 -9.0859 2.1875 158
-12.7578 -10.3906 -0.19149999999999998 28
-9.9766 -8.125 2.2617 127
-12.8047 -10.351600000000001 0.1917 191
-6.8438 -5.5352 -1.3359 225
-12.7578 -10.3203 0.5713 3
-6.8789 -5.5625 -1.1328 127
-12.781199999999998 -10.335899999999999 0.9536 104
-7.042999999999999 -5.6953 -0.9473 226
-12.7656 -10.3203 1.3369 86
-7.6484000000000005 -6.1836 -0.7998000000000001 48
-12.664100000000001 -10.2422 1.7069999999999999 13
-12.773399999999999 -10.3281 -0.9526 215
-12.75 -10.3125 2.1035 241
-12.773399999999999 -10.335899999999999 -0.5718 151
-11.406199999999998 -9.2266 2.2305 209
-12.75 -10.3125 -0.1909 5
-10.0234 -8.1016 2.2656 149
-12.781199999999998 -10.2578 0.19079999999999997 216
-6.8711 -5.515599999999999 -1.3369 31
-12.773399999999999 -10.2578 0.5703 69
-6.9023 -5.542999999999999 -1.1338 137
-12.7578 -10.2422 0.9492 206
-7.0859000000000005 -5.6875 -0.9501999999999999 209
-12.7578 -10.2422 1.3330000000000002 251
-7.6914 -6.175800000000001 -0.8018000000000001 40
-12.656199999999998 -10.1641 1.7021000000000002 117
-12.7578 -10.2422 -0.9492 150
-12.75 -10.2422 2.0977 251
-12.781199999999998 -10.2578 -0.5703 204
-11.3828 -9.1328 2.2188 146
-12.7422 -10.2344 -0.1902 29
-10.0078 -8.0391 2.2559 112
-12.8047 -10.2109 0.1907 68
-6.9062 -5.5078 -1.3397999999999999 163
-12.773399999999999 -10.1875 0.5688 191
-6.949199999999999 -5.542999999999999 -1.1377 152
-12.75 -10.1641 0.9462999999999999 111
-7.1172 -5.675800000000001 -0.9521 202
-12.781199999999998 -10.1875 1.3311000000000002 176
-7.792999999999999 -6.2148 -0.8105 134
-12.6719 -10.1016 1.6982 128
-12.7344 -10.1562 -0.9448000000000001 0
-12.7422 -10.1641 2.0918 230
-12.781199999999998 -10.1875 -0.5688 220
-10.9531 -8.7344 2.1289 172
-12.75 -10.1641 -0.18969999999999998 73
-12.75 -10.1719 2.8691000000000004 85
-12.7656 -10.1172 0.18960000000000002 84
-6.925800000000001 -5.484400000000001 -1.3408000000000002 206
-12.7656 -10.1094 0.5669 85
-6.988300000000001 -5.5352 -1.1416 89
-12.75 -10.1016 0.9438 18
-7.1523 -5.6640999999999995 -0.9545999999999999 48
-12.7656 -10.1094 1.3262 223
-7.824199999999999 -6.199199999999999 -0.812 92
-12.6719 -10.0391 1.6943000000000001 229
-12.710899999999999 -10.0703 -0.9409000000000001 229
-12.7344 -10.0859 2.084 79
-12.7656 -10.1094 -0.5669 9
-11.3594 -9.0 2.2031 61
-12.6953 -10.0547 -0.1885 221
-11.1094 -8.7969 2.4922 146
-12.7656 -10.0312 0.18899999999999997 72
-12.773399999999999 -10.0391 0.5654 162
-7.0312 -5.5273 -1.1455 5
-12.7969 -10.0625 0.9443 218
-7.199199999999999 -5.6602 -0.958 117
-12.7422 -10.0156 1.3203 209
-7.8515999999999995 -6.171900000000001 -0.812 198
-12.6797 -9.9688 1.6904 132
-12.718800000000002 -10.0 -0.9384999999999999 23
-12.7344 -10.0078 2.0781 78
-12.7344 -10.0078 -0.564 117
-11.531199999999998 -9.0625 2.2285 183
-12.7578 -10.0312 -0.18899999999999997 57
-11.031199999999998 -8.6719 2.4668 55
-12.8203 -10.0078 0.1893 177
-12.8203 -10.0078 0.5659000000000001 66
-7.0664 -5.515599999999999 -1.1475 158
-12.843800000000002 -10.0234 0.9453 214
-7.2422 -5.6523 -0.9609000000000001 37
-12.75 -9.9531 1.3174000000000001 157
-7.8672 -6.140599999999999 -0.8115000000000001 147
-12.648399999999999 -9.875 1.6816 202
-12.726600000000001 -9.9297 -0.9365000000000001 26
-12.7344 -9.9375 2.0723 30
-12.7969 -9.9844 -0.5649000000000001 146
-11.5781 -9.0391 2.2324 211
-12.781199999999998 -9.9766 -0.1887 226
-11.148399999999999 -8.7031 2.4863 69
-12.851600000000001 -9.9531 0.1892 151
-12.851600000000001 -9.9531 0.5659000000000001 240
-7.109400000000001 -5.5078 -1.1514 107
-12.875 -9.9766 0.9448000000000001 254
-7.2812 -5.640599999999999 -0.9634 8
-12.7656 -9.8906 1.3154 51
-7.9062 -6.1211 -0.813 194
-12.656199999999998 -9.8047 1.6777000000000002 7
-12.7344 -9.8594 -0.9340999999999999 241
-12.7422 -9.8672 2.0664 143
-12.851600000000001 -9.9531 -0.5659000000000001 217
-12.843800000000002 -9.9453 2.4707 26
-12.843800000000002 -9.9453 -0.1891 154
-11.1406 -8.6328 2.4766 100
-12.8906 -9.9141 0.1893 72
-12.906199999999998 -9.9219 0.5669 89
-7.1562 -5.5 -1.1553 178
-12.968800000000002 -9.9688 0.9492 0
-7.328099999999999 -5.6328 -0.9668000000000001 247
-12.7578 -9.8125 1.3115 12
-12.7578 -9.8047 -1.3105000000000002 37
-12.664100000000001 -9.7422 1.6747999999999998 3
-12.718800000000002 -9.7812 -0.9312 59
-12.7344 -9.7891 2.0605 54
-12.906199999999998 -9.9297 -0.5669 66
-12.843800000000002 -9.875 2.4648 149
-12.8594 -9.8906 -0.1888 176
-11.1719 -8.5938 2.4766 103
-12.8828 -9.8359 0.1886 176
-13.039100000000001 -9.9531 0.5713 226
-7.2148 -5.5078 -1.1621 208
-13.0469 -9.9609 0.9521 144
-7.3711 -5.6289 -0.9702 31
-12.75 -9.7344 1.3066 227
-12.7578 -9.7422 -1.3075999999999999 236
-12.6719 -9.6719 1.6709 167
-12.7422 -9.7266 -0.9301999999999999 123
-12.718800000000002 -9.7109 2.0527 205
-12.9531 -9.8906 -0.5674 112
-12.8047 -9.7734 2.4492 198
-13.0 -9.9297 -0.19039999999999999 162
-13.0078 -9.9297 2.8789 173
-12.8828 -9.7656 0.1881 242
-13.039100000000001 -9.8828 0.5698 147
-13.0547 -9.8984 0.9506999999999999 107
-7.4297 -5.6328 -0.9756 111
-12.75 -9.6641 1.3037 29
-12.7422 -9.6562 -1.3027000000000002 132
-12.6406 -9.5781 1.6621000000000001 150
-12.7344 -9.6562 -0.9272 42
-12.7344 -9.6484 2.0488 13
-13.023399999999999 -9.875 -0.5688 52
-10.843800000000002 -8.2188 2.0684 154
-12.960899999999999 -9.8281 -0.1893 3
-11.289100000000001 -8.5625 2.4902 150
-12.8281 -9.6641 0.1869 31
-13.0781 -9.8438 0.5698 194
-13.0547 -9.8359 0.9481999999999999 239
-7.4922 -5.640599999999999 -0.981 61
-12.7344 -9.5938 1.2988 170
-12.7422 -9.5938 -1.2988 93
-12.648399999999999 -9.5234 1.6591999999999998 146
-12.7344 -9.5859 -0.9248000000000001 177
-12.726600000000001 -9.5781 2.043 244
-12.960899999999999 -9.7656 -0.5649000000000001 60
-12.773399999999999 -9.6172 2.4316 179
-12.9219 -9.7266 -0.1882 90
-10.9375 -8.2344 2.4062 166
-12.8672 -9.6172 0.1869 224
-13.0547 -9.7656 0.5674 248
-7.355499999999999 -5.5 -1.1758 148
-13.0547 -9.7578 0.9458 227
-7.546900000000001 -5.644500000000001 -0.9858 183
-12.7344 -9.5234 1.2949000000000002 67
-12.7422 -9.5312 -1.2959 126
-12.656199999999998 -9.4688 1.6562000000000001 125
-12.726600000000001 -9.5156 -0.9224 132
-12.7344 -9.5234 2.0391 153
-13.039100000000001 -9.75 -0.5669 168
-12.7656 -9.5469 2.4238 156
-13.0078 -9.7266 -0.1891 80
-10.9531 -8.1875 2.4043 69
-12.8594 -9.5391 0.1863 193
-7.4453 -5.519500000000001 -1.4062000000000001 160
-13.0547 -9.6797 0.5659000000000001 174
-7.457000000000001 -5.5312 -1.1885 81
-13.0469 -9.6719 0.9423999999999999 16
-7.6015999999999995 -5.636699999999999 -0.9897 232
-12.75 -9.4531 1.2930000000000001 181
-12.7578 -9.4609 -1.2938999999999998 142
-12.664100000000001 -9.3906 1.6522999999999999 61
-12.7344 -9.4453 -0.9194 239
-12.718800000000002 -9.4375 2.0312 100
-13.0 -9.6406 -0.563 124
-12.7656 -9.4688 2.416 127
-12.9922 -9.6406 -0.1884 144
-12.976600000000001 -9.625 2.8418 231
-12.875 -9.4766 0.18600000000000003 120
-7.4648 -5.4922 -1.4062000000000001 201
-13.093800000000002 -9.6328 0.5659000000000001 5
-7.5664 -5.5703 -1.2031 16
-13.0781 -9.625 0.9423999999999999 233
-7.6836 -5.6523 -0.998 32
-12.7422 -9.375 1.2891 57
-12.75 -9.3828 -1.29 204
-12.6328 -9.2969 1.6436000000000002 213
-12.75 -9.3828 -0.9179999999999999 142
-12.726600000000001 -9.3672 2.0273 249
-13.0469 -9.6016 -0.564 70
-11.1406 -8.1953 2.1016 33
-13.0625 -9.6094 -0.1887 172
-12.9922 -9.5625 2.8379000000000003 249
-12.8672 -9.4062 0.18539999999999998 115
-7.484400000000001 -5.4765999999999995 -1.4082 9
-13.0625 -9.5547 0.5635 118
-7.5703 -5.5352 -1.2002 92
-13.0703 -9.5625 0.9395 80
-7.7461 -5.6640999999999995 -1.0039 106
-12.718800000000002 -9.3047 1.2832 154
-12.7344 -9.3125 -1.2852000000000001 248
-12.656199999999998 -9.2578 1.6436000000000002 48
-12.7422 -9.3203 -0.9159999999999999 52
-12.710899999999999 -9.2969 2.0215 216
-12.976600000000001 -9.4844 -0.5596 61
-12.6094 -9.2266 2.375 122
-12.976600000000001 -9.4922 -0.18710000000000002 48
-12.9844 -9.4922 2.8281 163
-12.914100000000001 -9.3828 0.1858 139
-7.550800000000001 -5.484400000000001 -1.4169999999999998 69
-13.0469 -9.4766 0.561 114
-7.6562 -5.5625 -1.2119 85
-13.0547 -9.4844 0.9365000000000001 207
-12.7344 -9.25 1.2812000000000001 170
-12.7422 -9.25 -1.2822 143
-12.625 -9.1719 1.6357 218
-12.7344 -9.25 -0.9131 54
-12.718800000000002 -9.2344 2.0176 46
-13.039100000000001 -9.4688 -0.561 186
-12.601600000000001 -9.1484 2.3691 154
-13.023399999999999 -9.4609 -0.18739999999999998 14
-12.851600000000001 -9.3359 2.793 143
-12.8828 -9.2812 0.1848 118
-7.636699999999999 -5.5 -1.4287 48
-13.0547 -9.4062 0.5600999999999999 67
-7.675800000000001 -5.5273 -1.2109 229
-13.0625 -9.4062 0.9336 204
-12.7422 -9.1719 1.2783 217
-12.7344 -9.1719 -1.2783 38
-12.6406 -9.1094 1.6328 220
-12.7344 -9.1719 -0.9106000000000001 193
-12.718800000000002 -9.1562 2.0098 77
-13.023399999999999 -9.375 -0.5586 189
-12.601600000000001 -9.0781 2.3613 164
-12.9531 -9.3281 -0.1857 196
-12.8047 -9.2188 2.7754000000000003 142
-12.960899999999999 -9.2656 0.18539999999999998 61
-13.0156 -9.3047 0.5571 219
-12.835899999999999 -9.1719 0.9155 30
-12.75 -9.1094 1.2764 77
-12.75 -9.1094 -1.2764 205
-12.648399999999999 -9.0391 1.6299000000000001 232
-12.726600000000001 -9.0938 -0.9077 221
-12.718800000000002 -9.0938 2.0059 164
-12.9453 -9.25 -0.5537 240
-12.601600000000001 -9.0078 2.3555 173
-13.0078 -9.2969 -0.18600000000000003 177
-12.7969 -9.1484 2.7656 10
-12.851600000000001 -9.1172 0.1833 239
-12.8125 -9.0938 0.5468999999999999 48
-12.8047 -9.0938 0.9111 208
-12.7344 -9.0391 1.2715 24
-12.75 -9.0469 -1.2734 181
-12.656199999999998 -8.9844 1.6269999999999998 251
-12.7344 -9.0391 -0.9062 5
-12.710899999999999 -9.0234 2.0 87
-12.8672 -9.1328 -0.5493 151
-12.6094 -8.9531 2.3516 171
-12.773399999999999 -9.0703 -0.18239999999999998 145
-12.789100000000001 -9.0781 2.7577999999999996 64
-12.8047 -9.0234 0.18230000000000002 195
-12.8203 -9.0391 0.5459 217
-12.8125 -9.0312 0.9092 145
-12.726600000000001 -8.9688 1.2686 116
-12.7422 -8.9766 -1.2695 101
-12.648399999999999 -8.9141 1.6221 89
-12.7344 -8.9766 -0.9037999999999999 185
-12.710899999999999 -8.9609 1.9950999999999999 193
-12.7969 -9.0234 -0.5449 209
-12.601600000000001 -8.8828 2.3457 141
-12.7969 -9.0234 -0.1821 60
-12.8047 -9.0234 2.7558999999999996 245
-12.835899999999999 -8.9844 0.18239999999999998 139
-12.8047 -8.9609 0.5439 20
-12.835899999999999 -8.9766 0.9087000000000001 96
-12.718800000000002 -8.8984 1.2646 20
-12.726600000000001 -8.9062 -1.2646 123
-12.6328 -8.8359 1.6152000000000002 45
-12.7344 -8.9141 -0.9018999999999999 102
-12.710899999999999 -8.8906 1.9902000000000002 55
-12.8047 -8.9609 -0.5439 114
-12.585899999999999 -8.8047 2.3359 153
-12.781199999999998 -8.9453 -0.1815 151
-12.9531 -9.0625 2.7812 217
-12.8594 -8.9375 0.18230000000000002 188
-6.2773 -4.3633 -1.1592 242
-12.835899999999999 -8.9141 0.5439 117
-12.8828 -8.9453 0.9097 41
-12.7344 -8.8516 1.2627 60
-12.726600000000001 -8.8438 -1.2627 170
-12.625 -8.7734 1.6113 91
-12.726600000000001 -8.8438 -0.8989 41
-12.710899999999999 -8.8281 1.9853999999999998 163
-12.8047 -8.8906 -0.5425 175
-12.585899999999999 -8.75 2.3301 2
-12.8203 -8.9062 -0.1816 88
-13.0 -9.0312 2.7832 115
-6.2578 -4.3125 -1.3330000000000002 96
-12.898399999999999 -8.8906 0.18230000000000002 239
-6.2773 -4.3242 -1.1553 167
-13.0 -8.9609 0.5498 15
-13.031199999999998 -8.9766 0.9179999999999999 31
-12.726600000000001 -8.7734 1.2588 69
-12.7344 -8.7734 -1.2598 34
-12.593800000000002 -8.6797 1.6035 4
-12.718800000000002 -8.7656 -0.8959999999999999 20
-12.7031 -8.75 1.9785 118
-12.8906 -8.8828 -0.5449 20
-12.6094 -8.6875 2.3281 36
-12.8828 -8.875 -0.182 69
-12.9922 -8.9531 2.7733999999999996 179
-6.261699999999999 -4.2812 -1.3300999999999998 79
-12.9375 -8.8516 0.18239999999999998 151
-6.2539 -4.2773 -1.1494 27
-13.023399999999999 -8.9062 0.5493 179
-6.300800000000001 -4.3086 -0.9765999999999999 42
-13.0156 -8.8984 0.915 242
-12.7344 -8.7109 1.2568000000000001 251
-12.7422 -8.7109 -1.2568000000000001 74
-12.625 -8.6406 1.6035 187
-12.718800000000002 -8.7031 -0.894 24
-12.7031 -8.6875 1.9736000000000002 177
-12.7969 -8.75 -0.5396 101
-12.6094 -8.625 2.3223 73
-12.835899999999999 -8.7812 -0.1809 1
-12.9922 -8.8828 2.7676 34
-6.265599999999999 -4.2539 -1.3281 255
-12.9453 -8.7891 0.1821 56
-6.25 -4.2461 -1.1455 199
-13.0 -8.8281 0.5468999999999999 34
-6.2812 -4.2656 -0.9712000000000001 11
-13.023399999999999 -8.8438 0.9131 52
-12.7031 -8.625 1.251 200
-6.488300000000001 -4.4062 -0.6367 58
-12.648399999999999 -8.5859 1.6025 40
-12.726600000000001 -8.6406 -0.8926000000000001 31
-12.6953 -8.6172 1.9678 150
-12.9453 -8.7891 -0.5444 27
-12.593800000000002 -8.5547 2.3145 113
-12.898399999999999 -8.7578 -0.1815 202
-12.9922 -8.8203 2.7617000000000003 244
-6.25 -4.2148 -1.3222999999999998 249
-12.8594 -8.6719 0.1805 120
-6.238300000000001 -4.207 -1.1406 160
-12.968800000000002 -8.7422 0.5444 106
-6.2773 -4.2305 -0.9682999999999999 109
-13.023399999999999 -8.7812 0.9111 28
-12.710899999999999 -8.5703 1.248 49
-12.6328 -8.5156 1.5966999999999998 56
-12.7344 -8.5859 -0.8911 241
-12.6953 -8.5625 1.9647999999999999 159
-12.898399999999999 -8.6953 -0.5415 55
-12.585899999999999 -8.4844 2.3086 118
-12.8203 -8.6484 -0.17989999999999998 121
-12.9844 -8.75 2.7539 17
-6.230499999999999 -4.1641 -1.3144999999999998 102
-12.9297 -8.6484 0.18100000000000002 123
-6.2461 -4.1758 -1.1387 109
-13.0156 -8.7031 0.5449 173
-6.269500000000001 -4.1914 -0.9648 85
-13.031199999999998 -8.7109 0.9097 37
-12.7344 -8.5156 1.2470999999999999 199
-12.6406 -8.4531 1.5937999999999999 139
-12.718800000000002 -8.5 -0.8872 185
-12.6953 -8.4922 1.959 190
-12.914100000000001 -8.6328 -0.5405 223
-12.593800000000002 -8.4219 2.3047 63
-12.789100000000001 -8.5469 -0.179 245
-12.9922 -8.6875 2.748 202
-6.2227 -4.1289 -1.3096 126
-12.976600000000001 -8.6094 0.1813 12
-6.2422 -4.1406 -1.1357 103
-12.9922 -8.625 0.5425 79
-6.261699999999999 -4.1562 -0.9609000000000001 153
-13.0156 -8.6406 0.9062 127
-12.7344 -8.4531 1.2451 32
-12.625 -8.3828 1.5888999999999998 47
-12.718800000000002 -8.4375 -0.8853 82
-12.6875 -8.4219 1.9531 53
-12.914100000000001 -8.5703 -0.5396 171
-12.593800000000002 -8.3594 2.2988 47
-12.710899999999999 -8.4297 -0.1775 171
-12.9922 -8.6172 2.7422000000000004 17
-6.2188 -4.0977 -1.3056999999999999 167
-12.898399999999999 -8.5 0.1797 22
-6.2265999999999995 -4.1016 -1.1309 159
-13.0156 -8.5781 0.5425 105
-6.2578 -4.125 -0.9584999999999999 18
-13.0078 -8.5703 0.9033 199
-6.2890999999999995 -4.1445 -0.7870999999999999 101
-12.710899999999999 -8.375 1.2393 247
-12.6406 -8.3281 1.5859 208
-12.710899999999999 -8.375 -0.8833 233
-12.6719 -8.3516 1.9463 128
-12.8047 -8.4375 -0.5337 54
-12.6172 -8.3125 2.2969 53
-12.906199999999998 -8.5078 -0.17989999999999998 252
-12.9844 -8.5547 2.7344 159
-6.2148 -4.0664 -1.3027000000000002 126
-12.9375 -8.4609 0.17989999999999998 168
-6.2148 -4.0664 -1.126 120
-13.0078 -8.5078 0.541 138
-6.261699999999999 -4.0977 -0.9570000000000001 120
-13.0078 -8.5078 0.9018999999999999 213
-6.2773 -4.1055 -0.7837000000000001 133
-12.710899999999999 -8.3125 1.2373 102
-6.3398 -4.1484 -0.6152000000000001 63
-12.664100000000001 -8.2891 1.5859 164
-6.4023 -4.1875 -0.4424 154
-12.664100000000001 -8.2812 1.9413999999999998 235
-12.875 -8.4219 -0.5356000000000001 163
-12.6719 -8.2891 2.3027 58
-12.9297 -8.4531 -0.1797 115
-12.9922 -8.5 2.7305 236
-6.2109000000000005 -4.0273 -1.2978999999999998 11
-12.8594 -8.3438 0.1783 169
-6.2188 -4.0352 -1.124 178
-12.976600000000001 -8.4219 0.5386 203
-6.2539 -4.0586 -0.9536 228
-13.0156 -8.4453 0.8998999999999999 202
-6.2852 -4.0781 -0.7827 158
-12.7031 -8.2344 1.2324 37
-6.3359000000000005 -4.1094 -0.6133 224
-12.6719 -8.2188 1.5830000000000002 20
-6.417999999999999 -4.1641 -0.4424 174
-12.664100000000001 -8.2109 1.9365 2
-12.6875 -8.2266 -0.5264 159
-12.6719 -8.2188 2.2969 113
-12.843800000000002 -8.3359 -0.17809999999999998 186
-12.9531 -8.3984 2.7148000000000003 21
-6.207000000000001 -3.9961 -1.2938999999999998 126
-12.968800000000002 -8.3438 0.1794 40
-6.2188 -4.0039 -1.1211 17
-12.9922 -8.3672 0.5381 231
-6.2422 -4.0195 -0.9492 96
-13.0078 -8.375 0.8975 28
-6.2812 -4.043 -0.7803 113
-12.718800000000002 -8.1875 1.2314 202
-6.3164 -4.0664 -0.6099 26
-12.664100000000001 -8.1484 1.5781 77
-6.4062 -4.125 -0.4407 171
-12.656199999999998 -8.1484 1.9306999999999999 165
-12.843800000000002 -8.2656 -0.5317000000000001 103
-12.6875 -8.1641 2.2949 17
-12.906199999999998 -8.3125 -0.17859999999999998 228
-12.7422 -8.2031 2.6660000000000004 95
-6.1914 -3.9589999999999996 -1.2891 103
-12.835899999999999 -8.2031 0.1772 148
-6.2188 -3.9745999999999997 -1.1181999999999999 16
-12.906199999999998 -8.25 0.5332 55
-6.234400000000001 -3.9844 -0.9462999999999999 34
-13.0078 -8.3203 0.8959999999999999 202
-6.269500000000001 -4.0078 -0.7773 156
-12.710899999999999 -8.125 1.2285 35
-6.324199999999999 -4.043 -0.6093999999999999 65
-12.664100000000001 -8.0938 1.5752000000000002 175
-6.390599999999999 -4.0859 -0.4387 74
-12.6328 -8.0781 1.9228999999999998 235
-6.5664 -4.1992 -0.2703 202
-12.6797 -8.1016 2.2871 55
-12.835899999999999 -8.2031 -0.1772 143
-12.6797 -8.1094 2.6464999999999996 102
-6.207000000000001 -3.9395 -1.2891 244
-12.8594 -8.1562 0.1772 227
-6.199199999999999 -3.9336 -1.1133 201
-12.8594 -8.1562 0.5297999999999999 244
-6.234400000000001 -3.957 -0.9443 233
-12.726600000000001 -8.0781 0.8745 97
-6.2578 -3.9707 -0.7744 230
-12.7031 -8.0625 1.2256 55
-6.3164 -4.0078 -0.6074 127
-12.710899999999999 -8.0703 1.5781 123
-6.3828 -4.0508 -0.43729999999999997 44
-12.6172 -8.0078 1.9169999999999998 204
-6.5352 -4.1484 -0.2686 141
-12.6875 -8.0547 2.2852 117
-12.781199999999998 -8.1094 -0.1761 46
-12.531199999999998 -7.949199999999999 2.6094 57
-12.7344 -8.0156 0.175 237
-6.1875 -3.8964999999999996 -1.1084 40
-12.7031 -7.9961 0.5225 7
-6.2265999999999995 -3.9199 -0.9409000000000001 245
-12.7031 -8.0 0.8711 253
-6.261699999999999 -3.9414 -0.7729 204
-12.6953 -7.988300000000001 1.2217 101
-6.3086 -3.9707 -0.6054999999999999 149
-12.6953 -7.9922 1.5722999999999998 127
-6.3789 -4.0156 -0.436 228
-12.0781 -7.6015999999999995 1.8300999999999998 17
-6.5234000000000005 -4.1055 -0.2673 90
-12.1172 -7.6289 2.1777 101
-12.6953 -7.9922 -0.1746 31
-12.093800000000002 -7.613300000000001 2.5137 83
-6.355499999999999 -3.9707 -1.3144999999999998 25
-12.7422 -7.957000000000001 0.1748 208
-6.1875 -3.8632999999999997 -1.1055 106
-12.7031 -7.9336 0.521 133
-6.2148 -3.8827999999999996 -0.937 71
-12.718800000000002 -7.9453 0.8695999999999999 242
-6.261699999999999 -3.9101999999999997 -0.7709999999999999 255
-12.125 -7.574199999999999 1.1641 175
-6.3086 -3.9395 -0.604 79
-12.164100000000001 -7.5977 1.5029 124
-6.3789 -3.9863 -0.4351 154
-12.031199999999998 -7.515599999999999 1.8193000000000001 151
-6.5352 -4.082 -0.2671 70
-12.593800000000002 -7.863300000000001 2.2578 167
-12.6953 -7.9297 -0.1741 71
-12.6797 -7.917999999999999 2.6289 89
-6.2188 -3.8555 -1.2832 215
-12.7344 -7.894500000000001 0.1743 118
-6.2148 -3.8516000000000004 -1.1084 64
-12.6953 -7.8711 0.52 234
-6.203099999999999 -3.8457 -0.9336 111
-12.6953 -7.8711 0.8667 200
-6.265599999999999 -3.8827999999999996 -0.77 196
-12.6797 -7.855499999999999 1.2148 247
-6.3086 -3.9101999999999997 -0.6025 232
-12.656199999999998 -7.8477 1.5605000000000002 44
