# .PCD v0.7 - Point Cloud Data file format
VERSION 0.7
FIELDS x y z intensity
SIZE 4 4 4 4
TYPE F F F F
COUNT 1 1 1 1
WIDTH 1375
HEIGHT 1
VIEWPOINT 0 0 0 1 0 0 0
POINTS 1375
DATA ascii
-6.5312 12.6875 -1.1621 31
-13.6328 26.5 3.127 33
-8.2891 16.1094 -1.0508 228
-13.4297 26.0938 3.7695 232
-13.0078 25.2812 4.3281 229
-12.539100000000001 24.3594 -0.3196 89
-13.335899999999999 25.9219 5.1328 69
-3.4101999999999997 6.6836 -1.3154 21
-3.8672000000000004 7.578099999999999 -1.291 170
-4.4453 8.7031 -1.252 131
-30.1406 59.0625 3.8555 25
-5.296900000000001 10.375 -1.2197 138
-6.484400000000001 12.7031 -1.1611 246
-12.835899999999999 25.1562 2.9629000000000003 229
-8.2422 16.1406 -1.0518 159
-13.1328 25.7344 3.7108999999999996 142
-12.851600000000001 25.1875 4.3047 89
-12.531199999999998 24.5469 -0.3215 39
-13.1953 25.8594 5.1094 133
-3.3906 6.699199999999999 -1.3163999999999998 228
-3.8398000000000003 7.5859000000000005 -1.29 92
-4.4219 8.7344 -1.2539 166
-29.8906 59.0312 3.8476999999999997 182
-5.2578 10.3906 -1.2187999999999999 95
-6.425800000000001 12.6953 -1.1582 203
-12.8047 25.2969 2.9745999999999997 26
-8.1875 16.1719 -1.0518 234
-13.2344 26.1406 3.7637 92
-12.7969 25.2656 4.3125 125
-12.476600000000001 24.6406 -0.322 180
-13.1953 26.0625 5.144500000000001 141
-3.3651999999999997 6.707000000000001 -1.3154 186
-3.8066000000000004 7.5898 -1.2881 213
-4.3867 8.7422 -1.2529000000000001 146
-29.625 59.0625 3.8418 5
-5.2227 10.406199999999998 -1.2187999999999999 41
-6.375 12.710899999999999 -1.1572 15
-13.414100000000001 26.7344 3.1387 9
-8.125 16.2031 -1.0518 170
-12.6797 25.2812 3.6327999999999996 229
-12.718800000000002 25.3438 4.3164 223
-13.031199999999998 25.9688 5.1172 219
-3.3398000000000003 6.7188 -1.3154 94
-3.7910000000000004 7.625 -1.2919999999999998 230
-4.3516 8.75 -1.251 142
-29.375 59.0625 3.8358999999999996 61
-5.1797 10.414100000000001 -1.2178 34
-6.3164 12.7031 -1.1553 98
-12.460899999999999 25.0469 2.9355 72
-8.0547 16.2031 -1.0498 7
-12.5703 25.2812 3.625 48
-12.7578 25.6562 4.3633 1
-12.906199999999998 25.9531 5.1016 250
-3.3086 6.7148 -1.3125 60
-3.7577999999999996 7.625 -1.29 95
-4.3242 8.7734 -1.2529000000000001 187
-29.0781 59.0 3.8242000000000003 255
-5.140599999999999 10.4297 -1.2168 160
-6.2852 12.75 -1.1572 148
-7.988300000000001 16.2031 -1.0488 216
-12.539100000000001 25.4375 3.6426 2
-11.6719 23.6719 -0.9198999999999999 69
-12.4453 25.25 4.2852 239
-3.2891000000000004 6.734400000000001 -1.3144999999999998 98
-3.7266000000000004 7.625 -1.2881 147
-4.293 8.7812 -1.252 69
-28.8438 59.0312 3.8202999999999996 80
-5.0977 10.4297 -1.2158 129
-6.2265999999999995 12.7422 -1.1553 147
-12.6328 25.8438 3.0195 37
-7.9414 16.25 -1.0498 106
-12.531199999999998 25.6406 3.6660000000000004 28
-12.226600000000001 25.0312 4.2422 84
-3.2676 6.7461 -1.3144999999999998 16
-3.6933999999999996 7.625 -1.2852000000000001 66
-4.2695 8.8125 -1.2539 243
-28.5469 58.9375 3.8086 112
-5.0625 10.4453 -1.2158 117
-6.1797 12.75 -1.1533 73
-12.476600000000001 25.75 3.0039 45
-7.8984000000000005 16.2969 -1.0508 156
-12.4219 25.6406 3.6582 8
-12.0469 24.875 4.207 135
-3.2461 6.7539 -1.3144999999999998 170
-3.6757999999999997 7.6523 -1.2881 218
-4.2344 8.8125 -1.2529000000000001 177
-28.3438 59.0 3.8047000000000004 131
-5.0195 10.4453 -1.2139 166
-12.1094 25.2188 2.2812 199
-6.125 12.75 -1.1514 52
-13.0547 27.1719 3.1641000000000004 4
-7.828099999999999 16.2969 -1.0488 201
-12.3047 25.6094 3.6504000000000003 239
-11.9297 24.8438 4.1953 170
-12.1953 25.3906 4.957 206
-3.2168 6.761699999999999 -1.3125 47
-3.6406 7.6484000000000005 -1.2852000000000001 151
-4.2031 8.8281 -1.2529000000000001 131
-28.0938 59.0312 3.8007999999999997 25
-4.9727 10.4531 -1.2119 45
-12.0078 25.2188 2.2773 166
-6.082000000000001 12.773399999999999 -1.1523 136
-12.914100000000001 27.1406 3.1543 22
-7.761699999999999 16.3125 -1.0479 249
-12.164100000000001 25.5469 3.6348000000000003 98
-12.3281 25.9062 4.3672 4
-12.1172 25.4531 4.9648 201
-3.1875 6.761699999999999 -1.3105000000000002 233
-3.6191000000000004 7.671900000000001 -1.2871000000000001 200
-4.168 8.8359 -1.251 196
-27.7969 58.9375 3.7891000000000004 236
-4.9375 10.468800000000002 -1.2119 23
-11.8828 25.1875 2.2715 153
-6.0312 12.789100000000001 -1.1514 197
-12.164100000000001 25.7969 2.9941000000000004 47
-7.707000000000001 16.3438 -1.0479 241
-12.0156 25.4844 3.6191000000000004 143
-12.1953 25.8594 4.3555 188
-3.168 6.7773 -1.3115 98
-3.5918 7.6875 -1.2871000000000001 91
-4.1367 8.8438 -1.251 215
-27.5938 59.0312 3.7891000000000004 40
-4.8867 10.4531 -1.208 44
-11.835899999999999 25.3281 2.2812 24
-5.984400000000001 12.8047 -1.1504 9
-12.093800000000002 25.875 2.9961 178
-7.640599999999999 16.3438 -1.0469 8
-11.906199999999998 25.4688 3.6113 28
-11.0703 23.6875 -0.9116 237
-12.1953 26.0938 4.3867 150
-3.1464999999999996 6.792999999999999 -1.3125 140
-3.5566000000000004 7.6797 -1.2841999999999998 35
-4.1055 8.8672 -1.251 184
-27.3281 59.0 3.7812 0
-4.8594 10.4922 -1.21 43
-5.925800000000001 12.7969 -1.1484 44
-7.578099999999999 16.3594 -1.0469 204
-11.781199999999998 25.4375 3.5995999999999997 96
-11.0 23.75 -0.9120999999999999 212
-12.0781 26.0781 4.375 223
-3.123 6.8047 -1.3135 194
-3.5332 7.699199999999999 -1.2852000000000001 231
-4.0625 8.8516 -1.248 44
-27.0625 58.9688 3.7733999999999996 174
-4.8164 10.4922 -1.209 1
-5.8711 12.7969 -1.1465 194
-11.835899999999999 25.7969 2.9785000000000004 146
-7.515599999999999 16.375 -1.0459 186
-12.039100000000001 26.25 3.7089999999999996 145
-10.851600000000001 23.6406 -0.9067000000000001 96
-11.968800000000002 26.0938 4.3711 129
-3.0938 6.800800000000001 -1.3105000000000002 208
-3.5098000000000003 7.7188 -1.2861000000000002 236
-4.0273 8.8594 -1.2461 249
-12.9219 28.4219 1.8135 138
-4.7852 10.523399999999999 -1.21 34
-5.832000000000001 12.8281 -1.1475 2
-7.453099999999999 16.3906 -1.0449 112
-11.7422 25.8281 3.6426 124
-10.7578 23.6562 -0.9057999999999999 234
-11.906199999999998 26.1875 4.3789 84
-3.0723000000000003 6.8125 -1.3105000000000002 58
-12.789100000000001 28.3594 0.3628 232
-3.4863 7.730499999999999 -1.2861000000000002 194
-12.75 28.2812 1.0811 81
-3.9961 8.8594 -1.2451 136
-12.7578 28.2812 1.8027000000000002 22
-4.75 10.531199999999998 -1.21 144
-5.792999999999999 12.851600000000001 -1.1475 73
-7.3984000000000005 16.4062 -1.0449 64
-10.6875 23.7031 -0.9057999999999999 56
-11.75 26.0625 4.3516 16
-12.773399999999999 28.3281 -0.3625 89
-3.0469 6.8203 -1.3096 209
-12.726600000000001 28.4844 0.364 24
-3.4551 7.730499999999999 -1.2852000000000001 181
-12.6719 28.3594 1.083 188
-3.9745999999999997 8.8906 -1.2470999999999999 87
-4.6992 10.5156 -1.2061 110
-5.734400000000001 12.835899999999999 -1.1445 58
-7.3438 16.4219 -1.0439 94
-11.75 26.2969 3.6992000000000003 178
-10.6094 23.7344 -0.9057999999999999 157
-11.6406 26.0469 4.3438 83
-10.3672 23.2031 4.4727 116
-3.0233999999999996 6.8359000000000005 -1.3105000000000002 170
-3.418 7.7265999999999995 -1.2822 12
-3.9336 8.8906 -1.2451 31
-26.0469 58.9062 3.7441000000000004 84
-4.6602 10.531199999999998 -1.2061 66
-5.6875 12.8594 -1.1445 6
-7.2773 16.4531 -1.0439 2
-10.5156 23.7812 -0.9062 218
-11.523399999999999 26.0625 4.3398 201
-3.002 6.8515999999999995 -1.3115 7
-3.3906 7.738300000000001 -1.2822 187
-3.8983999999999996 8.8984 -1.2441 213
-25.8281 58.9688 3.7422000000000004 137
-4.6172 10.539100000000001 -1.2041 120
-5.6172 12.8203 -1.1396 35
-7.2148 16.4688 -1.043 152
-35.5938 81.25 11.406199999999998 247
-10.406199999999998 23.75 -0.9037999999999999 217
-11.4453 26.125 4.3398 138
-2.9726999999999997 6.8477 -1.3086000000000002 254
-3.373 7.765599999999999 -1.2852000000000001 81
-3.8672000000000004 8.9062 -1.2441 49
-25.5781 58.9062 3.7344 135
-4.582 10.5469 -1.2041 161
-5.5859000000000005 12.8672 -1.1416 30
-7.1602 16.4844 -1.043 169
-10.3125 23.75 -0.9018999999999999 144
-10.5 24.1875 4.0156 228
-2.9473000000000003 6.8477 -1.3066 213
-3.3457 7.7734000000000005 -1.2841999999999998 124
-3.8358999999999996 8.9141 -1.2431999999999999 3
-10.4844 24.3594 1.541 208
-4.5469 10.5625 -1.2041 47
-5.5273 12.851600000000001 -1.1387 103
-7.082000000000001 16.4688 -1.04 156
-10.2422 23.7969 -0.9028 108
-10.3828 24.1406 4.0 228
-10.476600000000001 24.3438 -0.3091 36
-2.9257999999999997 6.8672 -1.3086000000000002 36
-10.3828 24.375 0.3091 174
-3.3145 7.7852 -1.2832 180
-10.375 24.3594 0.9224 251
-3.8047000000000004 8.9297 -1.2431999999999999 229
-10.3594 24.3125 1.5352000000000001 202
-4.5078 10.5781 -1.2041 125
-5.484400000000001 12.875 -1.1396 33
-7.019500000000001 16.4844 -1.04 116
-10.335899999999999 24.2656 3.3867000000000003 197
-10.1328 23.7969 -0.9014 70
-10.375 24.3594 -0.3086 158
-2.9023000000000003 6.8789 -1.3096 46
-3.293 7.8047 -1.2852000000000001 160
-10.281199999999998 24.3594 0.9218999999999999 19
-3.7676 8.9297 -1.2412 35
-10.289100000000001 24.3906 1.5381 63
-4.457 10.5703 -1.2012 31
-5.4375 12.8906 -1.1396 249
-6.9688 16.5156 -1.041 150
-10.0312 23.7812 -0.8994 109
-10.3047 24.4375 -0.3091 104
-10.25 24.2969 4.6445 130
-2.877 6.886699999999999 -1.3086000000000002 111
-3.2617000000000003 7.8086 -1.2841999999999998 84
-3.7363 8.9453 -1.2422 170
-24.6094 58.9062 3.7129000000000003 215
-4.4297 10.6094 -1.2041 38
-5.3828 12.8828 -1.1367 21
-6.9062 16.5312 -1.04 71
-9.9219 23.75 -0.897 3
-11.781199999999998 28.2188 4.6562 206
-10.2422 24.5156 4.6758 220
-2.8476999999999997 6.886699999999999 -1.3066 196
-3.2305 7.8125 -1.2822 180
-3.6973000000000003 8.9375 -1.2393 167
-11.7656 28.4531 1.7891 197
-4.3867 10.6094 -1.2021 193
-11.718800000000002 28.3281 2.5 171
-5.324199999999999 12.875 -1.1338 199
-6.8477 16.5469 -1.0391 67
-11.6797 28.25 3.9257999999999997 68
-9.8438 23.7969 -0.8975 198
-11.664100000000001 28.2031 4.6484 65
-2.8242000000000003 6.9023 -1.3075999999999999 144
-3.2012 7.8203 -1.2822 156
-3.6660000000000004 8.9531 -1.2393 222
-11.656199999999998 28.4844 1.7881 30
-4.3477 10.6172 -1.2012 207
-11.6094 28.3594 2.5 173
-5.2890999999999995 12.9219 -1.1367 11
-6.7734000000000005 16.5469 -1.0381 102
-9.9922 24.4062 3.3867000000000003 8
-9.7578 23.8281 -0.8975 40
-11.5781 28.2812 4.6523 179
-2.8026999999999997 6.917999999999999 -1.3086000000000002 250
-3.1757999999999997 7.8359000000000005 -1.2832 184
-23.9062 59.0 2.2207 65
-3.6308999999999996 8.9609 -1.2383 181
-9.9453 24.5312 1.5371000000000001 174
-4.3047 10.625 -1.2002 200
-11.5156 28.4219 2.502 135
-5.234400000000001 12.9219 -1.1348 137
-6.7148 16.5781 -1.0381 190
-9.6641 23.8438 -0.8965000000000001 4
-11.4844 28.3281 4.6562 193
-2.7773000000000003 6.921900000000001 -1.3075999999999999 206
-3.1426 7.832000000000001 -1.2803 94
-3.6035000000000004 8.9844 -1.2393 92
-9.8594 24.5625 1.5371000000000001 37
-4.2656 10.6328 -1.1992 4
-11.4219 28.4688 2.502 74
-5.1875 12.9297 -1.1338 110
-6.6562 16.5938 -1.0371 122
-9.5781 23.875 -0.8965000000000001 223
-11.3906 28.3906 4.6562 118
-2.7577999999999996 6.9414 -1.3096 1
-3.1074 7.824199999999999 -1.2773 5
-3.5664 8.9766 -1.2373 189
-9.8594 24.8125 1.5508000000000002 33
-4.2227 10.6328 -1.1982 95
-11.3281 28.5312 2.5039 90
-5.144500000000001 12.9531 -1.1348 188
-6.5898 16.5938 -1.0361 237
-11.3047 28.4688 3.9336 26
-9.4922 23.9062 -0.8965000000000001 63
-11.289100000000001 28.4219 4.6562 15
-2.7285000000000004 6.9336 -1.3066 193
-3.0918 7.859400000000001 -1.2812000000000001 164
-3.5332 8.9766 -1.2354 154
-11.281199999999998 28.6719 1.79 56
-4.1875 10.648399999999999 -1.1982 17
-11.25 28.5781 2.5059 202
-5.0977 12.9531 -1.1328 34
-6.5352 16.6094 -1.0361 10
-11.226600000000001 28.5312 3.9375 49
-9.4219 23.9375 -0.8965000000000001 168
-11.210899999999999 28.4844 4.6602 199
-2.7051 6.9414 -1.3066 120
-3.0645 7.863300000000001 -1.2803 76
-11.218800000000002 28.7969 1.0771 22
-3.5 8.9844 -1.2344 126
-11.1953 28.7188 1.791 3
-4.1523 10.656199999999998 -1.1973 95
-11.1719 28.6562 2.5098 102
-5.0547 12.968800000000002 -1.1338 153
-6.4648 16.5938 -1.0332 91
-11.1328 28.5781 3.9395 194
-9.3438 23.9688 -0.8965000000000001 210
-11.125 28.5469 4.668 2
-2.6855 6.9688 -1.3096 183
-3.0391000000000004 7.8828 -1.2822 141
-3.4668 8.9922 -1.2344 50
-11.093800000000002 28.7812 1.7919999999999998 237
-4.1055 10.656199999999998 -1.1953 225
-11.0703 28.7031 2.5098 99
-4.9961 12.960899999999999 -1.1309 174
-6.3984000000000005 16.5938 -1.0322 57
-11.031199999999998 28.625 3.9395 203
-9.2578 24.0156 -0.897 246
-11.023399999999999 28.5938 4.668 41
-2.6582 6.9688 -1.3075999999999999 182
-3.0077999999999996 7.8828 -1.2803 103
-3.4355 9.0 -1.2344 203
-11.0078 28.8438 1.7938999999999998 50
-4.0703 10.6719 -1.1963 186
-10.968800000000002 28.75 2.5098 123
-4.957 12.9922 -1.1318000000000001 13
-6.3438 16.625 -1.0332 57
-10.9375 28.6875 3.9433999999999996 205
-9.1562 24.0156 -0.8955 243
-10.9297 28.6562 4.6719 58
-2.6348000000000003 6.984400000000001 -1.3086000000000002 7
-2.9863 7.9140999999999995 -1.2832 131
-22.2031 58.8438 2.1953 169
-3.4004000000000003 9.0078 -1.2334 248
-10.906199999999998 28.9219 1.7959 236
-4.0312 10.6875 -1.1963 106
-10.875 28.8125 2.5117 34
-4.8984 12.9844 -1.1299 87
-6.2734000000000005 16.625 -1.0312000000000001 38
-10.843800000000002 28.75 3.9473000000000003 2
-9.0859 24.0781 -0.897 85
-10.835899999999999 28.7188 4.6758 133
-2.6035000000000004 6.9727 -1.3047 178
-11.085899999999999 29.6875 0.3699 240
-2.9492000000000003 7.8984000000000005 -1.2793 192
-3.3672000000000004 9.0234 -1.2334 39
-10.8125 28.9688 1.7969 182
-3.9863 10.6797 -1.1934 162
-10.781199999999998 28.8906 2.5156 78
-4.8477 12.9844 -1.1289 218
-6.2109000000000005 16.6406 -1.0312000000000001 213
-10.7656 28.8281 3.9531 12
-9.0078 24.125 -0.8975 223
-10.7656 28.8438 4.6875 89
-11.1094 29.75 -0.37060000000000004 193
-2.5839999999999996 6.988300000000001 -1.3066 219
-10.9922 29.7344 0.3699 242
-2.9238 7.9102 -1.2793 103
-10.9922 29.7344 1.1055 79
-3.3398000000000003 9.0312 -1.2334 150
-10.726600000000001 29.0312 1.7978999999999998 238
-3.9531 10.6953 -1.1934 105
-21.7188 58.7188 5.1094 83
-4.8047 13.0 -1.1279000000000001 133
-6.1523 16.6406 -1.0293 201
-8.9453 24.2031 -0.8989 77
-11.1328 30.1094 4.8867 63
-10.976600000000001 29.7031 -0.36939999999999995 81
-2.5625 7.0039 -1.3075999999999999 103
-10.8906 29.7656 0.3699 75
-2.8926 7.9023 -1.2773 105
-3.3047000000000004 9.0312 -1.2314 117
-21.5156 58.7812 3.6387 185
-3.9120999999999997 10.6875 -1.1914 229
-21.4688 58.6875 5.1016 228
-4.75 12.9844 -1.126 102
-6.0898 16.6406 -1.0283 225
-8.9062 24.3438 -0.9033 31
-10.851600000000001 29.6562 4.8086 188
-10.8594 29.6719 -0.36869999999999997 38
-2.5371 7.015599999999999 -1.3075999999999999 226
-10.7344 29.6719 0.3682 224
-2.8613 7.9062 -1.2754 73
-3.2754000000000003 9.0547 -1.2324 164
-21.2812 58.8438 3.6387 26
-3.8711 10.6953 -1.1914 132
-21.2344 58.6875 5.0938 218
-4.707 13.0156 -1.127 230
-6.0352 16.6719 -1.0293 212
-8.8438 24.4375 -0.9057999999999999 16
-2.5117 7.015599999999999 -1.3066 202
-10.664100000000001 29.7969 0.3691 246
-2.8262 7.8984000000000005 -1.2725 250
-21.0469 58.8125 2.1797 112
-3.2382999999999997 9.0469 -1.2305 227
-3.8301 10.7031 -1.1904000000000001 65
-20.9844 58.6562 5.0859 254
-4.6562 13.0156 -1.125 216
-5.953099999999999 16.6406 -1.0254 237
-8.7422 24.4375 -0.9043000000000001 162
-10.6875 29.875 4.832 74
-11.125 31.0938 -0.38530000000000003 166
-2.4824 7.011699999999999 -1.3047 41
-2.8026999999999997 7.917999999999999 -1.2744 145
-3.2089999999999996 9.0703 -1.2314 200
-20.7969 58.75 3.623 70
-3.7910000000000004 10.710899999999999 -1.1904000000000001 77
-4.6094 13.023399999999999 -1.125 231
-5.890599999999999 16.6406 -1.0244 231
-8.6797 24.5156 -0.9067000000000001 28
-10.4844 29.625 4.7852 253
-2.457 7.0234000000000005 -1.3047 151
-2.7812 7.9453 -1.2773 29
-10.6875 30.5312 1.1279000000000001 9
-3.1738 9.0703 -1.2305 186
-10.6875 30.5469 1.8799000000000001 218
-3.7577999999999996 10.7344 -1.1904000000000001 163
-4.5625 13.039100000000001 -1.125 163
-5.8164 16.6094 -1.0215 117
-11.085899999999999 31.6719 4.3125 91
-8.5781 24.5156 -0.9053 184
-10.5469 30.125 4.8594 253
-2.4336 7.0352 -1.3047 233
-2.7422000000000004 7.9297 -1.2725 255
-10.648399999999999 30.7812 1.1357 61
-3.1445 9.0859 -1.2314 168
-10.6719 30.8438 1.8965 101
-3.7031 10.710899999999999 -1.1865 173
-20.2656 58.625 5.0625 34
-4.5078 13.031199999999998 -1.123 41
-5.75 16.625 -1.0205 225
-10.9531 31.6562 4.3047 139
-8.5312 24.6719 -0.9097 113
-10.4531 30.2188 4.8672 208
-10.0859 29.1562 5.4297 167
-2.4082 7.042999999999999 -1.3047 197
-2.7188 7.953099999999999 -1.2754 44
-20.1094 58.7812 2.168 192
-3.1094 9.0938 -1.2305 157
-3.6719 10.7344 -1.1875 3
-20.0469 58.625 5.0547 186
-4.4688 13.0625 -1.124 131
-10.648399999999999 31.1406 3.4531 12
-5.6836 16.6094 -1.0195 106
-10.781199999999998 31.5156 4.2773 225
-8.4531 24.7188 -0.9106000000000001 157
-9.9453 29.0781 5.4140999999999995 110
-2.3848 7.050800000000001 -1.3047 80
-2.6836 7.9336 -1.2705 162
-19.8906 58.7812 2.166 17
-3.0801 9.1016 -1.2305 5
-19.875 58.7188 3.6055 53
-3.6348000000000003 10.75 -1.1875 104
-19.8438 58.6562 5.0547 87
-4.4141 13.0469 -1.1211 252
-10.601600000000001 31.3438 3.4726999999999997 243
-5.6289 16.6406 -1.0195 56
-10.7031 31.6562 4.293 165
-9.8281 29.0625 5.4023 100
-2.3594 7.050800000000001 -1.3037 238
-2.6601999999999997 7.953099999999999 -1.2725 74
-19.6562 58.75 2.1621 225
-3.043 9.0938 -1.2285 157
-19.6406 58.6875 3.5995999999999997 21
-3.5976999999999997 10.75 -1.1875 156
-4.3672 13.0547 -1.1211 61
-5.5586 16.6094 -1.0166 189
-10.0 29.8906 4.0469 17
-8.2656 24.7031 -0.9081999999999999 80
-9.9453 29.7188 4.7734 121
-9.7578 29.1719 5.417999999999999 234
-2.3301 7.050800000000001 -1.3027000000000002 235
-2.6367000000000003 7.980499999999999 -1.2754 94
-3.0098000000000003 9.1094 -1.2285 15
-19.3906 58.6875 3.5938 45
-3.5566000000000004 10.7578 -1.1865 194
-4.3242 13.0781 -1.1211 134
-5.4961 16.625 -1.0166 45
-9.8906 29.9375 4.0508 6
-8.2109 24.8281 -0.9116 108
-9.8047 29.6562 4.7578 101
-9.6172 29.1094 5.3984000000000005 251
-2.3047 7.0547 -1.3008000000000002 70
-2.6055 7.9727 -1.2725 245
-2.9785000000000004 9.1172 -1.2285 20
-19.1719 58.6875 3.5898000000000003 19
-3.5176 10.7656 -1.1855 237
-10.1328 31.0312 2.6620999999999997 10
-4.2812 13.101600000000001 -1.1220999999999999 2
-9.8125 30.0312 3.3164 210
-5.4297 16.625 -1.0146 49
-9.8984 30.3125 4.0977 77
-8.1328 24.8906 -0.9126000000000001 167
-9.4922 29.0625 4.6562 36
-9.6406 29.5 5.4648 221
-2.2852 7.074199999999999 -1.3037 29
-19.0 58.8125 0.7217 76
-2.5723000000000003 7.9648 -1.2695 53
-18.9688 58.7188 2.1543 54
-2.9492000000000003 9.1328 -1.2285 70
-18.9688 58.7188 3.5879000000000003 176
-3.4805 10.781199999999998 -1.1855 143
-4.2383 13.1172 -1.1220999999999999 23
-5.375 16.6406 -1.0146 97
-10.6094 32.8438 4.4336 44
-9.5703 29.625 5.484400000000001 37
-2.2578 7.0703 -1.3008000000000002 183
-18.7969 58.8438 0.7217 86
-2.5508 7.988300000000001 -1.2725 95
-18.75 58.7188 2.1504 106
-2.918 9.1328 -1.2285 104
-8.3516 26.1406 1.5937999999999999 94
-3.4452999999999996 10.789100000000001 -1.1855 230
-4.1875 13.1172 -1.1211 104
-5.300800000000001 16.6094 -1.0117 51
-8.3906 26.2812 3.543 243
-9.5078 29.7656 5.5039 109
-2.2324 7.082000000000001 -1.3018 119
-2.5176 7.980499999999999 -1.2695 11
-18.5156 58.7188 2.1484 70
-2.8808999999999996 9.1406 -1.2266 93
-8.2266 26.0938 1.5888999999999998 48
-3.4023000000000003 10.789100000000001 -1.1845999999999999 196
-4.1367 13.125 -1.1201 80
-8.2266 26.0781 2.8691000000000004 25
-5.230499999999999 16.5938 -1.0098 174
-8.2891 26.2969 3.5410000000000004 180
-9.6797 30.6875 4.9023 109
-9.2812 29.4375 5.4336 51
-2.2051 7.082000000000001 -1.2997999999999998 115
-2.4883 7.988300000000001 -1.2695 23
-18.2969 58.75 2.1465 219
-2.8516000000000004 9.1562 -1.2275 222
-8.125 26.0938 1.5878999999999999 7
-3.3632999999999997 10.7969 -1.1845999999999999 31
-4.0977 13.156199999999998 -1.1220999999999999 66
-5.171900000000001 16.6094 -1.0088 133
-8.1875 26.2812 3.5370999999999997 1
-9.5781 30.7344 4.9023 7
-9.1797 29.4844 5.4375 16
-2.1797 7.0859000000000005 -1.2997999999999998 43
-2.4648 8.0078 -1.2715 207
-18.0625 58.7188 2.1426 176
-2.8145 9.1484 -1.2256 103
-8.0312 26.1094 1.5859 192
-3.3164 10.781199999999998 -1.1816 61
-4.0547 13.1797 -1.123 213
-5.1094 16.6094 -1.0078 92
-8.0859 26.2812 3.5312 217
-9.6562 31.3906 5.0 225
-2.1543 7.0859000000000005 -1.2988 236
-2.4238 7.9765999999999995 -1.2646 214
-8.0547 26.5156 0.9658 7
-2.7832 9.1641 -1.2266 205
-8.0234 26.4062 1.6035 7
-3.2793 10.7969 -1.1816 4
-3.998 13.156199999999998 -1.1191 215
-5.0391 16.5938 -1.0059 186
-7.984400000000001 26.2812 3.5273000000000003 202
-8.0547 26.5 -0.32299999999999995 107
-2.1289 7.0977 -1.2988 204
-7.9688 26.5625 0.3235 185
-2.4004 8.0 -1.2676 38
-7.9375 26.4531 0.9623999999999999 131
-2.75 9.1719 -1.2256 205
-7.9336 26.4375 1.6035 38
-3.248 10.8281 -1.1836 233
-3.9452999999999996 13.148399999999999 -1.1172 128
-4.9766 16.5938 -1.0049 39
-7.890599999999999 26.2969 3.5273000000000003 176
-7.953099999999999 26.5 -0.32280000000000003 237
-2.0977 7.082000000000001 -1.2949000000000002 218
-2.373 8.0078 -1.2676 173
-7.855499999999999 26.5156 0.9643999999999999 186
-2.7148000000000003 9.1641 -1.2246 235
-7.8672 26.5625 1.6084 56
-3.207 10.8281 -1.1816 162
-3.9043 13.1797 -1.1191 208
-8.6719 29.2812 3.2051 147
-4.9141 16.5938 -1.0039 68
-7.7890999999999995 26.2969 3.5214999999999996 120
-7.4297 25.0781 -0.9116 163
-7.886699999999999 26.625 -0.3237 240
-2.0742 7.082000000000001 -1.2938999999999998 155
-17.2188 58.8125 0.7158 75
-2.3477 8.0234 -1.2676 27
-2.6836 9.1641 -1.2227 241
-3.1660000000000004 10.8125 -1.1797 45
-17.1406 58.5625 4.9805 201
-3.8632999999999997 13.1953 -1.1191 26
-4.8594 16.5938 -1.0039 231
-7.6953 26.2812 3.5176 142
-2.0527 7.1015999999999995 -1.2959 99
-2.3223 8.0312 -1.2676 212
-2.6601999999999997 9.1953 -1.2256 93
-16.9531 58.625 3.5469 198
-3.1327999999999996 10.8281 -1.1806999999999999 94
-16.9219 58.5312 4.9727 117
-3.8223000000000003 13.218800000000002 -1.1201 89
-8.4844 29.3281 3.2031 134
-4.8008 16.5938 -1.0029000000000001 170
-7.5977 26.2656 3.5117000000000003 184
-2.0293 7.113300000000001 -1.2969 111
-2.2871 8.0234 -1.2656 219
-16.6719 58.4688 2.1211 182
-2.625 9.2031 -1.2256 227
-16.7188 58.625 3.5449 187
-3.0898000000000003 10.835899999999999 -1.1797 188
-16.6875 58.5312 4.9688 38
-3.7676 13.210899999999999 -1.1181999999999999 58
-8.2734 29.0156 3.1660000000000004 214
-4.7305 16.5781 -1.0 18
-7.4961 26.2812 3.5098000000000003 107
-1.999 7.1015999999999995 -1.2938999999999998 214
-2.2559 8.0156 -1.2637 147
-2.5879000000000003 9.1953 -1.2236 244
-16.5 58.625 3.5410000000000004 59
-3.0507999999999997 10.843800000000002 -1.1787 10
-16.4688 58.5312 4.9648 16
-3.7245999999999997 13.2344 -1.1191 9
-8.1562 28.9688 3.1582 11
-4.6758 16.625 -1.002 121
-9.5391 33.9062 4.5234 245
-7.0234000000000005 24.9531 -0.9033 175
-10.5547 37.5 -0.4546 206
-9.0156 32.0312 5.863300000000001 109
-1.9746000000000001 7.109400000000001 -1.2938999999999998 160
-16.3438 58.8438 0.7134 101
-2.2344 8.0469 -1.2666 192
-2.5527 9.1953 -1.2217 177
-16.2656 58.5938 3.5351999999999997 199
-3.0137 10.851600000000001 -1.1797 199
-16.25 58.5312 4.957 48
-3.6660000000000004 13.1953 -1.1152 97
-8.0625 29.0469 3.1641000000000004 169
-4.6055 16.5781 -0.9984999999999999 75
-9.1172 32.8438 5.1875 210
-10.5078 37.8438 -0.4585 72
-8.8281 31.7969 5.8086 184
-1.9491999999999998 7.113300000000001 -1.2930000000000001 198
-2.2031 8.0391 -1.2646 161
-2.5195 9.1953 -1.2207 115
-8.5625 31.25 1.8828 190
-2.9745999999999997 10.8594 -1.1787 24
-16.0312 58.5312 4.9531 102
-3.6289 13.25 -1.1181999999999999 26
-8.0547 29.3906 3.1992000000000003 249
-4.5469 16.5938 -0.9984999999999999 95
-8.9688 32.75 4.3633 132
-8.0859 29.5156 4.6602 77
-7.9023 28.8438 -0.3489 21
-8.7109 31.7969 5.8047 108
-1.9219 7.113300000000001 -1.2919999999999998 144
-8.4844 31.4062 0.3796 131
-2.166 8.0156 -1.2598 171
-8.4766 31.3594 1.1328 113
-2.4922 9.2188 -1.2227 183
-8.3906 31.0625 1.8691 104
-2.9355 10.8672 -1.1787 159
-15.8125 58.5312 4.9492 51
-3.5702999999999996 13.218800000000002 -1.1143 4
-8.3594 30.9375 3.3632999999999997 42
-4.4844 16.5938 -0.9976 203
-8.8672 32.8438 4.3672 85
-7.980499999999999 29.5312 4.6602 229
-7.796900000000001 28.8594 -0.3486 12
-8.6016 31.8281 5.8086 130
-1.9003999999999999 7.1328 -1.2938999999999998 228
-8.375 31.4375 0.37939999999999996 47
-2.1465 8.0547 -1.2646 170
-8.3594 31.3594 1.1318000000000001 12
-2.4531 9.2031 -1.2197 252
-8.2812 31.0781 1.8681999999999999 168
-2.9004000000000003 10.8828 -1.1797 118
-8.4297 31.6406 2.6719 128
-3.5176 13.2031 -1.1123 176
-8.0547 30.2188 3.2812 222
-4.4258 16.6094 -0.998 149
-8.5078 31.9219 4.2461 131
-6.578099999999999 24.6875 -0.8906000000000001 249
-7.8672 29.5312 4.6523 21
-7.6953 28.8906 -0.3486 243
-1.8769999999999998 7.1484000000000005 -1.2959 26
-2.1094 8.0312 -1.2598 4
-8.2578 31.4531 1.1338 42
-2.4219 9.2266 -1.2207 140
-8.1641 31.1094 1.8681999999999999 160
-2.8535000000000004 10.8672 -1.1758 45
-3.4726999999999997 13.226600000000001 -1.1133 241
-7.9414 30.25 3.2812 161
-4.3672 16.6406 -0.998 143
-7.5938 28.9219 -0.3489 175
-1.8447 7.1289 -1.291 240
-15.218800000000002 58.8125 0.7095 27
-2.0859 8.0547 -1.2627 180
-2.3828 9.2109 -1.2187999999999999 41
-8.0781 31.2188 1.874 244
-2.8202999999999996 10.898399999999999 -1.1787 110
-8.1719 31.5938 2.6620999999999997 122
-3.4219 13.226600000000001 -1.1123 126
-4.3008 16.625 -0.9965999999999999 231
-7.7890999999999995 30.0938 3.9922000000000004 58
-6.3438 24.5156 -0.8823000000000001 112
-7.7265999999999995 29.8594 4.6953 236
-1.8222999999999998 7.136699999999999 -1.291 253
-15.0156 58.7812 0.7084999999999999 56
-2.0566 8.0469 -1.2607 56
-2.3574 9.2266 -1.2197 132
-2.7832 10.8906 -1.1768 38
-3.375 13.210899999999999 -1.1104 92
-8.3047 32.5 3.5214999999999996 95
-4.25 16.6406 -0.9961 100
-7.730499999999999 30.2656 4.0117 39
-6.230499999999999 24.3906 -0.8774 217
-7.542999999999999 29.5312 4.6406 49
-1.7988 7.140599999999999 -1.291 131
-2.0273 8.0469 -1.2588 65
-2.3262 9.2344 -1.2197 4
-2.7363 10.8594 -1.1729 199
-7.9375 31.5 2.6504000000000003 17
-3.332 13.226600000000001 -1.1104 17
-4.1914 16.6406 -0.9961 34
-6.144500000000001 24.3906 -0.8765000000000001 133
-7.4648 29.6406 4.6523 109
-7.9062 31.3906 5.699199999999999 244
-1.7744 7.1523 -1.2919999999999998 104
-1.9941 8.0391 -1.2568000000000001 158
-14.531199999999998 58.5938 2.1055 24
-2.2949 9.25 -1.2207 4
-2.6952999999999996 10.8672 -1.1729 57
-14.5 58.4688 4.918 71
-3.2812 13.226600000000001 -1.1094 134
-4.1406 16.7031 -0.9984999999999999 120
-7.5312 30.3594 4.0195 113
-6.0312 24.3125 -0.873 19
-7.3515999999999995 29.6406 4.6523 97
-6.515599999999999 26.2656 4.7656 136
-1.7461000000000002 7.144500000000001 -1.29 135
-1.9658000000000002 8.0469 -1.2568000000000001 126
-14.3203 58.625 2.1055 95
-2.2559 9.2344 -1.2178 16
-2.6660000000000004 10.914100000000001 -1.1758 190
-14.289100000000001 58.4688 4.9141 70
-3.2285000000000004 13.210899999999999 -1.1074 133
-7.9648 32.5938 3.5214999999999996 178
-4.0781 16.6875 -0.9971 205
-8.1172 33.2188 4.3906 77
-5.921900000000001 24.2344 -0.8695999999999999 146
-7.140599999999999 29.2344 4.582 249
-6.421900000000001 26.2812 4.7617 229
-1.7216999999999998 7.1523 -1.29 159
-1.9385 8.0547 -1.2568000000000001 151
-14.101600000000001 58.5938 2.1035 245
-2.2227 9.2422 -1.2168 248
-2.627 10.9219 -1.1758 16
-14.093800000000002 58.5625 4.918 68
-3.1816000000000004 13.226600000000001 -1.1074 65
-7.886699999999999 32.7812 3.5370999999999997 147
-4.0156 16.6875 -0.9961 189
-8.1094 33.7188 4.4531 21
-5.8359000000000005 24.2656 -0.8695999999999999 147
-7.4648 31.0156 4.8594 255
-6.3125 26.2344 4.75 62
-1.6904 7.1328 -1.2852000000000001 230
-13.914100000000001 58.7188 0.7045999999999999 244
-1.9072 8.0469 -1.2549 158
-13.8906 58.625 2.1016 4
-2.1895 9.2344 -1.2158 117
-2.5898000000000003 10.9297 -1.1758 161
-7.519500000000001 31.7344 2.6601999999999997 138
-3.1406 13.25 -1.1084 44
-3.9531 16.6875 -0.9951000000000001 215
-7.8672 33.2188 4.3828 53
-5.730499999999999 24.1875 -0.8662000000000001 138
-7.2890999999999995 30.75 4.8125 178
-1.665 7.140599999999999 -1.2852000000000001 201
-13.6953 58.7188 0.7041 9
-1.876 8.0391 -1.2529000000000001 28
-13.6797 58.625 2.1016 106
-2.1543 9.2344 -1.2148 148
-13.6719 58.5938 3.498 55
-2.5449 10.914100000000001 -1.1729 220
-7.4297 31.8594 2.668 40
-3.0918 13.2578 -1.1084 79
-3.8964999999999996 16.7031 -0.9956 17
-7.5078 32.1875 4.2461 234
-5.644500000000001 24.2031 -0.8662000000000001 183
-1.6416 7.1523 -1.2861000000000002 89
-1.8466999999999998 8.0469 -1.252 22
-2.1211 9.2422 -1.2139 131
-13.4531 58.5938 3.4941000000000004 88
-2.5098 10.9297 -1.1738 126
-3.0351999999999997 13.226600000000001 -1.1045 142
-3.8339999999999996 16.7031 -0.9945999999999999 144
-7.390599999999999 32.1875 4.2422 93
-5.5352 24.1094 -0.8618000000000001 107
-1.6172 7.1602 -1.2871000000000001 237
-1.8203 8.0547 -1.2529000000000001 94
-2.0859 9.2344 -1.2129 66
-13.2344 58.5938 3.4922000000000004 11
-2.4668 10.9219 -1.1729 176
-2.9901999999999997 13.2344 -1.1045 66
-7.2109000000000005 31.9219 3.4355 123
-3.7714999999999996 16.7031 -0.9932 200
-11.1172 49.2188 6.484400000000001 72
-5.4414 24.0938 -0.8604 76
-6.9961 30.9688 4.8359 8
-1.5888999999999998 7.1484000000000005 -1.2841999999999998 135
-1.79 8.0547 -1.252 251
-2.0527 9.2344 -1.2109 59
-13.023399999999999 58.5938 3.4901999999999997 64
-2.4277 10.9297 -1.1719 148
-2.9512 13.273399999999999 -1.1074 155
-7.175800000000001 32.2812 3.4726999999999997 148
-3.7129000000000003 16.7031 -0.9932 14
-6.886699999999999 30.9844 4.0781 229
-5.332000000000001 24.0 -0.8564 170
-7.3828 33.2188 5.1836 52
-6.8398 30.7656 5.550800000000001 56
-1.5625 7.140599999999999 -1.2812000000000001 70
-1.7637 8.0625 -1.252 204
-2.0195 9.2266 -1.21 72
-12.8047 58.5312 3.4844 219
-2.3867 10.914100000000001 -1.1699 208
-2.9043 13.273399999999999 -1.1064 113
-3.6523000000000003 16.7031 -0.9917 169
-6.7773 30.9844 4.0742 32
-5.2539 24.0312 -0.8569 134
-6.7539 30.875 5.5664 181
-1.5391 7.1484000000000005 -1.2822 205
-1.7372999999999998 8.0703 -1.252 236
-1.9902000000000002 9.25 -1.2109 160
-12.601600000000001 58.5312 3.4824 175
-2.3574 10.9453 -1.1729 166
-2.8555 13.2578 -1.1045 221
-12.398399999999999 57.5625 6.1836 231
-3.6035000000000004 16.7344 -0.9932 116
-6.6836 31.0312 4.0781 110
-5.1602 23.9531 -0.8540000000000001 203
-6.703099999999999 31.1406 5.609400000000001 124
-1.5116999999999998 7.1523 -1.2812000000000001 126
-1.7069999999999999 8.0703 -1.252 32
-1.9569999999999999 9.25 -1.2109 81
-12.375 58.5312 3.4785000000000004 32
-2.3105 10.9219 -1.1689 41
-12.375 58.5312 4.8828 65
-2.8086 13.281199999999998 -1.1055 36
-3.5351999999999997 16.7188 -0.9912000000000001 104
-6.6172 31.2812 4.1094 37
-5.043 23.8594 -0.8495999999999999 192
-6.332000000000001 29.9375 4.6602 111
-6.546900000000001 30.9688 5.574199999999999 252
-1.4883000000000002 7.1640999999999995 -1.2822 142
-1.6777000000000002 8.0703 -1.251 136
-1.9219 9.25 -1.21 15
-12.164100000000001 58.5312 3.4766000000000004 100
-2.2754 10.9453 -1.1699 42
-2.752 13.2422 -1.1016 15
-3.4824 16.7656 -0.9932 34
-6.7461 32.4688 4.2578 34
-4.9531 23.8281 -0.8481000000000001 189
-6.2265999999999995 29.9688 4.6602 176
-8.2188 39.5625 -0.4717 202
-1.4619 7.1562 -1.2803 101
-1.6484 8.0703 -1.25 78
-11.898399999999999 58.2812 2.0762 166
-1.8838 9.2266 -1.2061 6
-11.9531 58.5312 3.4726999999999997 72
-2.2383 10.960899999999999 -1.1709 230
-2.7108999999999996 13.273399999999999 -1.1035 82
-10.3281 50.5938 5.421900000000001 5
-3.418 16.75 -0.9917 104
-6.3203 30.9531 4.0586 98
-4.8516 23.7656 -0.8452 251
-6.1211 29.9844 4.6602 218
-7.8477 38.4375 -0.4578 167
-1.4325999999999999 7.144500000000001 -1.2773 18
-1.6200999999999999 8.0781 -1.25 194
-1.8525 9.2422 -1.207 204
-7.953099999999999 39.6562 2.3516 233
-2.1934 10.9297 -1.167 210
-2.6601999999999997 13.2656 -1.1016 101
-3.3438 16.6719 -0.9868000000000001 134
-6.667999999999999 33.25 4.3555 67
-4.7539 23.7031 -0.8423 69
-6.359400000000001 31.7031 4.9258 252
-6.613300000000001 32.9688 5.925800000000001 222
-1.4102000000000001 7.1602 -1.2793 211
-1.5908000000000002 8.0781 -1.249 131
-1.8241999999999998 9.2656 -1.209 170
-7.8203 39.7188 2.3516 21
-2.1582 10.960899999999999 -1.1699 57
-2.6151999999999997 13.281199999999998 -1.1016 171
-3.2832 16.6719 -0.9858 144
-6.6914 33.9688 4.4492 235
-4.6641 23.6875 -0.8412999999999999 12
-5.9336 30.1406 4.6758 6
-6.9727 35.4062 -0.4211 208
-6.4922 32.9688 5.917999999999999 136
-1.3857 7.171900000000001 -1.2803 15
-1.5575999999999999 8.0625 -1.2451 122
-1.79 9.2656 -1.208 16
-11.3125 58.5312 3.4648000000000003 74
-2.1191 10.968800000000002 -1.1699 103
-2.5664 13.273399999999999 -1.1006 90
-3.2245999999999997 16.6875 -0.9858 139
-4.5781 23.6875 -0.8408 108
-5.9414 30.7344 4.7695 98
-6.8359000000000005 35.375 -0.4202 191
-5.890599999999999 30.4844 5.4648 230
-1.3603999999999998 7.171900000000001 -1.2793 117
-1.5341999999999998 8.0859 -1.249 214
-1.7578 9.2656 -1.208 233
-11.093800000000002 58.4688 3.4608999999999996 150
-2.0781 10.9531 -1.167 10
-2.5176 13.281199999999998 -1.1006 82
-9.7656 51.4688 5.5039 201
-3.1738 16.7344 -0.9883 255
-6.050800000000001 31.9062 4.1719 22
-4.5 23.7344 -0.8418000000000001 21
-6.7109000000000005 35.375 -0.4202 223
-5.7734000000000005 30.4375 5.457000000000001 91
-1.335 7.175800000000001 -1.2793 55
-1.5049000000000001 8.0859 -1.248 239
-1.7236000000000002 9.2656 -1.207 234
-10.8828 58.5 3.4589999999999996 179
-2.041 10.968800000000002 -1.168 31
-2.4688 13.273399999999999 -1.0986 214
-3.1055 16.6875 -0.9854 210
-4.4141 23.7188 -0.8408 173
-5.636699999999999 30.2969 4.6914 116
-5.6797 30.5312 5.4688 156
-1.3075999999999999 7.1562 -1.2754 177
-1.4775 8.0938 -1.248 63
-1.6953 9.2812 -1.208 214
-2.002 10.960899999999999 -1.166 223
-9.2266 50.5312 4.1914 54
-2.4258 13.281199999999998 -1.0986 247
-3.0488 16.7031 -0.9849 217
-5.761699999999999 31.5469 4.1172 242
-4.3047 23.5625 -0.8345 240
-5.609400000000001 30.7031 4.7539 49
-6.453099999999999 35.3438 -0.4192 22
-5.5547 30.4219 5.4453 45
-1.2841999999999998 7.1640999999999995 -1.2754 172
-1.4491999999999998 8.0859 -1.2461 58
-1.6611000000000002 9.2656 -1.2061 157
-1.9658000000000002 10.968800000000002 -1.167 227
-9.0312 50.4062 4.1797 2
-2.3789 13.281199999999998 -1.0986 144
-2.9961 16.7188 -0.9858 232
-5.582000000000001 31.1562 4.8203 209
-6.328099999999999 35.3125 -0.41869999999999996 204
-9.2188 51.4375 9.2109 23
-1.2617 7.1914 -1.2803 122
-1.416 8.0703 -1.2431999999999999 42
-1.6269999999999998 9.2734 -1.2061 126
-1.9258000000000002 10.976600000000001 -1.167 45
-2.332 13.289100000000001 -1.0986 63
-2.9316000000000004 16.7188 -0.9849 75
-8.5938 49.0 6.394500000000001 145
-5.4688 31.1719 4.8203 80
-6.199199999999999 35.3438 -0.41869999999999996 87
-9.1328 52.0625 9.3125 75
-1.2363 7.1953 -1.2803 218
-6.0664 35.3125 0.418 72
-1.3916 8.1016 -1.2461 107
-1.5937999999999999 9.2734 -1.2051 141
-1.8866999999999998 10.976600000000001 -1.166 134
-8.9297 51.9375 4.3008 217
-2.2793 13.2656 -1.0957 90
-2.875 16.7344 -0.9854 43
-4.0234 23.4219 -0.8276 23
-8.5625 49.8125 7.699199999999999 13
-4.5625 26.5625 -0.31420000000000003 0
-8.9297 51.9688 9.2891 220
-1.208 7.1797 -1.2764 179
-1.3652000000000002 8.1094 -1.248 166
-4.4492 26.4375 0.9346 196
-1.5575999999999999 9.2578 -1.2021 172
-9.0703 53.9062 3.1776999999999997 126
-1.8496000000000001 10.9922 -1.167 65
-8.7578 52.0625 4.3086 214
-2.2344 13.273399999999999 -1.0957 70
-2.8125 16.7188 -0.9839 94
-4.3828 26.0469 -0.3081 151
-8.7344 51.9062 9.2734 116
-1.1816 7.1797 -1.2754 59
-4.3203 26.25 0.31010000000000004 251
-1.335 8.1094 -1.2461 141
-4.3555 26.4531 0.9340999999999999 36
-1.5272999999999999 9.2734 -1.2041 85
-1.8096 10.9922 -1.166 3
-2.1855 13.273399999999999 -1.0947 105
-2.7558999999999996 16.7344 -0.9843999999999999 229
-3.8438 23.3438 -0.8242 91
-4.2969 26.0938 -0.30829999999999996 103
-8.5703 52.0625 9.2969 183
-1.1572 7.1836 -1.2754 89
-4.2148 26.1562 0.3091 74
-1.3056999999999999 8.1016 -1.2451 98
-1.4950999999999999 9.2812 -1.2041 37
-1.7686000000000002 10.976600000000001 -1.1641 23
-2.1406 13.2969 -1.0967 46
-2.6973000000000003 16.7344 -0.9839 69
-7.9765999999999995 49.5 6.4453 211
-3.7773000000000003 23.4531 -0.8276 91
-8.7266 54.1562 8.3594 102
-4.2109 26.1562 -0.30879999999999996 145
-8.3906 52.125 9.2969 99
-1.1338 7.199199999999999 -1.2783 202
-4.168 26.4688 0.3125 125
-1.2744 8.0938 -1.2431999999999999 122
-1.4628999999999999 9.2891 -1.2041 58
-1.7275 10.968800000000002 -1.1621 43
-2.0898 13.273399999999999 -1.0937999999999999 93
-2.6367000000000003 16.7344 -0.9834 30
-3.6875 23.4062 -0.8256999999999999 246
-8.5469 54.25 8.3672 190
-4.1641 26.4219 -0.312 25
-8.2109 52.125 9.2969 13
-1.1113 7.2188 -1.2803 135
-1.249 8.1172 -1.2451 94
-8.1797 53.125 1.876 5
-1.4306999999999999 9.2969 -1.2041 186
-8.1016 52.6562 3.0957 10
-1.6904 10.9844 -1.1641 218
-8.0703 52.4375 4.332 99
-2.043 13.2656 -1.0928 87
-8.0234 52.125 5.5390999999999995 19
-2.5801 16.7656 -0.9839 96
-8.0078 52.0312 6.765599999999999 41
-3.6055 23.4219 -0.8256999999999999 180
-4.0742 26.4531 -0.3123 232
-8.0234 52.1562 9.2969 208
-1.0859 7.2188 -1.2803 150
-1.2227 8.1328 -1.248 51
-7.980499999999999 53.0625 1.8721 112
-1.3955000000000002 9.2812 -1.2021 164
-7.9375 52.8125 3.1035000000000004 98
-1.6533000000000002 10.9922 -1.1641 211
-1.9980000000000002 13.289100000000001 -1.0937999999999999 249
-7.4102 49.2812 5.234400000000001 55
-2.5195 16.75 -0.9834 232
-7.7109000000000005 51.3125 6.667999999999999 11
-3.5233999999999996 23.4375 -0.8256999999999999 238
-7.2148 47.9688 7.394500000000001 221
-7.824199999999999 52.0312 9.2734 249
-1.0605 7.2188 -1.2793 133
-1.1963 8.1406 -1.248 139
-7.800800000000001 53.0625 1.8711000000000002 255
-1.3672 9.3047 -1.2041 142
-1.6133000000000002 10.9844 -1.1621 231
-7.636699999999999 51.9688 4.2891 75
-1.9541 13.2969 -1.0937999999999999 74
-2.4648 16.7656 -0.9839 27
-6.9140999999999995 47.0625 6.113300000000001 202
-3.4395 23.4062 -0.8242 121
-7.0625 48.0625 7.3984000000000005 5
-7.5312 51.25 9.125 251
-1.0381 7.230499999999999 -1.2803 81
-1.1689 8.1406 -1.2470999999999999 58
-1.335 9.3047 -1.2031 204
-1.5752000000000002 10.976600000000001 -1.1611 230
-1.9062000000000001 13.281199999999998 -1.0918 181
-7.859400000000001 54.75 5.8086 168
-2.4023 16.7344 -0.981 147
-6.7422 46.9688 6.0977 88
-3.3613 23.4219 -0.8242 112
-6.8789 47.9062 7.3711 159
-5.5078 38.375 -0.4524 79
-7.3672 51.3125 9.1328 106
-1.0146 7.25 -1.2832 84
-1.1367 8.1172 -1.2441 39
-1.3027000000000002 9.3047 -1.2031 55
-1.5371000000000001 10.976600000000001 -1.1611 137
-1.8584 13.273399999999999 -1.0908 207
-2.3438 16.7344 -0.9804999999999999 246
-6.578099999999999 46.9688 6.0977 52
-3.2637 23.3125 -0.8198000000000001 21
-6.7109000000000005 47.9375 7.375 26
-5.394500000000001 38.5312 -0.45409999999999995 150
-7.1953 51.4062 9.1406 34
-0.9926999999999999 7.265599999999999 -1.2861000000000002 249
-1.1143 8.1562 -1.249 147
-1.2715 9.3047 -1.2031 129
-1.501 10.9922 -1.1611 2
-1.8135 13.273399999999999 -1.0908 212
-2.293 16.7812 -0.9829000000000001 225
-6.4140999999999995 46.9375 6.0898 100
-3.1855 23.3281 -0.8203 91
-6.6211 48.4688 7.453099999999999 230
-5.292999999999999 38.7188 -0.45630000000000004 87
-7.136699999999999 52.25 9.2891 132
-0.9629000000000001 7.2461 -1.2812000000000001 78
-1.084 8.1562 -1.248 211
-1.2373 9.3125 -1.2021 47
-1.46 10.9844 -1.1602 200
-1.7637 13.273399999999999 -1.0898 83
-2.2227 16.7188 -0.9790000000000001 158
-6.2422 46.9688 6.0898 173
-3.1016000000000004 23.3281 -0.8203 104
-6.9688 52.4375 9.3203 93
-0.9365000000000001 7.238300000000001 -1.2793 56
-1.0556999999999999 8.1641 -1.249 191
-1.2061 9.3281 -1.2041 250
-1.4188999999999998 10.968800000000002 -1.1582 119
-1.7216999999999998 13.3047 -1.0928 146
-6.5859000000000005 50.9062 5.390599999999999 252
-2.166 16.75 -0.98 202
-3.0156 23.3125 -0.8193 19
-6.625 51.2188 9.1016 212
-0.9116 7.2578 -1.2822 188
-1.0215 8.1328 -1.2441 243
-1.1729 9.3359 -1.2051 115
-1.3809 10.9922 -1.1602 169
-1.6709 13.2969 -1.0908 129
-6.4023 50.9688 5.394500000000001 89
-2.1016 16.7344 -0.9784999999999999 58
-5.9609000000000005 47.4688 6.1484000000000005 246
-2.9238 23.2812 -0.8173999999999999 87
-6.4297 51.1875 9.0859 123
-0.8862000000000001 7.2578 -1.2822 190
-0.9945999999999999 8.1484 -1.2451 6
-1.1406 9.3438 -1.2051 79
-1.3397999999999999 10.976600000000001 -1.1582 16
-1.6230000000000002 13.2969 -1.0908 182
-6.605499999999999 54.125 5.7265999999999995 48
-2.0449 16.75 -0.9795 119
-5.8203 47.6875 6.175800000000001 216
-2.8379000000000003 23.25 -0.8164 141
-6.667999999999999 54.5938 8.3828 139
-6.2852 51.5 9.1406 50
-0.8628 7.269500000000001 -1.2832 204
-6.2265999999999995 52.4688 0.6167 136
-0.9712000000000001 8.1797 -1.25 76
-1.1084 9.3359 -1.2041 6
-1.3037 10.9844 -1.1582 42
-1.5762 13.273399999999999 -1.0879 91
-6.457000000000001 54.4062 5.7539 2
-1.9863 16.7344 -0.978 193
-5.734400000000001 48.3125 6.25 78
-2.7733999999999996 23.375 -0.8198000000000001 211
-5.8398 49.1875 7.546900000000001 67
-6.125 51.5938 9.1562 226
-0.8398 7.2812 -1.2852000000000001 147
-6.0547 52.4688 0.6167 86
-0.9423999999999999 8.1719 -1.2470999999999999 113
-1.0771 9.3359 -1.2041 233
-6.9102 59.9062 3.5058999999999996 19
-1.2686 10.9922 -1.1582 68
-1.5322 13.289100000000001 -1.0889 112
-6.269500000000001 54.3438 5.7461 237
-1.9258000000000002 16.6875 -0.9751000000000001 35
-5.5703 48.2812 6.2461 133
-2.6836 23.2656 -0.8159000000000001 10
-5.6562 49.0312 7.519500000000001 243
-5.949199999999999 51.5938 9.1484 160
-0.8101 7.269500000000001 -1.2822 3
-5.8477 52.4688 0.6162 201
-0.9120999999999999 8.1875 -1.249 157
-1.042 9.3438 -1.2041 235
-7.792999999999999 69.9375 4.0898 85
-1.2246 10.9922 -1.1582 93
-1.4813999999999998 13.2969 -1.0889 90
-6.050800000000001 54.2812 5.738300000000001 150
-1.8622999999999998 16.7031 -0.9756 89
-5.3711 48.1875 6.234400000000001 142
-2.5898000000000003 23.2344 -0.8149 5
-5.511699999999999 49.4375 7.578099999999999 55
-5.707000000000001 51.1875 9.0781 196
-0.7847 7.269500000000001 -1.2822 84
-5.6602 52.4375 0.6162 159
-0.8823000000000001 8.1719 -1.2470999999999999 124
-1.0117 9.375 -1.207 27
-7.5352 69.8125 4.082 207
-1.1865 10.9922 -1.1572 225
-1.4346 13.2969 -1.0889 16
-1.8037 16.7031 -0.9751000000000001 114
-2.5176 23.3281 -0.8173999999999999 203
-5.328099999999999 49.375 7.5664 138
-5.5352 51.2812 9.0859 204
-0.7606999999999999 7.2852 -1.2841999999999998 15
-5.480499999999999 52.4688 0.6162 216
-0.8521 8.1641 -1.2451 113
-0.9790000000000001 9.375 -1.207 202
-7.292999999999999 69.875 4.0859 5
-1.1484 11.0 -1.1582 63
-1.3866999999999998 13.281199999999998 -1.0869 206
-5.738300000000001 54.9688 5.8047 217
-1.7431999999999999 16.7031 -0.9741 110
-5.1172 49.0 6.332000000000001 33
-2.4258 23.2344 -0.8140000000000001 213
-5.1523 49.3438 7.5586 154
-5.394500000000001 51.6875 9.1562 155
-0.7368000000000001 7.3047 -1.2871000000000001 134
-5.2890999999999995 52.4375 0.6157 213
-0.8247 8.1797 -1.2470999999999999 212
-0.9458 9.375 -1.207 231
-7.042999999999999 69.8125 4.082 231
-1.1104 11.0078 -1.1582 213
-1.3408000000000002 13.289100000000001 -1.0869 67
-1.6836000000000002 16.6875 -0.9731000000000001 48
-4.9531 49.125 6.3438 54
-2.3398 23.2031 -0.8125 201
-4.9961 49.5312 7.582000000000001 126
-5.1797 51.3438 9.0938 186
-0.71 7.2812 -1.2822 99
-5.1172 52.4688 0.6157 138
-0.7983 8.1875 -1.2470999999999999 67
-0.9131 9.3594 -1.2041 170
-9.2344 94.6875 5.5352 18
-1.0771 11.0469 -1.1621 208
-1.2959 13.281199999999998 -1.0869 36
-5.7539 59.0 6.2265999999999995 17
-1.6288999999999998 16.7031 -0.9741 134
-4.7812 49.0312 6.332000000000001 103
-2.2637 23.2188 -0.813 253
-4.8438 49.6562 7.605499999999999 75
-5.0508 51.7812 9.1641 169
-0.6855 7.2773 -1.2822 228
-4.9414 52.4688 0.6152000000000001 119
-0.7709999999999999 8.1875 -1.2470999999999999 173
-0.8828 9.375 -1.2051 98
-1.0391 11.039100000000001 -1.1611 49
-1.2529000000000001 13.3047 -1.0879 101
-1.5741999999999998 16.7188 -0.9741 11
-4.6328 49.1875 6.3477 78
-2.1895 23.25 -0.8140000000000001 74
-0.6611 7.296900000000001 -1.2841999999999998 202
-4.7539 52.4688 0.6152000000000001 238
-0.7441 8.2109 -1.25 248
-0.8511 9.3906 -1.207 118
-1.002 11.0469 -1.1611 190
-1.2051 13.2969 -1.0869 42
-1.5107 16.6719 -0.9712000000000001 2
-4.4805 49.4375 6.3789 100
-2.1016 23.1875 -0.8115000000000001 220
-4.9375 54.4375 8.3281 221
-0.6377 7.3047 -1.2852000000000001 108
-0.7162999999999999 8.2031 -1.249 171
-0.8193 9.3828 -1.207 73
-0.9662999999999999 11.0625 -1.1631 113
-1.1602 13.281199999999998 -1.0859 199
-4.7148 54.0 5.6953 200
-1.4569999999999999 16.6875 -0.9717 226
-4.3125 49.4062 6.3711 39
-2.0273 23.2188 -0.812 26
-4.3672 50.0 7.644500000000001 64
-0.6089 7.300800000000001 -1.2841999999999998 212
-0.6836 8.1875 -1.2470999999999999 100
-0.7827 9.3828 -1.2051 8
-0.9258 11.093800000000002 -1.165 150
-1.1113 13.3125 -1.0879 43
-1.3944999999999999 16.7031 -0.9727 218
-1.9238 23.0625 -0.8062 249
-0.583 7.292999999999999 -1.2832 217
-0.6562 8.2109 -1.25 203
-0.7490000000000001 9.375 -1.2041 75
-0.8867 11.093800000000002 -1.165 147
-1.0645 13.3203 -1.0879 144
-1.335 16.7031 -0.9722 213
-1.8457 23.0938 -0.8070999999999999 124
-4.1094 51.4062 7.859400000000001 169
-0.5571 7.2890999999999995 -1.2812000000000001 212
-0.6279 8.2188 -1.25 2
-0.7162999999999999 9.375 -1.2041 70
-0.8472 11.085899999999999 -1.1641 36
-1.0186 13.3281 -1.0879 253
-1.2734 16.6719 -0.9702 156
-1.7637 23.0781 -0.8066 201
-3.9316000000000004 51.4688 7.863300000000001 147
-0.5312 7.2890999999999995 -1.2812000000000001 214
-5.2461 71.9375 0.8428 218
-0.5972 8.1875 -1.2451 242
-0.6851 9.3906 -1.2061 44
-0.8086 11.085899999999999 -1.1641 162
-0.9702 13.3047 -1.0859 53
-1.2168 16.6875 -0.9712000000000001 173
-1.6816 23.0625 -0.8057 93
-3.7577999999999996 51.5312 7.875 145
-0.5088 7.3086 -1.2841999999999998 254
-0.5708 8.2109 -1.248 73
-6.3984000000000005 91.9375 3.2168 52
-0.6533 9.3906 -1.2051 108
-0.772 11.093800000000002 -1.1641 246
-0.9258 13.3047 -1.0859 126
-1.1611 16.6875 -0.9712000000000001 21
-3.9668 57.0 7.3438 142
-1.6055000000000001 23.0781 -0.8057 180
-0.48340000000000005 7.296900000000001 -1.2822 211
-0.542 8.1875 -1.2441 253
-0.6235 9.4062 -1.208 98
-0.7358 11.1094 -1.166 153
-0.8837999999999999 13.343800000000002 -1.0889 181
-4.6562 70.25 7.394500000000001 114
-1.1064 16.7031 -0.9712000000000001 108
-1.5303 23.0938 -0.8066 75
-3.5664 53.8438 8.2188 223
-0.4575 7.2890999999999995 -1.2803 116
-0.5151 8.2109 -1.248 187
-0.5893999999999999 9.3906 -1.2051 148
-0.6973 11.1094 -1.166 92
-0.8369 13.335899999999999 -1.0879 148
-1.0469 16.6875 -0.9706999999999999 110
-1.4463 23.0469 -0.8047 170
-3.3691000000000004 53.6875 8.1953 0
-0.4346 7.3164 -1.2852000000000001 244
-0.4878 8.2109 -1.2470999999999999 9
-0.5586 9.4062 -1.207 189
-0.6592 11.093800000000002 -1.1641 27
-0.7935 13.351600000000001 -1.0889 2
-0.9912000000000001 16.6875 -0.9697 23
-3.3495999999999997 56.4062 7.261699999999999 18
-1.3700999999999999 23.0625 -0.8047 41
-3.2031 53.9375 8.2344 146
-0.4065 7.292999999999999 -1.2803 184
-0.4583 8.2188 -1.249 252
-0.5239 9.3984 -1.2061 148
-0.6191 11.1094 -1.165 31
-0.7451000000000001 13.3672 -1.0898 253
-0.9307 16.7031 -0.9706999999999999 145
-3.0176 54.1562 6.9727 121
-1.2822 23.0156 -0.8027 117
-3.0273000000000003 54.3438 8.2891 104
-0.3826 7.324199999999999 -1.2852000000000001 237
-0.4299 8.2344 -1.25 143
-0.4927 9.4297 -1.209 179
-0.5796 11.093800000000002 -1.1631 122
-0.6962999999999999 13.3281 -1.0869 16
-0.8726 16.7031 -0.9706999999999999 154
-2.8262 54.0938 6.9648 159
-1.2002 22.9844 -0.8018000000000001 1
-2.8379000000000003 54.3438 8.2891 239
-0.4011 8.2344 -1.25 204
-0.4587 9.4141 -1.207 162
-0.541 11.101600000000001 -1.1641 144
-0.6509 13.3594 -1.0889 58
-0.8154 16.7344 -0.9722 65
-2.627 53.9062 6.9375 17
-1.1211 23.0156 -0.8027 48
-0.37229999999999996 8.2266 -1.25 6
-0.4253 9.4062 -1.2051 176
-0.5024000000000001 11.101600000000001 -1.1641 190
-0.604 13.351600000000001 -1.0879 211
-0.7563 16.7188 -0.9712000000000001 84
-2.4395 53.9375 6.9375 85
-1.0371 22.9375 -0.7998000000000001 187
-0.3442 8.25 -1.252 41
-0.3926 9.4062 -1.2051 154
