# .PCD v0.7 - Point Cloud Data file format
VERSION 0.7
FIELDS x y z intensity
SIZE 4 4 4 4
TYPE F F F F
COUNT 1 1 1 1
WIDTH 1259
HEIGHT 1
VIEWPOINT 0 0 0 1 0 0 0
POINTS 1259
DATA ascii
2.0234 -2.3672 -0.395 252
2.2324 -2.6132999999999997 0.1973 70
2.0684 -2.4219 -0.3301 203
2.2676 -2.6562 0.2815 230
2.1934 -2.5683999999999996 -0.2722 118
2.1973 -2.5742000000000003 -0.1942 80
2.2227 -2.6016000000000004 -0.1177 131
2.207 -2.5839999999999996 -0.0388 148
2.6387 -3.1113 -0.7119 86
2.2109 -2.6074 0.0391 180
2.0137 -2.373 -0.46799999999999997 172
2.2227 -2.6211 0.1182 189
2.0215 -2.3848 -0.3967 251
2.2324 -2.6327999999999996 0.1981 104
2.0605 -2.4277 -0.3301 136
2.2598 -2.6641000000000004 0.2817 141
2.1934 -2.5858999999999996 -0.2732 49
2.1973 -2.5898000000000003 -0.1949 142
2.209 -2.6035000000000004 -0.1174 22
2.2031 -2.5976999999999997 -0.038900000000000004 180
2.6426 -3.1387 -0.7158 198
2.2109 -2.627 0.0392 232
2.0098 -2.3867 -0.4692 215
2.2148 -2.6289 0.1182 113
2.0215 -2.4004 -0.3982 130
2.2344 -2.6523000000000003 0.1991 62
2.0605 -2.4473 -0.3318 67
2.2695 -2.6952999999999996 0.2842 63
2.1836 -2.5938 -0.2732 116
2.2031 -2.6151999999999997 -0.1963 146
2.2109 -2.625 -0.11800000000000001 244
2.2188 -2.6348000000000003 -0.0394 43
2.627 -3.1406 -0.7148 127
2.2285 -2.6641000000000004 0.0397 165
2.0098 -2.4023 -0.47090000000000004 177
2.2246 -2.6601999999999997 0.1193 79
2.0215 -2.416 -0.3997 76
2.2441 -2.6836 0.20079999999999998 177
2.0625 -2.4668 -0.3333 178
2.2598 -2.7031 0.2839 245
2.1953 -2.625 -0.2759 12
2.3379 -2.7969 0.3787 65
2.2188 -2.6523000000000003 -0.1985 223
2.2188 -2.6523000000000003 -0.11900000000000001 183
2.2188 -2.6523000000000003 -0.039599999999999996 99
2.5898000000000003 -3.1211 -0.7075 143
2.2207 -2.6757999999999997 0.0398 52
2.0098 -2.4219 -0.47340000000000004 134
2.2168 -2.6719 0.11939999999999999 176
2.0156 -2.4258 -0.40009999999999996 237
2.2305 -2.6875 0.2004 250
2.0586 -2.4785 -0.33399999999999996 40
2.2539 -2.7148000000000003 0.2844 248
2.1973 -2.6464999999999996 -0.2771 148
2.3281 -2.8047000000000004 0.3787 61
2.207 -2.6582 -0.1984 250
2.2168 -2.6719 -0.11939999999999999 138
2.2031 -2.6523000000000003 -0.0394 151
2.5879000000000003 -3.1387 -0.71 229
2.209 -2.6797000000000004 0.0397 101
2.0156 -2.4434 -0.47659999999999997 206
2.209 -2.6797000000000004 0.11939999999999999 31
2.0137 -2.4434 -0.4019 142
2.2168 -2.6895 0.2002 127
2.0566 -2.4941 -0.33520000000000005 215
2.2539 -2.7324 0.28559999999999997 46
2.1953 -2.6620999999999997 -0.2781 60
2.293 -2.7832 0.37450000000000006 252
2.1855 -2.6523000000000003 -0.1973 42
2.2051 -2.6738 -0.1192 178
2.1914 -2.6582 -0.0394 246
2.5702999999999996 -3.1406 -0.7084999999999999 148
2.2031 -2.6933999999999996 0.0398 134
2.0078 -2.4551 -0.4771 175
2.2031 -2.6933999999999996 0.1197 189
2.0137 -2.4609 -0.4036 36
2.209 -2.6992000000000003 0.2002 76
2.0469 -2.502 -0.33520000000000005 75
2.2344 -2.7305 0.2844 1
2.1914 -2.6776999999999997 -0.2791 199
2.2734 -2.7773000000000003 0.3728 109
2.1836 -2.668 -0.1979 166
2.1973 -2.6855 -0.11939999999999999 72
2.1973 -2.6855 -0.0397 78
2.5683999999999996 -3.1601999999999997 -0.7104 200
2.1992 -2.7051 0.039900000000000005 168
2.0117 -2.4746 -0.4797 220
2.1973 -2.7031 0.1199 123
2.0215 -2.4883 -0.4067 116
2.2129 -2.7226999999999997 0.2014 239
2.0469 -2.5176 -0.33640000000000003 97
2.2188 -2.7305 0.2837 253
2.1836 -2.6875 -0.2791 96
2.2637 -2.7851999999999997 0.3726 204
2.1875 -2.6914 -0.1991 216
2.1953 -2.7012 -0.1198 190
2.2051 -2.7129000000000003 -0.04 4
2.5683999999999996 -3.1836 -0.7139 111
2.0117 -2.4941 -0.48219999999999996 97
2.1855 -2.7089999999999996 0.1197 103
2.0059 -2.4863 -0.40549999999999997 56
2.207 -2.7363 0.20190000000000002 23
2.0488 -2.541 -0.33840000000000003 63
2.2227 -2.7558999999999996 0.2854 188
2.1699 -2.6875 -0.2786 193
2.2461 -2.7851999999999997 0.3716 136
2.1836 -2.7051 -0.1996 41
2.1758 -2.6952999999999996 -0.039599999999999996 167
2.5527 -3.1855 -0.7123999999999999 178
2.1895 -2.7324 0.04 61
2.0586 -2.5683999999999996 -0.4954 195
2.1934 -2.7382999999999997 0.1207 137
2.0098 -2.5078 -0.408 179
2.2012 -2.748 0.2021 201
2.0449 -2.5527 -0.33909999999999996 195
2.2285 -2.7812 0.2874 132
2.168 -2.7051 -0.27949999999999997 118
2.2441 -2.8007999999999997 0.3726 31
2.1738 -2.7129000000000003 -0.1996 21
2.2715 -2.8358999999999996 0.4619 103
2.1855 -2.7285000000000004 -0.12029999999999999 62
2.1699 -2.7089999999999996 -0.0397 180
2.5293 -3.1797000000000004 -0.7090000000000001 196
2.1816 -2.7441000000000004 0.0401 73
2.084 -2.6191000000000004 -0.5039 79
2.1875 -2.75 0.1209 187
2.0137 -2.5312 -0.4106 252
2.1934 -2.7577999999999996 0.2024 241
2.043 -2.5683999999999996 -0.3403 26
2.2207 -2.793 0.2878 137
2.1621 -2.7188 -0.28 82
2.2266 -2.8007999999999997 0.3716 129
2.166 -2.7226999999999997 -0.1998 99
2.2578 -2.8379000000000003 0.46090000000000003 176
2.1855 -2.748 -0.1208 137
2.3359 -2.9375 0.5659000000000001 74
2.1699 -2.7285000000000004 -0.039900000000000005 198
2.5156 -3.1836 -0.708 68
2.1719 -2.752 0.0401 187
2.0762 -2.6308999999999996 -0.5044 91
2.1895 -2.7714999999999996 0.1215 194
2.0117 -2.5469 -0.4119 34
2.1895 -2.7733999999999996 0.2029 240
2.0371 -2.5781 -0.3408 37
2.2031 -2.7910000000000004 0.2869 194
2.1641 -2.7382999999999997 -0.2815 248
2.2207 -2.8105 0.3718 44
2.1641 -2.7401999999999997 -0.2004 244
2.2246 -2.8183999999999996 0.45630000000000004 189
2.1797 -2.7598000000000003 -0.121 222
2.2891 -2.8983999999999996 0.5566 69
2.166 -2.7441000000000004 -0.04 218
2.3359 -2.957 0.6567000000000001 100
2.5059 -3.1933999999999996 -0.7084999999999999 214
2.1738 -2.7714999999999996 0.0403 250
2.0664 -2.6327999999999996 -0.5039 78
2.1797 -2.7793 0.1215 2
2.0117 -2.5645 -0.4138 65
2.1934 -2.7969 0.2041 165
2.0352 -2.5938 -0.3418 235
2.1895 -2.7910000000000004 0.2861 26
2.1504 -2.7422000000000004 -0.281 81
2.207 -2.8145 0.3713 42
2.168 -2.7637 -0.20170000000000002 113
2.2227 -2.832 0.4575 5
2.1719 -2.7676 -0.121 109
2.2402 -2.8535000000000004 0.5468999999999999 213
2.166 -2.7617000000000003 -0.0401 39
2.2695 -2.8926 0.6411 47
2.4961 -3.2012 -0.7084999999999999 120
2.1777 -2.793 0.0405 152
2.0547 -2.6367000000000003 -0.5034000000000001 123
2.1738 -2.7891000000000004 0.1217 16
2.0098 -2.5801 -0.4153 59
2.1953 -2.8164 0.2051 229
2.0547 -2.6367000000000003 -0.3469 27
2.1523 -2.7617000000000003 -0.2822 161
2.1973 -2.8183999999999996 0.3711 27
2.1641 -2.7773000000000003 -0.2021 234
2.2148 -2.8438 0.4583 226
2.1699 -2.7851999999999997 -0.1215 21
2.25 -2.8887 0.5518 93
2.2559 -2.8945 0.6396000000000001 158
2.4668 -3.1895 -0.7036 244
2.0566 -2.6601999999999997 -0.5063 125
2.1699 -2.8066000000000004 0.12210000000000001 239
2.0039 -2.5918 -0.41600000000000004 202
2.1836 -2.8242000000000003 0.2051 127
2.0684 -2.6738 -0.3508 161
2.1836 -2.8223000000000003 0.2878 97
2.207 -2.8535000000000004 0.37450000000000006 188
2.1543 -2.7851999999999997 -0.2023 254
2.209 -2.8555 0.45899999999999996 20
2.1758 -2.8125 -0.12240000000000001 17
2.2227 -2.873 0.5474 79
2.1465 -2.7754000000000003 -0.0401 109
2.2324 -2.8867000000000003 0.6362 82
2.4414 -3.1797000000000004 -0.6997 245
2.166 -2.8202999999999996 0.0407 233
2.0586 -2.6797000000000004 -0.5088 102
2.1855 -2.8457 0.1235 59
2.0215 -2.6327999999999996 -0.4214 30
2.1895 -2.8516000000000004 0.2065 193
2.0469 -2.6641000000000004 -0.34840000000000004 93
2.1875 -2.8495999999999997 0.2898 24
2.1445 -2.793 -0.2839 246
2.1953 -2.8594 0.37450000000000006 169
2.1406 -2.7870999999999997 -0.2018 159
2.1973 -2.8613 0.4587 76
2.1602 -2.8125 -0.122 224
2.2148 -2.8848000000000003 0.5483 118
2.1504 -2.7988 -0.0404 162
2.2227 -2.8945 0.6362 222
2.4395 -3.1992000000000003 -0.7021 84
2.1445 -2.8125 0.0404 17
2.0527 -2.6933999999999996 -0.5097999999999999 136
2.1582 -2.8301 0.1225 28
2.0137 -2.6426 -0.4219 203
2.1582 -2.832 0.2045 137
2.0391 -2.6757999999999997 -0.3489 46
2.1641 -2.8379000000000003 0.2878 57
2.1309 -2.7969 -0.2834 39
2.1797 -2.8574 0.373 197
2.1309 -2.7969 -0.20190000000000002 142
2.1895 -2.873 0.4592 88
2.1465 -2.8145 -0.12179999999999999 233
2.2129 -2.9023000000000003 0.5498 109
2.1445 -2.8125 -0.0405 171
2.2227 -2.9141000000000004 0.6392 196
2.4023 -3.1738 -0.6943 8
2.1348 -2.8202999999999996 0.0405 9
2.043 -2.7012 -0.5097999999999999 208
2.1426 -2.8301 0.1222 44
2.0059 -2.6483999999999996 -0.4219 104
2.1465 -2.8379000000000003 0.2043 17
2.041 -2.6973000000000003 -0.35109999999999997 226
2.1484 -2.8379000000000003 0.2871 146
2.1191 -2.7988 -0.28300000000000003 180
2.1543 -2.8476999999999997 0.37060000000000004 197
2.125 -2.8066000000000004 -0.2021 236
2.127 -2.8105 -0.1213 76
2.2031 -2.9120999999999997 0.5503 132
2.1387 -2.8262 -0.0405 225
2.2207 -2.9336 0.6411 18
2.4531 -3.2637 -0.7123999999999999 197
2.125 -2.8281 0.0405 143
2.0527 -2.7324 -0.5146000000000001 71
2.125 -2.8281 0.12179999999999999 50
2.0 -2.6620999999999997 -0.4229 55
2.1406 -2.8476999999999997 0.2046 117
2.0488 -2.7266000000000004 -0.354 145
2.127 -2.832 0.28559999999999997 251
2.1035 -2.8007999999999997 -0.2825 51
2.1562 -2.8711 0.3728 198
2.1152 -2.8145 -0.2021 210
2.1836 -2.9062 0.4619 28
2.1211 -2.8242000000000003 -0.1215 214
2.1211 -2.8242000000000003 -0.0404 216
2.2109 -2.9433999999999996 0.6416 198
2.1133 -2.832 0.0404 85
2.0605 -2.7617000000000003 -0.519 250
2.1152 -2.8358999999999996 0.12179999999999999 55
2.0 -2.6816000000000004 -0.42479999999999996 79
2.125 -2.8495999999999997 0.2041 118
2.0527 -2.752 -0.35619999999999996 223
2.1074 -2.8262 0.2844 70
2.0957 -2.8105 -0.2827 253
2.127 -2.8516000000000004 0.36939999999999995 75
2.0977 -2.8125 -0.2014 8
2.1387 -2.8691000000000004 0.4548 70
2.1113 -2.8301 -0.1215 33
4.1016 -5.5 1.04 157
2.0938 -2.8066000000000004 -0.04 251
2.1055 -2.8438 0.0405 73
2.0762 -2.8047000000000004 -0.5254 18
2.1074 -2.8476999999999997 0.1219 111
1.9971 -2.6973000000000003 -0.4263 187
2.1094 -2.8495999999999997 0.2036 142
2.0703 -2.7969 -0.3613 64
2.0762 -2.8047000000000004 0.2812 87
2.0879 -2.8223000000000003 -0.28300000000000003 180
2.1113 -2.8516000000000004 0.36840000000000006 205
2.082 -2.8125 -0.2009 107
2.125 -2.8711 0.45409999999999995 21
2.1035 -2.8418 -0.1217 109
2.1367 -2.8867000000000003 0.541 222
2.0879 -2.8202999999999996 -0.0401 41
3.0957 -4.1797 0.9097 182
2.0879 -2.8418 0.0403 112
2.0801 -2.832 -0.5293 175
2.1016 -2.8613 0.1222 234
1.999 -2.7207 -0.42869999999999997 158
2.0996 -2.8574 0.2036 195
2.0977 -2.8555 -0.3677 24
2.0547 -2.7949 0.27949999999999997 48
2.0801 -2.832 -0.2834 134
2.1211 -2.8867000000000003 0.3718 182
2.0781 -2.8262 -0.2014 13
2.1172 -2.8808999999999996 0.4543 179
2.0898 -2.8438 -0.12140000000000001 21
2.0918 -2.8457 -0.0404 58
2.084 -2.8555 0.0404 174
2.0645 -2.8281 -0.5273 169
2.084 -2.8555 0.1216 61
2.0059 -2.75 -0.4324 119
2.0977 -2.875 0.2043 176
2.1387 -2.9297000000000004 -0.37670000000000003 13
2.0449 -2.8007999999999997 0.27949999999999997 172
2.0664 -2.832 -0.2827 171
2.1172 -2.9023000000000003 0.373 189
2.0723 -2.8398000000000003 -0.20190000000000002 170
2.1074 -2.8867000000000003 0.4543 177
2.0762 -2.8457 -0.12119999999999999 213
2.1152 -2.8983999999999996 0.5405 185
2.0859 -2.8574 -0.0405 156
2.0742 -2.8613 0.0404 4
2.0332 -2.8066000000000004 -0.522 191
2.0742 -2.8613 0.1216 155
2.002 -2.7637 -0.43329999999999996 7
2.0918 -2.8867000000000003 0.2048 90
2.1816 -3.0117000000000003 -0.3862 162
2.0488 -2.8262 -0.2815 150
2.1094 -2.9101999999999997 0.373 62
2.0586 -2.8398000000000003 -0.2014 148
2.0625 -2.8457 -0.1209 64
2.0625 -2.8476999999999997 -0.04019999999999999 152
0.5737 -0.7979 -0.1659 3
2.0605 -2.8651999999999997 0.0404 161
2.0078 -2.793 -0.5181 89
2.0645 -2.8711 0.1217 169
1.9931999999999999 -2.7714999999999996 -0.4336 7
2.0723 -2.8827999999999996 0.2039 231
2.084 -2.8964999999999996 -0.3704 44
2.0254 -2.8164 0.27949999999999997 100
2.043 -2.8398000000000003 -0.282 89
2.0449 -2.8438 -0.201 47
2.0586 -2.8632999999999997 -0.1213 33
2.0449 -2.8438 -0.0401 49
0.5322 -0.7456 -0.15410000000000001 211
2.0508 -2.873 0.0404 135
2.0039 -2.8086 -0.5195000000000001 24
2.0586 -2.8827999999999996 0.1219 114
2.0 -2.8007999999999997 -0.43729999999999997 91
2.0586 -2.8827999999999996 0.2034 72
2.0449 -2.8651999999999997 -0.3655 91
1.999 -2.8007999999999997 0.2773 53
2.0352 -2.8516000000000004 -0.2825 156
2.0312 -2.8457 -0.2007 154
2.0527 -2.875 -0.1215 168
2.0449 -2.8651999999999997 -0.0403 70
0.5684 -0.8018000000000001 -0.1659 255
2.0332 -2.8691000000000004 0.04019999999999999 192
1.9980000000000002 -2.8202999999999996 -0.5205 96
2.0508 -2.8926 0.122 36
2.0059 -2.8301 -0.4407 169
2.0469 -2.8906 0.2034 242
2.0293 -2.8632999999999997 -0.3643 246
1.9893 -2.8066000000000004 0.2773 83
2.0273 -2.8613 -0.2827 226
2.0215 -2.8535000000000004 -0.2007 71
2.0312 -2.8672000000000004 -0.1209 3
2.0391 -2.8789 -0.0403 46
0.5449 -0.7748999999999999 -0.1597 152
2.0293 -2.8848000000000003 0.0403 199
1.9893 -2.8281 -0.521 119
2.0352 -2.8945 0.12179999999999999 107
2.0098 -2.8574 -0.44380000000000003 127
2.043 -2.9043 0.2039 229
2.0156 -2.8672000000000004 -0.3638 14
2.0273 -2.8827999999999996 0.2842 204
2.0098 -2.8574 -0.2817 10
2.0137 -2.8632999999999997 -0.2009 115
2.0234 -2.877 -0.121 105
2.0273 -2.8827999999999996 -0.0403 108
0.5356000000000001 -0.7670999999999999 -0.1576 111
2.0176 -2.8906 0.0403 216
1.9941 -2.8574 -0.5249 175
2.0176 -2.8906 0.1213 121
2.0059 -2.873 -0.4451 61
2.0371 -2.918 0.2043 220
2.0078 -2.877 -0.3643 148
2.7851999999999997 -3.9882999999999997 0.3936 70
2.0 -2.8651999999999997 -0.2817 185
2.0059 -2.873 -0.20120000000000002 48
2.0117 -2.8808999999999996 -0.1209 90
2.0156 -2.8867000000000003 -0.0403 120
0.5059 -0.73 -0.1492 210
2.0078 -2.8983999999999996 0.0403 97
1.9980000000000002 -2.8827999999999996 -0.5283 155
2.0137 -2.9062 0.1217 206
2.0098 -2.9004000000000003 -0.4485 90
2.0234 -2.9219 0.2041 129
2.0059 -2.8945 -0.3655 243
1.9902000000000002 -2.873 -0.2817 97
1.9893 -2.8711 -0.2004 97
2.0098 -2.9004000000000003 -0.1215 13
1.9980000000000002 -2.8827999999999996 -0.0401 85
0.5166 -0.7515000000000001 -0.1534 125
2.0 -2.9082 0.0404 78
2.0039 -2.9141000000000004 -0.5327000000000001 239
2.0039 -2.9160000000000004 0.12179999999999999 150
2.0078 -2.9199 -0.45020000000000004 3
2.0059 -2.918 0.2034 85
1.9902000000000002 -2.8945 -0.36450000000000005 173
2.7558999999999996 -4.0078 0.3936 80
1.9824000000000002 -2.8827999999999996 -0.282 42
1.9805000000000001 -2.8808999999999996 -0.2007 27
1.9980000000000002 -2.9062 -0.1213 99
1.9931999999999999 -2.8983999999999996 -0.0403 49
0.5117 -0.75 -0.1527 229
1.9824000000000002 -2.9062 0.0403 203
1.9971 -2.9257999999999997 -0.5337 151
1.9941 -2.9219 0.12179999999999999 116
2.0469 -2.998 -0.46140000000000003 15
1.999 -2.9297000000000004 0.2036 169
1.9736000000000002 -2.8906 -0.36329999999999996 227
1.9746000000000001 -2.8926 -0.2825 56
1.9727000000000001 -2.8906 -0.2009 122
1.9785 -2.8983999999999996 -0.1208 166
1.9736000000000002 -2.8926 -0.04 122
0.5425 -0.8008 -0.1631 112
1.9775 -2.9199 0.0403 175
1.9980000000000002 -2.9492000000000003 -0.5366 221
1.9824000000000002 -2.9276999999999997 0.1217 255
2.8125 -4.1523 -0.6396000000000001 9
1.9931999999999999 -2.9433999999999996 0.2041 83
1.9628999999999999 -2.8983999999999996 -0.36329999999999996 190
1.96 -2.8926 -0.2817 44
1.9668 -2.9043 -0.2014 145
1.7891 -2.6406 0.4048 243
1.9658000000000002 -2.9023000000000003 -0.1206 170
1.9805000000000001 -2.9238 -0.0404 99
1.7988 -2.6562 0.5581 77
0.5590999999999999 -0.8320000000000001 -0.16940000000000002 120
1.9716999999999998 -2.9336 0.0404 155
2.0 -2.9745999999999997 -0.54 101
1.9678 -2.9276999999999997 0.12140000000000001 202
2.7461 -4.0859 -0.6279 55
1.9872999999999998 -2.957 0.2046 226
1.96 -2.9160000000000004 -0.36450000000000005 39
1.9453 -2.8926 -0.281 168
1.9569999999999999 -2.9120999999999997 -0.2014 65
1.7578 -2.6151999999999997 0.3997 104
1.96 -2.9160000000000004 -0.1209 43
1.7607 -2.6191000000000004 0.4746 76
1.9638999999999998 -2.9219 -0.0403 150
1.7616999999999998 -2.6211 0.5493 51
0.5259 -0.7881 -0.1597 213
1.96 -2.9355 0.0404 72
2.0059 -3.0039 -0.5444 203
1.96 -2.9355 0.1215 95
2.7245999999999997 -4.082 -0.626 46
1.9687999999999999 -2.9492000000000003 0.2036 65
1.9550999999999998 -2.9276999999999997 -0.3655 144
1.9413999999999998 -2.9082 -0.282 245
1.9443000000000001 -2.9120999999999997 -0.201 160
1.7461000000000002 -2.6151999999999997 0.39890000000000003 54
1.9531 -2.9257999999999997 -0.121 17
1.7529 -2.627 0.47490000000000004 146
1.9502000000000002 -2.9199 -0.04019999999999999 203
1.7471 -2.6151999999999997 0.5474 7
0.5083 -0.7666 -0.1548 36
1.9463 -2.9355 0.0403 95
2.0117 -3.0351999999999997 -0.5488000000000001 217
1.9521000000000002 -2.9452999999999996 0.1216 74
1.9512 -2.9433999999999996 -0.4487 244
1.959 -2.9551 0.2036 142
1.9385 -2.9238 -0.3643 180
1.9297 -2.9101999999999997 -0.2815 195
1.9306999999999999 -2.9120999999999997 -0.2006 154
1.7422 -2.6289 0.40009999999999996 95
1.9472999999999998 -2.9375 -0.1213 95
1.7402000000000002 -2.625 0.4739 207
1.9443000000000001 -2.9336 -0.0403 177
1.7313999999999998 -2.6113 0.5449 79
0.5142 -0.7817000000000001 -0.1576 207
1.9268 -2.9297000000000004 0.0401 249
2.6641000000000004 -4.0508 -0.7329000000000001 245
1.9491999999999998 -2.9648000000000003 0.12210000000000001 142
1.9209 -2.9199 -0.44409999999999994 166
1.9463 -2.9589999999999996 0.2034 212
1.9209 -2.9219 -0.363 34
1.9228999999999998 -2.9238 -0.2822 97
1.9219 -2.9219 -0.20079999999999998 70
1.7334 -2.6348000000000003 0.40009999999999996 160
1.9355000000000002 -2.9433999999999996 -0.12119999999999999 160
1.7393 -2.6445 0.47609999999999997 62
1.9336000000000002 -2.9414 -0.0403 113
1.7178 -2.6113 0.5439 248
0.4768 -0.7304999999999999 -0.1465 250
1.9346 -2.9648000000000003 0.0405 199
2.6855 -4.1133 -0.7426999999999999 134
1.9325999999999999 -2.9608999999999996 0.1217 252
1.916 -2.9355 -0.44530000000000003 93
1.9404 -2.9726999999999997 0.2039 238
1.9111000000000002 -2.9276999999999997 -0.363 134
1.9091999999999998 -2.9238 -0.2815 164
1.7783000000000002 -2.7245999999999997 0.33740000000000003 246
1.9141 -2.9336 -0.201 209
1.7080000000000002 -2.6172000000000004 0.39649999999999996 244
1.9188999999999998 -2.9414 -0.1208 170
1.7246000000000001 -2.6426 0.4746 165
1.7294999999999998 -2.6504000000000003 0.5508 203
0.5171 -0.7983 -0.1604 43
2.6895 -4.1523 -0.748 36
1.9131 -2.9551 0.1211 158
1.8965 -2.9276999999999997 -0.4434 32
1.9316 -2.9824 0.2041 117
1.9091999999999998 -2.9492000000000003 -0.36450000000000005 234
1.8916 -2.9219 -0.2805 180
1.7686000000000002 -2.7305 0.33740000000000003 10
1.9003999999999999 -2.9336 -0.2007 105
1.7178 -2.6523000000000003 0.40090000000000003 61
1.9043 -2.9414 -0.12050000000000001 180
1.7158000000000002 -2.6483999999999996 0.4746 208
1.9082 -2.9452999999999996 -0.0401 33
1.7227000000000001 -2.6601999999999997 0.5513 3
0.5059 -0.7870999999999999 -0.1576 118
1.9121000000000001 -2.9745999999999997 0.0404 215
2.6816000000000004 -4.1719 -0.75 138
1.9091999999999998 -2.9707 0.1215 170
1.8799000000000001 -2.9257999999999997 -0.44189999999999996 1
1.9169999999999998 -2.9824 0.2036 186
1.8994 -2.9551 -0.36450000000000005 242
1.8857 -2.9336 -0.2812 33
1.8896000000000002 -2.9395 -0.2006 143
1.709 -2.6582 0.40090000000000003 25
1.9053 -2.9648000000000003 -0.1213 214
1.8925999999999998 -2.9433999999999996 -0.04 121
2.6464999999999996 -4.1172 0.8554999999999999 27
1.8896000000000002 -2.9648000000000003 0.04019999999999999 33
2.6914 -4.2227 -0.7573000000000001 249
1.9003999999999999 -2.9805 0.1217 38
1.874 -2.9395 -0.4429 166
1.9022999999999999 -2.9824 0.20309999999999997 200
1.8866999999999998 -2.9589999999999996 -0.3643 190
1.9716999999999998 -3.0918 0.2959 149
1.875 -2.9414 -0.2812 180
1.8779 -2.9452999999999996 -0.2006 169
2.543 -3.9882999999999997 0.603 1
1.8965 -2.9745999999999997 -0.12140000000000001 161
2.6016000000000004 -4.082 0.7314 238
1.8809 -2.9492000000000003 -0.04 240
2.6172000000000004 -4.1055 0.8511 143
1.8809 -2.9726999999999997 0.0403 78
2.6582 -4.2031 -0.752 80
1.8925999999999998 -2.9922000000000004 0.12179999999999999 182
1.8672 -2.9512 -0.44380000000000003 181
1.8916 -2.9901999999999997 0.20309999999999997 174
1.8721 -2.9589999999999996 -0.36329999999999996 103
1.9609 -3.0995999999999997 0.2959 220
1.8691 -2.9551 -0.282 243
1.8643 -2.9452999999999996 -0.2002 32
2.5234 -3.9882999999999997 0.6015999999999999 15
1.8818000000000001 -2.9745999999999997 -0.1211 27
2.5879000000000003 -4.0898 0.7314 152
1.8730000000000002 -2.9608999999999996 -0.0401 179
2.6074 -4.1211 0.8525 249
1.8721 -2.9805 0.0403 215
2.6543 -4.2266 -0.7548999999999999 166
1.876 -2.9882999999999997 0.12140000000000001 20
1.8622999999999998 -2.9648000000000003 -0.4448 252
1.8857 -3.002 0.2036 54
1.8643 -2.9688 -0.3638 125
1.9502000000000002 -3.1055 0.2959 240
1.8544999999999998 -2.9531 -0.281 150
2.5215 -4.0156 0.4939 111
1.8594 -2.9608999999999996 -0.2007 56
2.4844 -3.9551 0.5952000000000001 136
1.8711000000000002 -2.9785000000000004 -0.121 99
2.5742000000000003 -4.0977 0.7314 107
1.8652000000000002 -2.9707 -0.0401 158
2.5879000000000003 -4.1211 0.8506 210
1.8633000000000002 -2.9882999999999997 0.0403 90
2.6426 -4.2383 -0.7554000000000001 99
1.8662 -2.9941000000000004 0.12140000000000001 106
1.8437999999999999 -2.957 -0.4429 44
1.8818000000000001 -3.0195 0.2043 160
1.8563999999999998 -2.9766000000000004 -0.3643 81
1.9404 -3.1132999999999997 0.2959 241
1.8408000000000002 -2.9531 -0.2805 94
1.8544999999999998 -2.9745999999999997 -0.20129999999999998 149
2.4824 -3.9805 0.5981000000000001 126
1.8633000000000002 -2.9882999999999997 -0.12119999999999999 143
2.502 -4.0117 0.7148 27
1.8525 -2.9707 -0.04 219
2.5702999999999996 -4.1211 0.8491 237
0.4919 -0.7959 -0.1576 74
1.8555000000000001 -3.0 0.0403 9
2.6289 -4.2539 -0.7559 180
1.8555000000000001 -3.0 0.12140000000000001 238
1.8311000000000002 -2.9608999999999996 -0.4424 13
1.8672 -3.0195 0.2039 51
1.8457 -2.9844 -0.3643 57
1.9121000000000001 -3.0918 0.2932 126
1.8369 -2.9707 -0.2815 71
2.4941 -4.0312 0.4939 187
1.8397999999999999 -2.9745999999999997 -0.20079999999999998 83
2.4805 -4.0117 0.6011 86
1.8584 -3.0058999999999996 -0.1216 79
2.5098 -4.0586 0.7212000000000001 104
1.8496000000000001 -2.9922000000000004 -0.0403 209
2.543 -4.1133 0.8452 110
0.4893 -0.7974 -0.1576 209
1.8418 -3.002 0.0403 27
2.6113 -4.2539 -0.7548999999999999 15
1.8516 -3.0176 0.12179999999999999 128
1.8271000000000002 -2.9766000000000004 -0.44380000000000003 138
1.8506 -3.0156 0.20309999999999997 58
1.8330000000000002 -2.9863 -0.3638 87
1.8925999999999998 -3.0858999999999996 0.292 228
1.8300999999999998 -2.9844 -0.2822 213
2.4551 -4.0 0.4888 96
1.8222999999999998 -2.9707 -0.20010000000000003 109
2.4355 -3.9688 0.5932999999999999 78
1.8525 -3.0195 -0.1219 77
2.5312 -4.125 0.7314 221
1.8252000000000002 -2.9745999999999997 -0.039900000000000005 120
2.5254 -4.1133 0.8438 203
0.4866 -0.7993000000000001 -0.1576 13
1.8271000000000002 -3.002 0.04019999999999999 183
2.625 -4.3125 -0.7631999999999999 241
1.8388999999999998 -3.0195 0.1217 236
1.8184 -2.9863 -0.4443 204
1.8397999999999999 -3.0214999999999996 0.20309999999999997 250
1.8154 -2.9824 -0.36229999999999996 198
1.8700999999999999 -3.0723000000000003 0.29 92
1.8193000000000001 -2.9882999999999997 -0.282 214
1.8154 -2.9824 -0.2004 135
2.418 -3.9726999999999997 0.5928 222
1.835 -3.0156 -0.1215 97
2.5273 -4.1523 0.7343999999999999 59
1.8193000000000001 -2.9901999999999997 -0.04 140
2.5078 -4.1211 0.8432999999999999 7
0.5205 -0.8613 -0.17 98
1.8154 -3.0058999999999996 0.04019999999999999 188
2.6757999999999997 -4.4297 -0.7827 37
1.8241999999999998 -3.0195 0.12140000000000001 88
1.8096 -2.9961 -0.4448 220
1.8330000000000002 -3.0351999999999997 0.2036 21
1.8066 -2.9922000000000004 -0.3628 115
1.8466999999999998 -3.0586 0.28809999999999997 40
1.8056999999999999 -2.9901999999999997 -0.2815 244
2.4199 -4.0078 0.4875 149
1.8056999999999999 -2.9882999999999997 -0.2004 117
2.4395 -4.0391 0.6015999999999999 64
1.8163999999999998 -3.0077999999999996 -0.1209 222
2.5059 -4.1484 0.7329000000000001 167
1.8241999999999998 -3.0195 -0.0403 20
2.4922 -4.1289 0.8428 50
0.48100000000000004 -0.8027 -0.1576 179
1.8115 -3.0233999999999996 0.0403 127
2.7422000000000004 -4.5781 -0.8070999999999999 172
1.8115 -3.0233999999999996 0.1213 9
1.7959 -2.9961 -0.44380000000000003 119
1.8271000000000002 -3.0488 0.2041 82
1.8037 -3.0098000000000003 -0.3643 9
1.8319999999999999 -3.0566000000000004 0.2874 242
1.7938999999999998 -2.9941000000000004 -0.2815 217
1.8027000000000002 -3.0098000000000003 -0.2014 14
2.459 -4.1016 0.6099 174
1.8125 -3.0254000000000003 -0.1213 63
2.4746 -4.1289 0.7275 60
1.8037 -3.0098000000000003 -0.0401 138
2.4668 -4.1172 0.8389 22
0.5044 -0.8481000000000001 -0.1666 116
1.8047 -3.0351999999999997 0.0404 180
2.7226999999999997 -4.582 -0.8062 249
1.8008000000000002 -3.0293 0.1213 60
1.7772999999999999 -2.9882999999999997 -0.44189999999999996 168
1.8144999999999998 -3.0507999999999997 0.2039 56
1.7949000000000002 -3.0195 -0.36450000000000005 235
1.8486000000000002 -3.1094 0.2917 184
1.7891 -3.0098000000000003 -0.2822 101
1.7861000000000002 -3.0058999999999996 -0.2007 156
2.4629 -4.1406 0.6143 208
1.8075999999999999 -3.0410000000000004 -0.12179999999999999 131
2.4531 -4.1289 0.7256 110
1.7881 -3.0077999999999996 -0.04 102
2.4473 -4.1172 0.8369 155
0.4753 -0.8057 -0.1576 161
1.7881 -3.0312 0.0403 110
2.7207 -4.6133 -0.8101 254
1.7949000000000002 -3.0410000000000004 0.1215 160
1.7734 -3.0058999999999996 -0.4434 89
1.7959 -3.043 0.2029 171
1.7832 -3.0214999999999996 -0.3643 7
1.8241999999999998 -3.0918 0.2896 216
1.7822 -3.0214999999999996 -0.28300000000000003 77
2.459 -4.168 0.5039 86
1.7725 -3.0039 -0.2002 250
2.4414 -4.1367 0.6123 95
1.7997999999999998 -3.0507999999999997 -0.1219 243
2.4531 -4.1562 0.7295 201
1.7841999999999998 -3.0254000000000003 -0.04019999999999999 236
2.4297 -4.1172 0.8354 127
1.7753999999999999 -3.0312 0.04019999999999999 34
2.7245999999999997 -4.6523 -0.8154 96
1.7930000000000001 -3.0625 0.12210000000000001 5
1.7646000000000002 -3.0137 -0.44380000000000003 121
1.79 -3.0566000000000004 0.2034 131
1.7646000000000002 -3.0137 -0.3625 248
1.8144999999999998 -3.0976999999999997 0.2896 33
1.7715 -3.0254000000000003 -0.2827 238
2.4648 -4.2109 0.5083 14
1.7666 -3.0176 -0.2007 207
2.416 -4.1289 0.6099 87
1.7852000000000001 -3.0488 -0.1216 183
2.4219 -4.1367 0.7245999999999999 146
1.7832 -3.0469 -0.0404 223
2.4102 -4.1133 0.8334999999999999 70
0.4697 -0.8090999999999999 -0.1576 239
1.7686000000000002 -3.0449 0.0403 1
2.4219 -4.1719 -0.7290000000000001 183
1.7734 -3.0547000000000004 0.1215 8
1.7616999999999998 -3.0351999999999997 -0.4458 9
1.7861000000000002 -3.0762 0.2043 18
1.7578 -3.0273000000000003 -0.36329999999999996 136
1.8018 -3.1035000000000004 0.2893 22
1.7588 -3.0293 -0.2825 239
2.4102 -4.1523 0.49979999999999997 193
1.7616999999999998 -3.0332 -0.2014 12
2.3809 -4.1016 0.6045 201
1.7705000000000002 -3.0488 -0.1213 122
2.4023 -4.1367 0.7227 8
1.7666 -3.043 -0.0403 132
2.3887 -4.1133 0.8315 161
0.467 -0.8105 -0.1576 46
1.7627000000000002 -3.0605 0.0404 141
2.4062 -4.1797 -0.7290000000000001 65
1.7646000000000002 -3.0645 0.1217 31
1.7431999999999999 -3.0273000000000003 -0.44380000000000003 167
1.7734 -3.0801 0.2041 166
1.7529 -3.043 -0.36450000000000005 209
1.7812000000000001 -3.0918 0.2878 39
1.7431999999999999 -3.0254000000000003 -0.2815 100
2.2578 -3.9219 0.47090000000000004 21
1.749 -3.0370999999999997 -0.20120000000000002 153
2.2734 -3.9492000000000003 0.5806 105
1.7656 -3.0664 -0.12179999999999999 181
2.375 -4.1211 0.7188 17
1.7549000000000001 -3.0469 -0.04019999999999999 246
2.2422 -3.8926 0.7847 137
0.48950000000000005 -0.8569 -0.1666 124
1.7529 -3.0683999999999996 0.0404 187
2.4023 -4.207 -0.7319 45
1.7519999999999998 -3.0664 0.1215 239
1.7285 -3.0254000000000003 -0.4429 146
1.7646000000000002 -3.0898000000000003 0.2043 218
1.7480000000000002 -3.0605 -0.366 20
1.7861000000000002 -3.125 0.2903 57
1.7344 -3.0351999999999997 -0.282 243
1.7363 -3.0391000000000004 -0.2009 135
2.2285 -3.9004000000000003 0.5722999999999999 145
1.7568000000000001 -3.0762 -0.1219 121
2.2324 -3.9082 0.6797 181
1.7372999999999998 -3.0410000000000004 -0.04 248
2.2148 -3.877 0.7798 104
0.4612 -0.8140000000000001 -0.1576 4
1.7363 -3.0645 0.0403 207
2.3809 -4.2031 -0.73 240
1.7471 -3.0839999999999996 0.1219 205
1.7216999999999998 -3.0370999999999997 -0.4436 166
1.75 -3.0879000000000003 0.2039 113
1.7334 -3.0586 -0.365 128
1.7772999999999999 -3.1348000000000003 0.2908 34
1.7266 -3.0469 -0.2825 67
1.7236000000000002 -3.0410000000000004 -0.2007 172
2.1973 -3.877 0.5674 73
1.7519999999999998 -3.0918 -0.1223 213
2.2051 -3.8926 0.6758 187
2.1914 -3.8672000000000004 0.7764 199
0.4893 -0.8706 -0.16870000000000002 231
1.7246000000000001 -3.0683999999999996 0.0403 104
2.3555 -4.1914 -0.7265999999999999 61
1.7383000000000002 -3.0918 0.12210000000000001 234
1.7147999999999999 -3.0507999999999997 -0.4446 144
1.7431999999999999 -3.1016000000000004 0.2043 140
1.7187999999999999 -3.0586 -0.3643 243
1.7646000000000002 -3.1406 0.2905 194
1.7138999999999998 -3.0488 -0.282 11
2.1992 -3.9141000000000004 0.4673 21
1.7168 -3.0547000000000004 -0.20120000000000002 217
2.1816 -3.8808999999999996 0.5669 8
1.7344 -3.0858999999999996 -0.12179999999999999 230
2.1895 -3.8926 0.6743000000000001 244
2.1836 -3.8848000000000003 0.7783 147
0.4805 -0.8618000000000001 -0.1666 75
1.7168 -3.0801 0.0403 178
2.3359 -4.1914 -0.7251000000000001 103
1.7236000000000002 -3.0918 0.12179999999999999 171
1.7069999999999999 -3.0605 -0.44530000000000003 187
1.7372999999999998 -3.1172000000000004 0.205 63
1.7119 -3.0702999999999996 -0.36469999999999997 94
1.7422 -3.125 0.28859999999999997 77
1.7069999999999999 -3.0625 -0.2827 228
2.1914 -3.9297000000000004 0.4683 170
1.7119 -3.0702999999999996 -0.20190000000000002 8
2.168 -3.8906 0.5674 161
1.7207 -3.0858999999999996 -0.1216 124
2.168 -3.8867000000000003 0.6724 173
1.7158000000000002 -3.0781 -0.0403 127
2.1719 -3.8964999999999996 0.7793000000000001 253
0.4868 -0.8809 -0.17 112
1.7080000000000002 -3.0918 0.0404 16
2.3184 -4.1953 -0.7245999999999999 32
1.709 -3.0918 0.1215 147
1.6972999999999998 -3.0702999999999996 -0.4458 122
1.7227000000000001 -3.1172000000000004 0.2046 200
1.7031 -3.082 -0.3655 72
1.7372999999999998 -3.1445 0.2898 95
1.7012 -3.0781 -0.2834 251
2.1602 -3.9101999999999997 0.4648 6
1.7012 -3.0781 -0.20190000000000002 37
2.1543 -3.8983999999999996 0.5674 61
1.7128999999999999 -3.0995999999999997 -0.1219 219
1.6991999999999998 -3.0742000000000003 -0.04019999999999999 239
2.1582 -3.9043 0.7793000000000001 167
0.46880000000000005 -0.855 -0.1646 241
1.7002000000000002 -3.1016000000000004 0.0405 204
2.3027 -4.1992 -0.7241 144
1.7031 -3.1074 0.1219 113
1.6806999999999999 -3.0664 -0.4443 133
1.7061000000000002 -3.1132999999999997 0.2039 115
1.6943000000000001 -3.0898000000000003 -0.366 251
1.7353999999999998 -3.1660000000000004 0.2913 241
1.6913999999999998 -3.0858999999999996 -0.2837 126
2.1426 -3.9082 0.4639 123
1.6846 -3.0723000000000003 -0.20120000000000002 224
2.1426 -3.9082 0.5679 117
1.7061000000000002 -3.1132999999999997 -0.1222 58
1.6924000000000001 -3.0879000000000003 -0.0403 244
2.1523 -3.9257999999999997 0.7822 5
2.0332 -3.7382999999999997 -0.7432 0
1.6865 -3.1016000000000004 0.0404 97
2.2852 -4.2031 -0.7231000000000001 232
1.6934 -3.1132999999999997 0.1219 17
1.6728999999999998 -3.0762 -0.4448 200
1.6943000000000001 -3.1151999999999997 0.2036 58
1.6797 -3.0898000000000003 -0.365 220
1.7227000000000001 -3.168 0.2908 8
1.6758000000000002 -3.082 -0.28300000000000003 106
2.1504 -3.9551 0.4685 109
1.6738 -3.0781 -0.20120000000000002 64
1.6963 -3.1191000000000004 -0.1222 178
2.1426 -3.9414 0.6777 48
1.6846 -3.0976999999999997 -0.0403 211
2.125 -3.9062 0.7768999999999999 23
1.9872999999999998 -3.6836 -0.7304999999999999 168
1.6719 -3.0995999999999997 0.0403 212
2.1602 -4.0039 -0.687 62
1.6865 -3.125 0.1223 14
1.6680000000000001 -3.0918 -0.44630000000000003 21
1.6836000000000002 -3.1211 0.2036 244
1.6699000000000002 -3.0957 -0.365 78
1.7050999999999998 -3.1601999999999997 0.2896 157
1.6709 -3.0957 -0.2837 106
1.666 -3.0879000000000003 -0.2014 104
2.1172 -3.9219 0.5679 54
1.6846 -3.123 -0.12210000000000001 34
2.1309 -3.9492000000000003 0.6777 193
2.1445 -3.9745999999999997 0.7890999999999999 216
1.9941 -3.7285000000000004 -0.7383 239
1.6631 -3.1094 0.0403 31
2.041 -3.8164 -0.6533 78
1.6747999999999998 -3.1327999999999996 0.1223 172
1.6572 -3.0976999999999997 -0.44630000000000003 250
1.6846 -3.1504000000000003 0.2051 72
1.6621000000000001 -3.1074 -0.366 210
1.6934 -3.1660000000000004 0.2896 135
1.6591999999999998 -3.1016000000000004 -0.2837 218
2.1152 -3.9551 0.4668 193
1.6582 -3.0995999999999997 -0.20190000000000002 105
2.1152 -3.9551 0.5713 252
1.6699000000000002 -3.1211 -0.12179999999999999 188
2.1211 -3.9668 0.6792 194
1.6621000000000001 -3.1074 -0.0403 93
2.1387 -3.998 0.792 84
1.9961000000000002 -3.7637 -0.7437 30
1.6591999999999998 -3.1289 0.0405 89
1.9628999999999999 -3.7012 -0.6323 24
1.6602000000000001 -3.1308999999999996 0.1219 145
1.6425999999999998 -3.0957 -0.44530000000000003 183
1.6728999999999998 -3.1543 0.2051 153
1.6533000000000002 -3.1172000000000004 -0.36619999999999997 197
1.6836000000000002 -3.1757999999999997 0.2898 192
1.6465 -3.1055 -0.2834 175
2.1074 -3.9726999999999997 0.46799999999999997 9
1.6475 -3.1055 -0.20190000000000002 17
2.1074 -3.9745999999999997 0.5732 195
1.6631 -3.1367000000000003 -0.1222 169
2.1152 -3.9882999999999997 0.6816 253
1.6494 -3.1094 -0.0403 197
2.1367 -4.0273 0.7964 87
1.9872999999999998 -3.7793 -0.7456 128
1.6522999999999999 -3.1426 0.0406 102
1.8838 -3.582 -0.6108 19
1.6533000000000002 -3.1445 0.1223 68
1.6299000000000001 -3.0995999999999997 -0.4448 55
1.6621000000000001 -3.1601999999999997 0.2051 16
1.6484 -3.1327999999999996 -0.3674 150
1.6768 -3.1875 0.2905 33
1.6387 -3.1151999999999997 -0.2839 181
2.1016 -3.998 0.4702 92
1.6366999999999998 -3.1113 -0.20190000000000002 132
2.1035 -4.0 0.5761999999999999 1
1.6553 -3.1464999999999996 -0.12240000000000001 182
2.1211 -4.0352 0.6884999999999999 91
2.1309 -4.0547 0.8003 86
1.9931999999999999 -3.8223000000000003 -0.7529 238
1.6347999999999998 -3.1348000000000003 0.0404 213
1.8681999999999999 -3.5839999999999996 -0.6099 165
1.6444999999999999 -3.1523000000000003 0.12240000000000001 189
1.624 -3.1151999999999997 -0.44630000000000003 236
1.6494 -3.1641000000000004 0.205 96
1.6318000000000001 -3.1289 -0.36619999999999997 45
1.6709 -3.2051 0.2915 125
1.6328 -3.1327999999999996 -0.2849 152
2.0996 -4.0273 0.4727 18
1.6211000000000002 -3.1094 -0.20129999999999998 80
2.0977 -4.0234 0.5781000000000001 234
1.6455000000000002 -3.1543 -0.12240000000000001 134
2.123 -4.0742 0.6938 62
1.6318000000000001 -3.1289 -0.0404 141
2.125 -4.0781 0.8031999999999999 101
1.8887 -3.6504000000000003 -0.7173 212
1.6221 -3.1348000000000003 0.0404 150
1.8447 -3.5664 -0.606 134
1.6377000000000002 -3.1660000000000004 0.12269999999999999 80
1.6162 -3.123 -0.447 198
1.6396000000000002 -3.1699 0.205 158
1.6191 -3.1308999999999996 -0.366 114
1.6513999999999998 -3.1914 0.2898 10
1.6211000000000002 -3.1348000000000003 -0.2844 248
2.0977 -4.0547 0.47509999999999997 191
1.6181999999999999 -3.1289 -0.2023 246
2.1016 -4.0625 0.5825 182
1.6347999999999998 -3.1601999999999997 -0.12240000000000001 60
2.123 -4.1055 0.6981999999999999 166
1.625 -3.1426 -0.0405 162
2.1328 -4.125 0.8109999999999999 174
1.8563999999999998 -3.6191000000000004 -0.71 45
1.6143 -3.1464999999999996 0.0404 68
1.8271000000000002 -3.5605 -0.6035 101
1.6211000000000002 -3.1601999999999997 0.1223 23
1.6074000000000002 -3.1327999999999996 -0.4475 121
1.6328 -3.1816000000000004 0.2053 15
1.6122999999999998 -3.1426 -0.3667 22
1.6366999999999998 -3.1914 0.2893 24
1.6074000000000002 -3.1348000000000003 -0.2839 240
2.125 -4.1445 0.4849 127
1.6074000000000002 -3.1327999999999996 -0.2023 163
2.1035 -4.0977 0.5869 160
1.6200999999999999 -3.1582 -0.1222 247
2.1191 -4.1328 0.7017 166
1.6211000000000002 -3.1601999999999997 -0.0406 2
2.1309 -4.1562 0.8159000000000001 43
1.8300999999999998 -3.6016000000000004 -0.7051000000000001 254
1.6063999999999998 -3.1601999999999997 0.0406 206
1.8135 -3.5683999999999996 -0.604 95
1.6055000000000001 -3.1601999999999997 0.1219 223
1.5918 -3.1308999999999996 -0.44630000000000003 4
1.6230000000000002 -3.1933999999999996 0.2057 245
1.6044999999999998 -3.1562 -0.3674 76
1.6309 -3.2089999999999996 0.2903 171
1.5928 -3.1348000000000003 -0.2834 146
2.1309 -4.1953 0.48969999999999997 94
1.6016 -3.1504000000000003 -0.2029 151
2.1094 -4.1523 0.5932999999999999 136
1.6122999999999998 -3.1719 -0.12240000000000001 152
1.8018 -3.5762 -0.6987000000000001 185
1.5986000000000002 -3.1738 0.0406 41
1.7969 -3.5664 -0.6025 213
1.5996000000000001 -3.1757999999999997 0.12240000000000001 73
1.5811000000000002 -3.1367000000000003 -0.44630000000000003 101
1.6084 -3.1914 0.2052 136
1.5928 -3.1620999999999997 -0.3674 205
1.6191 -3.2129000000000003 0.2903 86
1.584 -3.1445 -0.2839 181
2.1211 -4.207 0.4907 4
1.585 -3.1445 -0.2023 122
1.6025 -3.1816000000000004 -0.1226 160
2.7226999999999997 -5.4062 0.9165000000000001 34
1.5869 -3.1504000000000003 -0.0403 129
2.7207 -5.3984000000000005 1.0586 63
1.7803 -3.5645 -0.6953 227
1.5859 -3.1757999999999997 0.0406 7
1.7812000000000001 -3.5664 -0.6011 185
1.5928 -3.1875 0.12269999999999999 51
1.5732 -3.1504000000000003 -0.4475 187
1.5918 -3.1875 0.2046 82
1.5819999999999999 -3.168 -0.3674 46
1.6162 -3.2363 0.2917 39
1.5781 -3.1601999999999997 -0.2849 147
2.1211 -4.2461 0.49439999999999995 60
1.5722999999999998 -3.1464999999999996 -0.20199999999999999 47
2.6895 -5.3828 0.7686 204
1.5937999999999999 -3.1895 -0.12269999999999999 93
2.6952999999999996 -5.3984000000000005 0.9136 225
1.5800999999999998 -3.1641000000000004 -0.0404 76
2.6952999999999996 -5.394500000000001 1.0556999999999999 170
1.7568000000000001 -3.5488 -0.6904 72
1.5713 -3.1738 0.0405 91
1.7529 -3.5410000000000004 -0.5957 201
1.5830000000000002 -3.1973000000000003 0.12279999999999999 70
1.5654 -3.1620999999999997 -0.4485 82
1.584 -3.1992000000000003 0.2051 140
1.5693000000000001 -3.1699 -0.36719999999999997 186
1.5986000000000002 -3.2305 0.2908 3
1.5663999999999998 -3.1641000000000004 -0.2847 90
2.6933999999999996 -5.4375 0.6333 236
1.5663999999999998 -3.1641000000000004 -0.2026 209
2.6641000000000004 -5.3789 0.7666 147
1.5800999999999998 -3.1914 -0.1226 190
2.6719 -5.3984000000000005 0.9116 66
1.5684 -3.168 -0.0404 144
2.668 -5.390599999999999 1.0537 136
1.7480000000000002 -3.5605 -0.6919 18
1.5635 -3.1855 0.0406 172
1.7324000000000002 -3.5273000000000003 -0.5928 76
1.5693000000000001 -3.1952999999999996 0.1225 60
1.5566 -3.1719 -0.449 136
1.5791 -3.2148000000000003 0.2057 169
1.5586000000000002 -3.1738 -0.36719999999999997 241
1.585 -3.2285000000000004 0.29 78
1.5575999999999999 -3.1719 -0.2849 24
2.668 -5.4336 0.6313 219
1.5575999999999999 -3.1719 -0.2029 41
2.6387 -5.375 0.7646 55
1.5684 -3.1933999999999996 -0.12240000000000001 45
2.6445 -5.386699999999999 0.9087000000000001 64
1.5684 -3.1933999999999996 -0.0407 200
2.6523000000000003 -5.4023 1.0537 222
1.7275 -3.5488 -0.6884999999999999 86
1.5635 -3.2108999999999996 0.0409 140
1.7207 -3.5332 -0.5928 225
1.5566 -3.1973000000000003 0.12240000000000001 59
1.5497999999999998 -3.1836 -0.45 189
1.5713 -3.2285000000000004 0.20620000000000002 247
1.5537 -3.1895 -0.36840000000000006 122
1.5732 -3.2305 0.2898 5
1.5419999999999998 -3.1660000000000004 -0.2839 177
2.6406 -5.425800000000001 0.6294 191
1.5497999999999998 -3.1836 -0.2032 17
2.6191000000000004 -5.3789 0.7642 124
1.5596 -3.2031 -0.1226 121
2.625 -5.390599999999999 0.9077 253
1.5518 -3.1875 -0.0406 226
2.6289 -5.3984000000000005 1.0518 94
1.7061000000000002 -3.5370999999999997 -0.6851 227
1.5508000000000002 -3.2148000000000003 0.0408 46
1.709 -3.5449 -0.5932999999999999 204
1.5478999999999998 -3.2108999999999996 0.12269999999999999 253
1.54 -3.1952999999999996 -0.4507 57
1.5556999999999999 -3.2266000000000004 0.2057 141
1.5430000000000001 -3.1992000000000003 -0.3689 151
1.5693000000000001 -3.2558999999999996 0.2915 144
1.5312000000000001 -3.1757999999999997 -0.2844 210
2.6055 -5.4062 0.626 40
1.5361000000000002 -3.1875 -0.20309999999999997 30
2.5957 -5.3828 0.7631999999999999 61
1.5508000000000002 -3.2148000000000003 -0.1229 197
2.5957 -5.386699999999999 0.9053 106
1.5438999999999998 -3.2031 -0.0407 114
2.5995999999999997 -5.390599999999999 1.0479 185
1.6825999999999999 -3.5214999999999996 -0.6812 52
1.5332 -3.2089999999999996 0.0407 244
1.7012 -3.5605 -0.5952000000000001 41
1.5419999999999998 -3.2266000000000004 0.12300000000000001 61
1.5419999999999998 -3.2266000000000004 -0.4546 205
1.5438999999999998 -3.2324 0.2057 85
1.5332 -3.2089999999999996 -0.3691 240
1.5605000000000002 -3.2656 0.292 152
1.5244 -3.1914 -0.2852 56
2.5781 -5.3984000000000005 0.624 96
1.5215 -3.1855 -0.2026 224
2.5683999999999996 -5.375 0.7606999999999999 163
1.5430000000000001 -3.2285000000000004 -0.1232 136
2.5801 -5.3984000000000005 0.9057999999999999 134
1.5312000000000001 -3.2051 -0.0406 177
2.5702999999999996 -5.3789 1.0439 82
1.6719 -3.5273000000000003 -0.6812 189
1.5194999999999999 -3.207 0.0406 210
1.6825999999999999 -3.5526999999999997 -0.5928 179
1.5293 -3.2285000000000004 0.1229 105
1.5371000000000001 -3.2441000000000004 -0.45630000000000004 96
1.5332 -3.2363 0.2057 109
1.5146000000000002 -3.1973000000000003 -0.3674 9
1.5430000000000001 -3.2577999999999996 0.2908 70
1.5234 -3.2148000000000003 -0.2869 83
2.5625 -5.4102 0.6245 41
1.5127000000000002 -3.1933999999999996 -0.2029 24
2.543 -5.3672 0.7587999999999999 237
1.5283000000000002 -3.2266000000000004 -0.1229 18
2.5566 -5.3984000000000005 0.9043000000000001 162
2.5508 -5.3828 1.043 88
1.6631 -3.5410000000000004 -0.6820999999999999 45
1.5107 -3.2168 0.0406 71
1.665 -3.5449 -0.5908 225
1.5186000000000002 -3.2324 0.1229 22
1.5419999999999998 -3.2832 -0.4612 237
1.5303 -3.2577999999999996 0.20679999999999998 152
1.5116999999999998 -3.2188 -0.3691 41
1.5272999999999999 -3.252 0.2898 38
1.5116999999999998 -3.2188 -0.2869 27
2.5352 -5.394500000000001 0.6221 81
1.5088 -3.2108999999999996 -0.20370000000000002 52
2.5254 -5.375 0.7583 83
1.5156 -3.2266000000000004 -0.12269999999999999 193
2.5293 -5.386699999999999 0.9009 34
1.5068000000000001 -3.207 -0.0405 31
2.5312 -5.390599999999999 1.042 196
1.6503999999999999 -3.5469 -0.6820999999999999 109
1.5059 -3.2363 0.0408 224
1.6513999999999998 -3.5488 -0.5903 205
1.5019999999999998 -3.2285000000000004 0.1225 48
1.5341999999999998 -3.2969 -0.4622 81
1.5166 -3.2598000000000003 0.2065 224
1.5038999999999998 -3.2324 -0.3701 34
1.5253999999999999 -3.2793 0.2917 64
1.4980000000000002 -3.2188 -0.2864 102
2.5039 -5.3828 0.6196 174
1.4971 -3.2168 -0.20370000000000002 122
2.5039 -5.3828 0.7578 212
1.5029 -3.2305 -0.12269999999999999 64
2.5039 -5.3828 0.8989 13
1.4950999999999999 -3.2129000000000003 -0.0405 185
2.5098 -5.394500000000001 1.041 22
1.6328 -3.5410000000000004 -0.6801999999999999 52
1.5 -3.2539 0.040999999999999995 190
1.6366999999999998 -3.5488 -0.5893999999999999 209
1.4961000000000002 -3.2461 0.12300000000000001 4
1.5547 -3.373 -0.4722 200
1.5059 -3.2656 0.2065 210
1.4931999999999999 -3.2382999999999997 -0.3701 254
1.5156 -3.2870999999999997 0.292 12
1.4922 -3.2363 -0.2874 135
2.4922 -5.4062 0.6211 170
1.4872999999999998 -3.2266000000000004 -0.204 69
2.4824 -5.3828 0.7568 73
1.4950999999999999 -3.2441000000000004 -0.1229 148
2.4824 -5.386699999999999 0.8975 194
1.4844 -3.2207 -0.0406 217
2.4863 -5.394500000000001 1.04 63
1.6143 -3.5332 -0.6772 122
1.4794999999999998 -3.2401999999999997 0.0407 177
1.6279 -3.5645 -0.5908 139
1.4902000000000002 -3.2637 0.1235 226
1.5518 -3.3983999999999996 -0.47509999999999997 242
1.4922 -3.2676 0.20629999999999998 31
1.4824000000000002 -3.2461 -0.3704 156
1.5059 -3.2969 0.2922 106
1.4756 -3.2305 -0.2864 66
2.4551 -5.375 0.6167 130
1.4687999999999999 -3.2168 -0.203 128
2.457 -5.3789 0.7554000000000001 172
1.4872999999999998 -3.2558999999999996 -0.1232 189
2.4648 -5.394500000000001 0.8979 17
1.4766 -3.2324 -0.0406 45
2.4629 -5.394500000000001 1.0381 158
1.6035 -3.543 -0.6781999999999999 37
1.4687999999999999 -3.2441000000000004 0.0407 173
1.6181999999999999 -3.5762 -0.5918 96
1.4824000000000002 -3.2754000000000003 0.12380000000000001 191
1.5508000000000002 -3.4257999999999997 -0.4783 173
1.4844 -3.2793 0.20679999999999998 19
1.4647999999999999 -3.2363 -0.3689 140
1.4912 -3.2949 0.2917 8
1.4658000000000002 -3.2382999999999997 -0.2866 207
2.4434 -5.3984000000000005 0.6182 30
1.4647999999999999 -3.2363 -0.204 37
2.4277 -5.3672 0.752 46
1.4727000000000001 -3.2539 -0.1229 165
2.4414 -5.394500000000001 0.8965000000000001 200
1.4668 -3.2422000000000004 -0.0407 154
2.4414 -5.394500000000001 1.0371 40
1.5957 -3.5586 -0.6801999999999999 70
1.4628999999999999 -3.2637 0.0409 231
1.6063999999999998 -3.582 -0.5922999999999999 226
1.4658000000000002 -3.2695 0.1234 169
1.5693000000000001 -3.5 -0.488 86
1.4746000000000001 -3.2891000000000004 0.207 119
1.4609 -3.2577999999999996 -0.37060000000000004 115
1.4746000000000001 -3.2891000000000004 0.2908 109
1.4512 -3.2363 -0.2859 170
2.416 -5.386699999999999 0.6162 237
1.4609 -3.2598000000000003 -0.2051 247
2.4102 -5.375 0.7524 73
1.4569999999999999 -3.25 -0.1226 24
2.416 -5.386699999999999 0.8936 53
1.4658000000000002 -3.2676 -0.040999999999999995 117
2.4199 -5.3984000000000005 1.0361 104
1.5830000000000002 -3.5645 -0.6801999999999999 13
1.4512 -3.2656 0.0409 64
1.5977000000000001 -3.5957 -0.5932999999999999 33
1.4531 -3.2714999999999996 0.1232 84
1.5811000000000002 -3.5586 -0.4954 198
1.4658000000000002 -3.3007999999999997 0.20739999999999997 4
1.4531 -3.2714999999999996 -0.3716 219
1.4658000000000002 -3.2988 0.2913 251
1.4424000000000001 -3.248 -0.2866 169
2.3965 -5.394500000000001 0.6157 133
1.4502000000000002 -3.2637 -0.2051 255
2.3906 -5.3789 0.752 132
1.4482 -3.2598000000000003 -0.12279999999999999 11
2.3867 -5.375 0.8901 175
1.4453 -3.2539 -0.0407 181
2.3926 -5.386699999999999 1.0322 82
1.5722999999999998 -3.5723000000000003 -0.6812 158
1.4472999999999998 -3.2891000000000004 0.041100000000000005 1
1.5897999999999999 -3.6113 -0.5952000000000001 37
1.4453 -3.2832 0.1235 159
1.5762 -3.582 -0.498 110
1.4550999999999998 -3.3066000000000004 0.20739999999999997 102
1.4443000000000001 -3.2832 -0.37229999999999996 137
1.4638999999999998 -3.3262 0.2932 230
1.4453 -3.2851999999999997 -0.2893 196
2.373 -5.394500000000001 0.6147 118
1.4325999999999999 -3.2539 -0.20420000000000002 63
2.3711 -5.390599999999999 0.752 76
1.4453 -3.2851999999999997 -0.1235 171
2.3652 -5.375 0.8892 20
1.4316 -3.252 -0.0406 166
2.3652 -5.375 1.0283 151
1.5586000000000002 -3.5742000000000003 -0.6801999999999999 167
1.4306999999999999 -3.2832 0.040999999999999995 5
1.5791 -3.623 -0.5962 122
1.4355000000000002 -3.293 0.12369999999999999 168
1.5663999999999998 -3.5938 -0.4988 228
1.4385 -3.3007999999999997 0.20679999999999998 73
1.4306999999999999 -3.2812 -0.3716 214
1.4521000000000002 -3.332 0.2932 37
1.4297 -3.2793 -0.28859999999999997 58
2.377 -5.453099999999999 0.6206 74
1.4209 -3.2598000000000003 -0.20420000000000002 93
2.3418 -5.3711 0.748 26
1.4355000000000002 -3.293 -0.12369999999999999 198
2.3477 -5.386699999999999 0.8892 163
1.4219 -3.2637 -0.0407 234
2.3496 -5.390599999999999 1.0293 109
1.5497999999999998 -3.5898000000000003 -0.6820999999999999 172
1.416 -3.2812 0.0409 41
1.5644999999999998 -3.625 -0.5957 64
1.4277000000000002 -3.3066000000000004 0.124 148
1.5625 -3.6191000000000004 -0.5015 159
1.4336000000000002 -3.3202999999999996 0.2076 91
1.4180000000000001 -3.2851999999999997 -0.3716 95
1.4375 -3.3281 0.2925 239
1.4169999999999998 -3.2812 -0.2883 98
2.3516 -5.449199999999999 0.6191 162
1.4121000000000001 -3.2714999999999996 -0.2047 60
2.3164 -5.3672 0.7461 143
1.4209 -3.2910000000000004 -0.1234 2
2.3281 -5.394500000000001 0.8892 199
1.4180000000000001 -3.2851999999999997 -0.0409 111
2.3223 -5.3789 1.0254 51
1.5449000000000002 -3.6132999999999997 -0.6855 79
1.4111000000000002 -3.3007999999999997 0.041100000000000005 103
1.5615 -3.6523000000000003 -0.5991 63
