# .PCD v0.7 - Point Cloud Data file format
VERSION 0.7
FIELDS x y z intensity
SIZE 4 4 4 4
TYPE F F F F
COUNT 1 1 1 1
WIDTH 1246
HEIGHT 1
VIEWPOINT 0 0 0 1 0 0 0
POINTS 1246
DATA ascii
-12.8594 -9.9766 0.5664 77
-3.9336 -3.0526999999999997 -0.6347999999999999 231
-12.8594 -9.9844 0.9443 48
-7.265599999999999 -5.640599999999999 -0.9623999999999999 101
-12.75 -9.8984 1.3144999999999998 89
-7.9023 -6.1328 -0.8134999999999999 145
-12.6875 -9.8438 1.6836000000000002 81
-12.7344 -9.8828 -0.9351 99
-12.7422 -9.8906 2.0684 94
-12.8047 -9.9453 -0.5645 45
-11.5547 -8.9688 2.2227 233
-12.8281 -9.9609 -0.18899999999999997 150
-11.148399999999999 -8.6562 2.4805 89
-12.875 -9.9219 0.1892 232
-12.8828 -9.9297 0.5664 124
-3.9629000000000003 -3.0547000000000004 -0.6382 238
-12.9297 -9.9688 0.9473 13
-7.3125 -5.636699999999999 -0.9658 190
-12.7578 -9.8281 1.3115 166
-12.7578 -9.8281 -1.3115 194
-12.664100000000001 -9.7656 1.6758000000000002 175
-12.7344 -9.8125 -0.9326000000000001 16
-12.7344 -9.8125 2.0625 25
-12.898399999999999 -9.9375 -0.5669 179
-11.6953 -9.0156 2.2461 88
-12.8906 -9.9375 -0.1895 245
-13.0078 -10.0234 2.8867000000000003 29
-12.8906 -9.8672 0.18899999999999997 107
-13.0156 -9.9609 0.5703 38
-4.0039 -3.0645 -0.6431 157
-13.023399999999999 -9.9688 0.9517 157
-7.363300000000001 -5.6328 -0.9697 14
-12.7656 -9.7656 1.3096 111
-12.7578 -9.7578 -1.3086000000000002 119
-12.6406 -9.6719 1.6688999999999998 206
-12.726600000000001 -9.7344 -0.9297 132
-12.7422 -9.75 2.0586 58
-12.906199999999998 -9.875 -0.5654 160
-12.8281 -9.8203 2.457 154
-13.031199999999998 -9.9688 -0.191 166
-12.9844 -9.9375 2.875 187
-12.898399999999999 -9.7969 0.1885 13
-13.0469 -9.9141 0.5703 179
-4.0586 -3.0839999999999996 -0.6504000000000001 246
-13.0469 -9.9062 0.9506999999999999 236
-7.4102 -5.6289 -0.9736 213
-12.7578 -9.6875 1.3047 219
-12.7656 -9.6953 -1.3056999999999999 50
-12.648399999999999 -9.6094 1.6641 19
-12.718800000000002 -9.6641 -0.9268000000000001 89
-12.7344 -9.6719 2.0508 48
-13.031199999999998 -9.8984 -0.5693 125
-12.7969 -9.7188 2.4434 118
-12.9844 -9.8594 -0.1898 100
-11.1406 -8.4609 2.459 255
-12.8047 -9.6641 0.1868 110
-13.0703 -9.8672 0.5703 118
-4.0586 -3.0645 -0.6489 162
-13.0703 -9.8672 0.9501999999999999 39
-7.4688 -5.636699999999999 -0.9790000000000001 24
-12.7344 -9.6094 1.2997999999999998 178
-12.7656 -9.6328 -1.3027000000000002 81
-12.648399999999999 -9.5469 1.6611000000000002 76
-12.7344 -9.6094 -0.9253 218
-12.710899999999999 -9.5938 2.043 64
-13.0078 -9.8125 -0.5674 43
-10.7969 -8.1484 2.0547 247
-12.906199999999998 -9.7422 -0.1882 61
-11.2422 -8.4844 2.4766 130
-12.875 -9.6484 0.1873 139
-13.0625 -9.7891 0.5679 26
-4.1523 -3.1113 -0.6620999999999999 0
-13.0547 -9.7891 0.9468000000000001 132
-7.519500000000001 -5.636699999999999 -0.9834 197
-12.7344 -9.5469 1.2959 247
-12.75 -9.5547 -1.2978999999999998 10
-12.656199999999998 -9.4844 1.6582 195
-12.726600000000001 -9.5391 -0.9229 250
-12.718800000000002 -9.5312 2.0391 249
-13.0547 -9.7812 -0.5679 82
-12.7656 -9.5703 2.4258 180
-12.9922 -9.7344 -0.18899999999999997 64
-12.9922 -9.7344 2.8555 49
-12.851600000000001 -9.5547 0.1864 133
-13.0469 -9.7031 0.5659000000000001 83
-4.1055 -3.0526999999999997 -0.6528 241
-13.0547 -9.7109 0.9438 13
-7.5898 -5.640599999999999 -0.9893000000000001 20
-12.7422 -9.4766 1.2930000000000001 41
-12.7422 -9.4766 -1.2930000000000001 21
-12.6797 -9.4297 1.6562000000000001 238
-12.7344 -9.4688 -0.9209 228
-12.726600000000001 -9.4609 2.0352 1
-13.039100000000001 -9.6953 -0.5659000000000001 123
-12.7656 -9.4922 2.4199 24
-12.898399999999999 -9.5938 -0.18710000000000002 197
-12.9922 -9.6562 2.8476999999999997 151
-3.4062 -2.5137 -0.7387999999999999 85
-12.8828 -9.5078 0.1864 160
-13.0625 -9.6406 0.5654 124
-4.1836 -3.0879000000000003 -0.6636 129
-13.085899999999999 -9.6562 0.9434 13
-7.6562 -5.6523 -0.9956 189
-12.7344 -9.3984 1.2891 249
-12.7422 -9.4062 -1.29 34
-12.648399999999999 -9.3359 1.6475 67
-12.726600000000001 -9.3906 -0.9179999999999999 15
-12.7344 -9.3984 2.0312 255
-13.031199999999998 -9.6172 -0.564 224
-12.6875 -9.3672 2.3984 76
-13.031199999999998 -9.6172 -0.1885 236
-12.9844 -9.5859 2.8379000000000003 221
-12.875 -9.4297 0.1857 195
-13.0781 -9.5859 0.5645 194
-4.207 -3.0839999999999996 -0.6655 123
-13.0625 -9.5703 0.9395 240
-7.7265999999999995 -5.6602 -1.002 56
-12.7344 -9.3359 1.2861000000000002 14
-12.75 -9.3438 -1.2871000000000001 28
-12.648399999999999 -9.2656 1.6436000000000002 67
-12.726600000000001 -9.3203 -0.915 51
-12.718800000000002 -9.3203 2.0234 155
-13.0703 -9.5781 -0.564 4
-12.6172 -9.2422 2.3789 209
-12.7656 -9.3516 -0.18420000000000003 90
-12.9844 -9.5156 2.8301 1
-12.8828 -9.375 0.18539999999999998 120
-13.0547 -9.4922 0.562 201
-4.2227 -3.0702999999999996 -0.6659999999999999 72
-13.0547 -9.4922 0.9365000000000001 215
-12.726600000000001 -9.2578 1.2822 100
-12.7422 -9.2734 -1.2832 239
-12.6406 -9.1953 1.6387 202
-12.7344 -9.2656 -0.9136 17
-12.718800000000002 -9.25 2.0176 184
-13.023399999999999 -9.4766 -0.5605 132
-12.6172 -9.1797 2.373 51
-13.031199999999998 -9.4766 -0.18760000000000002 134
-12.9375 -9.4141 2.8145 207
-12.914100000000001 -9.3281 0.18539999999999998 164
-13.0547 -9.4219 0.5605 101
-4.2734 -3.0839999999999996 -0.6724 26
-13.0703 -9.4375 0.9351 43
-12.726600000000001 -9.1875 1.2783 23
-12.7422 -9.2031 -1.2803 82
-12.648399999999999 -9.1328 1.6347999999999998 156
-12.7344 -9.1953 -0.9111 195
-12.718800000000002 -9.1875 2.0137 92
-13.023399999999999 -9.4062 -0.5590999999999999 214
-12.6094 -9.1016 2.3652 112
-12.9531 -9.3516 -0.18600000000000003 6
-12.8047 -9.2422 2.7773000000000003 232
-12.9375 -9.2734 0.1852 22
-13.0547 -9.3516 0.5590999999999999 135
-4.3008 -3.0839999999999996 -0.6753 95
-13.0156 -9.3281 0.9292 29
-12.7422 -9.1328 1.2764 191
-12.7344 -9.125 -1.2764 45
-12.648399999999999 -9.0625 1.6309 174
-12.726600000000001 -9.125 -0.9087000000000001 28
-12.726600000000001 -9.1172 2.0078 236
-12.9453 -9.2734 -0.5542 156
-12.593800000000002 -9.0312 2.3574 191
-12.9922 -9.3125 -0.18600000000000003 121
-12.8047 -9.1719 2.7695 121
-12.8828 -9.1641 0.184 239
-12.8281 -9.125 0.5478999999999999 32
-12.8125 -9.1172 0.9120999999999999 60
-12.7344 -9.0625 1.2734 163
-12.726600000000001 -9.0547 -1.2725 33
-12.625 -8.9844 1.624 205
-12.726600000000001 -9.0547 -0.9057999999999999 129
-12.718800000000002 -9.0469 2.002 207
-12.914100000000001 -9.1875 -0.5518 38
-12.601600000000001 -8.9688 2.3516 52
-12.8047 -9.1094 -0.18289999999999998 221
-12.7969 -9.1016 2.7617000000000003 48
-12.8047 -9.0469 0.1825 243
-12.8203 -9.0547 0.5464 233
-12.8047 -9.0469 0.9097 91
-12.7344 -8.9922 1.2695 249
-12.7422 -9.0 -1.2705 83
-12.6094 -8.9062 1.6181999999999999 44
-12.726600000000001 -8.9844 -0.9037999999999999 179
-12.710899999999999 -8.9766 1.9961000000000002 137
-12.7969 -9.0391 -0.5454 4
-12.601600000000001 -8.8984 2.3457 183
-12.789100000000001 -9.0312 -0.1821 247
-12.8047 -9.0469 2.7577999999999996 231
-12.8203 -8.9844 0.1821 128
-12.8281 -8.9922 0.5454 14
-12.8047 -8.9766 0.9072 157
-12.718800000000002 -8.9141 1.2656 246
-12.75 -8.9375 -1.2686 94
-12.625 -8.8516 1.6162 10
-12.7344 -8.9219 -0.9018999999999999 16
-12.710899999999999 -8.9062 1.9902000000000002 100
-12.8125 -8.9844 -0.5449 119
-12.601600000000001 -8.8359 2.3398 10
-12.8047 -8.9766 -0.1819 68
-12.8828 -9.0312 2.7676 201
-12.835899999999999 -8.9297 0.182 139
-12.8281 -8.9219 0.5439 53
-12.851600000000001 -8.9453 0.9087000000000001 209
-12.710899999999999 -8.8438 1.2607 169
-12.7344 -8.8594 -1.2637 89
-12.656199999999998 -8.8047 1.6162 169
-12.726600000000001 -8.8594 -0.8994 181
-12.7031 -8.8359 1.9844 31
-12.789100000000001 -8.8984 -0.5425 126
-12.601600000000001 -8.7656 2.334 242
-12.8203 -8.9219 -0.1818 81
-13.0 -9.0469 2.7851999999999997 157
-12.8828 -8.8984 0.18230000000000002 238
-12.9375 -8.9375 0.5474 202
-13.0156 -8.9844 0.9175 61
-12.718800000000002 -8.7812 1.2588 236
-12.726600000000001 -8.7891 -1.2598 40
-12.6328 -8.7266 1.6094 170
-12.7422 -8.7969 -0.8984000000000001 144
-12.710899999999999 -8.7812 1.9813999999999998 25
-12.875 -8.8906 -0.5444 216
-12.601600000000001 -8.7031 2.3281 249
-12.8594 -8.8828 -0.1819 186
-13.0078 -8.9844 2.7793 96
-12.914100000000001 -8.8516 0.1821 38
-13.0156 -8.9219 0.5493 204
-6.2812 -4.3086 -0.9741 221
-13.031199999999998 -8.9297 0.9165000000000001 179
-12.7344 -8.7266 1.2568000000000001 24
-12.7422 -8.7344 -1.2578 88
-12.6172 -8.6484 1.6035 13
-12.718800000000002 -8.7188 -0.8945000000000001 164
-12.718800000000002 -8.7188 1.9785 129
-12.9219 -8.8594 -0.5454 170
-12.593800000000002 -8.6328 2.3203 128
-12.7344 -8.7266 -0.1796 85
-13.0 -8.9141 2.7714999999999996 18
-12.960899999999999 -8.8203 0.1825 195
-13.0156 -8.8594 0.5478999999999999 147
-6.2852 -4.2773 -0.9727 187
-13.0156 -8.8594 0.9136 238
-12.718800000000002 -8.6562 1.2529000000000001 200
-12.601600000000001 -8.5781 1.5977000000000001 94
-12.710899999999999 -8.6562 -0.8920999999999999 16
-12.7031 -8.6484 1.9707 58
-12.9297 -8.7969 -0.5444 27
-12.601600000000001 -8.5781 2.3184 242
-12.851600000000001 -8.7422 -0.1809 36
-12.9922 -8.8438 2.7637 225
-12.914100000000001 -8.7266 0.1814 187
-13.0078 -8.7891 0.5464 86
-6.2852 -4.2461 -0.9702 80
-13.0078 -8.7891 0.9106000000000001 183
-6.2890999999999995 -4.25 -0.7929999999999999 194
-12.7031 -8.5859 1.249 130
-12.6172 -8.5312 1.5966999999999998 139
-12.718800000000002 -8.5938 -0.8906000000000001 43
-12.6875 -8.5703 1.9638999999999998 142
-12.9219 -8.7344 -0.5429999999999999 37
-12.593800000000002 -8.5078 2.3105 209
-12.773399999999999 -8.6328 -0.1793 109
-13.0 -8.7891 2.7598000000000003 10
-12.835899999999999 -8.6016 0.17980000000000002 240
-13.0078 -8.7266 0.5454 229
-6.269500000000001 -4.2031 -0.9658 179
-13.023399999999999 -8.7344 0.9097 82
-12.710899999999999 -8.5234 1.2461 218
-12.6406 -8.4766 1.5947 211
-12.726600000000001 -8.5312 -0.8887 84
-12.6953 -8.5078 1.96 84
-12.8125 -8.5859 -0.5366 175
-12.593800000000002 -8.4453 2.3047 154
-12.906199999999998 -8.6562 -0.1808 120
-12.9922 -8.7109 2.75 234
-12.976600000000001 -8.6328 0.1814 170
-13.023399999999999 -8.6641 0.5444 121
-6.261699999999999 -4.1641 -0.9619 25
-13.023399999999999 -8.6719 0.9077 201
-6.3125 -4.1992 -0.7925 111
-12.718800000000002 -8.4609 1.2441 18
-6.4297 -4.2773 -0.627 112
-12.625 -8.3984 1.5888999999999998 73
-12.718800000000002 -8.4609 -0.8862000000000001 28
-12.6953 -8.4531 1.9561000000000002 204
-12.906199999999998 -8.5859 -0.5396 3
-12.585899999999999 -8.375 2.2988 247
-12.906199999999998 -8.5859 -0.1804 59
-12.9922 -8.6484 2.7441000000000004 242
-12.914100000000001 -8.5234 0.1801 71
-12.9922 -8.5781 0.542 137
-6.2539 -4.1328 -0.9590000000000001 78
-13.0156 -8.5938 0.9053 151
-6.296900000000001 -4.1562 -0.7886 60
-12.718800000000002 -8.3984 1.2412 28
-12.6328 -8.3438 1.5869 2
-12.710899999999999 -8.3906 -0.8833 238
-12.6797 -8.375 1.9491999999999998 198
-12.7422 -8.4141 -0.5312 81
-12.6172 -8.3281 2.2988 75
-12.851600000000001 -8.4844 -0.17920000000000003 95
-12.9844 -8.5781 2.7363 68
-12.960899999999999 -8.5 0.1804 43
-13.0156 -8.5312 0.5415 118
-6.2578 -4.1016 -0.9565 58
-13.0078 -8.5234 0.9018999999999999 89
-6.300800000000001 -4.1289 -0.7870999999999999 171
-12.718800000000002 -8.3359 1.2383 77
-12.6406 -8.2812 1.584 233
-6.3984000000000005 -4.1914 -0.4424 102
-12.664100000000001 -8.2969 1.9413999999999998 65
-12.8906 -8.4453 -0.5361 30
-12.656199999999998 -8.2969 2.3008 192
-12.914100000000001 -8.4609 -0.1797 109
-12.976600000000001 -8.5 2.7285000000000004 143
-12.835899999999999 -8.3516 0.1782 231
-12.914100000000001 -8.3984 0.5361 222
-6.2578 -4.0703 -0.9545999999999999 22
-13.0078 -8.4609 0.8998999999999999 254
-6.2734000000000005 -4.0781 -0.7817000000000001 210
-12.710899999999999 -8.2656 1.2344 135
-6.3398 -4.125 -0.6143 216
-12.648399999999999 -8.2266 1.5811000000000002 234
-6.4140999999999995 -4.1719 -0.4424 193
-12.648399999999999 -8.2266 1.9355000000000002 17
-12.7656 -8.3047 -0.5297999999999999 116
-12.6797 -8.25 2.3008 131
-12.8125 -8.3359 -0.1779 50
-12.968800000000002 -8.4375 2.7207 247
-12.9297 -8.3438 0.1791 167
-13.0 -8.3906 0.5386 225
-6.25 -4.0312 -0.9512 156
-13.0078 -8.3984 0.8979 223
-6.265599999999999 -4.043 -0.7793000000000001 200
-12.6953 -8.1953 1.2305 87
-6.3164 -4.0781 -0.6103999999999999 123
-12.664100000000001 -8.1797 1.5800999999999998 100
-6.4023 -4.1328 -0.4407 166
-12.6406 -8.1641 1.9306999999999999 255
-12.781199999999998 -8.25 -0.5293 212
-12.6875 -8.1875 2.2969 81
-12.9219 -8.3438 -0.179 193
-12.789100000000001 -8.2578 2.6776999999999997 6
-3.8398000000000003 -2.459 -0.7964 230
-12.9453 -8.2969 0.179 141
-12.9531 -8.2969 0.5356000000000001 14
-6.230499999999999 -3.9922000000000004 -0.9462999999999999 234
-13.0 -8.3281 0.8955 59
-6.2734000000000005 -4.0195 -0.7783 158
-12.718800000000002 -8.1484 1.2295 186
-6.3125 -4.043 -0.6089 223
-12.6797 -8.125 1.5781 178
-6.4062 -4.1016 -0.4399 171
-12.6406 -8.0938 1.9247999999999998 141
-6.546900000000001 -4.1914 -0.2695 105
-12.6719 -8.1172 2.2891 122
-12.7031 -8.1406 -0.17550000000000002 15
-12.6797 -8.125 2.6483999999999996 166
-3.8281 -2.4336 -0.7925 131
-12.9297 -8.2188 0.1782 177
-12.906199999999998 -8.2031 0.5322 226
-6.230499999999999 -3.9589999999999996 -0.9438 92
-12.781199999999998 -8.125 0.8784000000000001 195
-6.2773 -3.9901999999999997 -0.7773 239
-12.710899999999999 -8.0781 1.2266 184
-6.3203 -4.0156 -0.6079 45
-12.6797 -8.0625 1.5741999999999998 133
-6.3828 -4.0586 -0.4375 252
-12.6328 -8.0312 1.9209 120
-6.550800000000001 -4.1641 -0.2693 10
-12.6797 -8.0625 2.2852 233
-12.8594 -8.1719 -0.1772 40
-12.6875 -8.0625 2.6426 96
-3.8574 -2.4316 -0.7964 216
-12.7422 -8.0391 0.1753 164
-12.718800000000002 -8.0234 0.5234000000000001 173
-6.2227 -3.9257999999999997 -0.9409000000000001 255
-12.6953 -8.0078 0.8706 75
-6.261699999999999 -3.9512 -0.7739 15
-12.710899999999999 -8.0156 1.2236 99
-6.324199999999999 -3.9901999999999997 -0.6074 14
-12.718800000000002 -8.0234 1.5752000000000002 245
-6.3789 -4.0234 -0.436 140
-12.101600000000001 -7.6328 1.835 215
-6.5352 -4.1211 -0.2681 223
-12.1094 -7.636699999999999 2.1758 146
-12.6953 -8.0078 -0.1747 96
-12.085899999999999 -7.6211 2.5117 242
-12.7031 -7.949199999999999 0.1743 219
-12.710899999999999 -7.957000000000001 0.522 169
-6.2188 -3.8926 -0.9384999999999999 52
-12.7031 -7.949199999999999 0.8691 63
-6.2578 -3.9160000000000004 -0.7709999999999999 184
-12.6953 -7.9453 1.2197 40
-6.3164 -3.9531 -0.605 4
-12.148399999999999 -7.605499999999999 1.5019999999999998 104
-6.3789 -3.9941000000000004 -0.4353 157
-12.085899999999999 -7.5625 1.8281 115
-6.5234000000000005 -4.082 -0.2671 198
-12.1328 -7.5938 2.1758 158
-12.7031 -7.949199999999999 -0.1743 63
-12.5625 -7.863300000000001 2.6055 108
-12.726600000000001 -7.9062 0.1743 23
-12.7031 -7.890599999999999 0.5205 166
-6.2188 -3.8632999999999997 -0.9365000000000001 246
-12.7031 -7.890599999999999 0.8672 82
-6.2578 -3.8887 -0.7695000000000001 92
-12.4453 -7.730499999999999 1.1924 108
-6.3047 -3.918 -0.6025 132
-12.6719 -7.875 1.5635 196
-6.3789 -3.9629000000000003 -0.4343 215
-11.9375 -7.417999999999999 1.8027000000000002 167
-6.511699999999999 -4.0469 -0.2659 73
-12.6719 -7.8711 2.2676 222
-12.6953 -7.886699999999999 -0.17379999999999998 64
-12.6875 -7.8828 2.627 107
-12.726600000000001 -7.8477 0.174 25
-12.6875 -7.824199999999999 0.519 162
-6.203099999999999 -3.8262 -0.9320999999999999 233
-12.7031 -7.832000000000001 0.8656999999999999 21
-6.2539 -3.8574 -0.7681 108
-12.6875 -7.824199999999999 1.2139 59
-6.2890999999999995 -3.8789 -0.6001 42
-12.6719 -7.8125 1.5596 53
-6.3828 -3.9355 -0.4336 13
-11.9375 -7.363300000000001 1.7988 37
-6.511699999999999 -4.0156 -0.26539999999999997 136
-12.664100000000001 -7.8086 2.2617 4
-12.6953 -7.828099999999999 -0.17350000000000002 218
-12.6875 -7.824199999999999 2.6211 208
-12.7422 -7.792999999999999 0.17379999999999998 97
-12.6953 -7.765599999999999 0.5181 16
-6.199199999999999 -3.7910000000000004 -0.9292 8
-12.6953 -7.765599999999999 0.8633 133
-6.2578 -3.8281 -0.7666 107
-12.7031 -7.769500000000001 1.2129 7
-6.300800000000001 -3.8535000000000004 -0.5996 162
-12.6719 -7.7539 1.5566 108
-6.3711 -3.8964999999999996 -0.43189999999999995 124
-11.9453 -7.3047 1.7959 104
-6.511699999999999 -3.9824 -0.2646 172
-12.664100000000001 -7.7422 2.2559 28
-12.6797 -7.7539 -0.1729 63
-12.6406 -7.734400000000001 2.6055 100
-12.6953 -7.703099999999999 0.1727 181
-12.6953 -7.703099999999999 0.5166 105
-6.1953 -3.7598000000000003 -0.9268000000000001 219
-12.6953 -7.707000000000001 0.8613 8
-6.2422 -3.7870999999999997 -0.7626999999999999 154
-12.710899999999999 -7.7148 1.2109 235
-6.300800000000001 -3.8223000000000003 -0.5981000000000001 234
-12.601600000000001 -7.6484000000000005 1.5449000000000002 245
-11.9375 -7.2422 1.79 0
-6.5078 -3.9492000000000003 -0.2642 165
-12.585899999999999 -7.636699999999999 2.2383 137
-12.6719 -7.6875 -0.1724 143
-12.523399999999999 -7.6015999999999995 2.5762 251
-12.710899999999999 -7.6523 0.1726 106
-12.6953 -7.644500000000001 0.5156000000000001 193
-6.203099999999999 -3.7344 -0.9258 74
-12.6953 -7.640599999999999 0.8593999999999999 143
-6.230499999999999 -3.75 -0.7598 71
-12.593800000000002 -7.582000000000001 1.1973 102
-6.3047 -3.7949 -0.5972 25
-12.5625 -7.5664 1.5371000000000001 128
-11.9297 -7.1836 1.7861000000000002 5
-6.480499999999999 -3.9023000000000003 -0.2625 22
-12.648399999999999 -7.6172 2.2461 222
-12.6797 -7.636699999999999 -0.1722 240
-12.664100000000001 -7.625 2.5995999999999997 49
-12.710899999999999 -7.5938 0.1722 110
-6.4922 -3.8789 -1.1465 41
-12.6875 -7.578099999999999 0.5142 253
-6.203099999999999 -3.7051 -0.9243000000000001 9
-12.7031 -7.5859000000000005 0.8579000000000001 166
-6.238300000000001 -3.7266000000000004 -0.7593000000000001 178
-12.6719 -7.5703 1.2021 55
-6.2890999999999995 -3.7558999999999996 -0.5947 176
-12.6719 -7.5664 1.5469 5
-11.9375 -7.1289 1.7832 246
-6.4688 -3.8632999999999997 -0.2612 40
-12.1406 -7.2539 2.1504 158
-12.6875 -7.582000000000001 -0.172 164
-12.6406 -7.550800000000001 2.5898000000000003 154
-4.1523 -2.4609 -0.8438 83
-12.718800000000002 -7.5390999999999995 0.172 26
-6.480499999999999 -3.8398000000000003 -1.1416 199
-12.6797 -7.515599999999999 0.5127 142
-6.1914 -3.668 -0.9198999999999999 73
-12.7031 -7.5273 0.8564 40
-6.2422 -3.6992000000000003 -0.7583 64
-12.6797 -7.515599999999999 1.2002 64
-6.2890999999999995 -3.7266000000000004 -0.5938 174
-12.6875 -7.519500000000001 1.5449000000000002 18
-11.9297 -7.0703 1.7783000000000002 164
-6.4688 -3.832 -0.2607 241
-12.1172 -7.1836 2.1426 141
-12.6797 -7.515599999999999 -0.17149999999999999 1
-12.164100000000001 -7.2109000000000005 2.4863 125
-4.1758 -2.4551 -0.8467 228
-12.726600000000001 -7.480499999999999 0.1718 225
-6.480499999999999 -3.8086 -1.1396 178
-12.6875 -7.457000000000001 0.5122 54
-6.1836 -3.6367000000000003 -0.9175 202
-12.6875 -7.457000000000001 0.8534999999999999 44
-6.2461 -3.6719 -0.7568 7
-12.6797 -7.453099999999999 1.1973 240
-6.300800000000001 -3.7031 -0.5932999999999999 199
-12.6719 -7.4453 1.54 80
-11.9219 -7.0078 1.7734 56
-6.4648 -3.8007999999999997 -0.26030000000000003 23
-12.125 -7.125 2.1367 75
-12.6719 -7.449199999999999 -0.171 207
-12.148399999999999 -7.144500000000001 2.4785 124
-4.2188 -2.4609 -0.8534999999999999 170
-12.710899999999999 -7.417999999999999 0.17129999999999998 248
-12.6797 -7.3984000000000005 0.5107 64
-6.1914 -3.6132999999999997 -0.9165000000000001 129
-12.6797 -7.4023 0.8515999999999999 169
-6.234400000000001 -3.6387 -0.7544 5
-12.6953 -7.4102 1.1973 62
-6.300800000000001 -3.6776999999999997 -0.5922999999999999 127
-12.6875 -7.4023 1.5391 228
-11.9219 -6.9609000000000005 1.7705000000000002 27
-6.4609000000000005 -3.7714999999999996 -0.2595 142
-12.1172 -7.074199999999999 2.1328 86
-12.6719 -7.394500000000001 -0.1707 11
-12.1406 -7.0859000000000005 2.4707 81
-4.2617 -2.4688 -0.8613 246
-12.710899999999999 -7.363300000000001 0.1709 247
-12.6797 -7.3438 0.5097999999999999 106
-6.1914 -3.5858999999999996 -0.915 228
-12.6875 -7.3477 0.8506 180
-6.230499999999999 -3.6094 -0.752 89
-12.6875 -7.3477 1.1943000000000001 239
-6.296900000000001 -3.6483999999999996 -0.5908 44
-12.6719 -7.3398 1.5341999999999998 211
-11.9219 -6.9023 1.7666 1
-6.457000000000001 -3.7401999999999997 -0.2588 171
-12.1172 -7.015599999999999 2.1289 226
-12.664100000000001 -7.3359000000000005 -0.1703 224
-12.1406 -7.0312 2.4668 254
-4.293 -2.4648 -0.8652 156
-12.7031 -7.292999999999999 0.1704 113
-12.6797 -7.2773 0.5088 190
-6.1875 -3.5526999999999997 -0.9120999999999999 146
-12.6875 -7.2852 0.8486 143
-6.230499999999999 -3.5762 -0.7505 142
-12.6797 -7.2773 1.1904000000000001 175
-6.300800000000001 -3.6172000000000004 -0.5898 113
-12.3281 -7.078099999999999 1.4902000000000002 96
-11.9297 -6.8515999999999995 1.7646000000000002 78
-6.453099999999999 -3.7031 -0.2581 167
-12.125 -6.9609000000000005 2.125 240
-12.656199999999998 -7.265599999999999 -0.1698 89
-12.156199999999998 -6.9765999999999995 2.4648 86
-6.2148 -3.5391000000000004 -1.2539 219
-12.7031 -7.234400000000001 0.17 16
-12.6797 -7.2188 0.5078 98
-6.1875 -3.5233999999999996 -0.9102 130
-12.6875 -7.2227 0.8467 93
-6.238300000000001 -3.5526999999999997 -0.75 84
-12.6797 -7.2227 1.1885 107
-6.296900000000001 -3.5858999999999996 -0.5884 190
-12.2969 -7.0 1.4824000000000002 10
-11.9453 -6.800800000000001 1.7627000000000002 229
-6.4453 -3.6699 -0.25730000000000003 162
-12.101600000000001 -6.890599999999999 2.1172 33
-12.656199999999998 -7.207000000000001 -0.16940000000000002 162
-12.156199999999998 -6.925800000000001 2.459 120
-6.2109000000000005 -3.5077999999999996 -1.25 12
-12.7031 -7.175800000000001 0.1697 75
-6.3515999999999995 -3.5879000000000003 -1.1055 111
-12.6797 -7.1640999999999995 0.5068 179
-6.1914 -3.4961 -0.9092 219
-12.6797 -7.1602 0.8447 114
-6.238300000000001 -3.5233999999999996 -0.7484999999999999 106
-12.6797 -7.1602 1.1855 74
-6.300800000000001 -3.5586 -0.5874 224
-12.281199999999998 -6.9375 1.4775 163
-11.9219 -6.734400000000001 1.7559 58
-6.457000000000001 -3.6464999999999996 -0.2571 9
-12.093800000000002 -6.832000000000001 2.1113 155
-12.648399999999999 -7.144500000000001 -0.1689 17
-12.156199999999998 -6.863300000000001 2.4531 192
-6.1953 -3.4707 -1.2441 235
-12.7031 -7.1172 0.16940000000000002 92
-6.300800000000001 -3.5293 -1.0947 180
-12.6875 -7.105499999999999 0.5059 183
-6.1875 -3.4668 -0.9067000000000001 27
-12.6719 -7.0977 0.8423 20
-6.230499999999999 -3.4901999999999997 -0.7461 96
-12.6953 -7.109400000000001 1.1845999999999999 132
-6.296900000000001 -3.5293 -0.5859000000000001 172
-12.281199999999998 -6.8828 1.4756 222
-11.906199999999998 -6.671900000000001 1.75 154
-6.4414 -3.6094 -0.2561 177
-12.085899999999999 -6.7734000000000005 2.1074 170
-12.656199999999998 -7.0898 -0.16870000000000002 22
-12.1406 -6.800800000000001 2.4473 176
-6.1914 -3.4452999999999996 -1.2422 14
-12.6875 -7.0547 0.16879999999999998 54
-6.292999999999999 -3.5 -1.0918 185
-12.6875 -7.0547 0.5049 251
-6.1953 -3.4452999999999996 -0.9062 251
-12.6719 -7.046900000000001 0.8408 164
-6.2109000000000005 -3.4551 -0.7426999999999999 192
-12.6719 -7.046900000000001 1.1806999999999999 240
-6.3047 -3.5077999999999996 -0.5859000000000001 36
-12.281199999999998 -6.828099999999999 1.4716999999999998 139
-11.898399999999999 -6.6172 1.7450999999999999 195
-6.4336 -3.5781 -0.2554 149
-12.101600000000001 -6.730499999999999 2.1055 62
-12.656199999999998 -7.0390999999999995 -0.1685 117
-12.1328 -6.75 2.4414 250
-12.6875 -7.0039 0.1686 156
-6.175800000000001 -3.4082 -1.0693000000000001 99
-12.6719 -6.9922 0.5034000000000001 53
-6.1953 -3.4199 -0.9048 207
-12.6719 -6.9922 0.8393999999999999 149
-6.2227 -3.4336 -0.7422 14
-12.6328 -6.9727 1.1748 213
-6.2890999999999995 -3.4707 -0.583 235
-12.2969 -6.7852 1.4707 226
-11.898399999999999 -6.5664 1.7422 170
-6.4336 -3.5507999999999997 -0.25489999999999996 147
-12.0781 -6.667999999999999 2.0977 244
-12.656199999999998 -6.984400000000001 -0.1681 236
-12.1328 -6.6953 2.4355 239
-6.207000000000001 -3.3964999999999996 -1.2402 214
-12.6953 -6.9453 0.16829999999999998 129
-6.1797 -3.3789 -1.0674 87
-12.6719 -6.9297 0.5024000000000001 68
-6.1875 -3.3848000000000003 -0.9018999999999999 136
-12.6797 -6.9375 0.8384 121
-6.2227 -3.4043 -0.7406999999999999 52
-12.5078 -6.8438 1.1611 80
-6.2852 -3.4375 -0.5815 153
-12.2969 -6.7265999999999995 1.4678 70
-11.906199999999998 -6.511699999999999 1.7402000000000002 32
-6.453099999999999 -3.5293 -0.2551 187
-12.0781 -6.605499999999999 2.0918 76
-12.648399999999999 -6.917999999999999 -0.1677 145
-12.148399999999999 -6.644500000000001 2.4336 245
-6.203099999999999 -3.3651999999999997 -1.2373 91
-12.6953 -6.886699999999999 0.168 145
-6.1797 -3.3516000000000004 -1.0654000000000001 157
-12.648399999999999 -6.863300000000001 0.5005 13
-6.1914 -3.3574 -0.9004000000000001 65
-12.625 -6.8515999999999995 0.833 150
-6.234400000000001 -3.3808999999999996 -0.7406999999999999 109
-12.4453 -6.75 1.1523 209
-6.2890999999999995 -3.4120999999999997 -0.5806 52
-12.3047 -6.675800000000001 1.4668 12
-11.914100000000001 -6.4609000000000005 1.7383000000000002 62
-6.4648 -3.5058999999999996 -0.25489999999999996 38
-12.0781 -6.550800000000001 2.0879 124
-12.5781 -6.824199999999999 -0.1664 131
-12.1406 -6.5859000000000005 2.4277 238
-6.203099999999999 -3.3358999999999996 -1.2344 80
-12.539100000000001 -6.7461 0.1656 219
-6.1875 -3.3262 -1.0645 66
-12.4844 -6.7109000000000005 0.4932 49
-6.1875 -3.3281 -0.8984000000000001 28
-12.468800000000002 -6.703099999999999 0.8208 66
-6.2422 -3.3574 -0.7406999999999999 196
-12.406199999999998 -6.671900000000001 1.1475 4
-6.292999999999999 -3.3827999999999996 -0.5801 143
-12.335899999999999 -6.6328 1.4678 97
-11.898399999999999 -6.3984000000000005 1.7324000000000002 192
-6.5039 -3.498 -0.2561 149
-12.125 -6.5234000000000005 2.0938 179
-12.4297 -6.6875 -0.1642 50
-12.1875 -6.5547 2.4336 111
-6.234400000000001 -3.3242000000000003 -1.2383 21
-12.476600000000001 -6.6523 0.16440000000000002 36
-6.1875 -3.2988 -1.0625 162
-12.476600000000001 -6.6523 0.4919 27
-6.1953 -3.3047000000000004 -0.8979 204
-12.460899999999999 -6.644500000000001 0.8188 194
-6.2422 -3.3281 -0.7387999999999999 150
-12.4219 -6.625 1.1465 136
-6.3047 -3.3613 -0.5801 151
-12.335899999999999 -6.578099999999999 1.4647999999999999 192
-11.875 -6.332000000000001 1.7256 24
-12.1797 -6.4961 2.0996 68
-12.4453 -6.636699999999999 -0.16390000000000002 251
-12.1953 -6.5039 2.4297 228
-6.175800000000001 -3.2676 -1.2246 43
-12.5078 -6.613300000000001 0.1646 43
-6.1797 -3.2676 -1.0595999999999999 151
-12.460899999999999 -6.5898 0.4905 53
-6.207000000000001 -3.2812 -0.8975 203
-12.4844 -6.6015999999999995 0.8188 133
-6.234400000000001 -3.2969 -0.7368000000000001 169
-12.4453 -6.582000000000001 1.1465 7
-6.324199999999999 -3.3457 -0.5811 214
-12.375 -6.546900000000001 1.4668 118
-11.875 -6.2812 1.7227000000000001 158
-12.1719 -6.4375 2.0938 25
-12.460899999999999 -6.5898 -0.16390000000000002 107
-12.210899999999999 -6.457000000000001 2.4277 211
-12.5547 -6.582000000000001 0.1648 62
-6.1953 -3.248 -1.0605 177
-12.4922 -6.550800000000001 0.4907 30
-6.1914 -3.248 -0.894 165
-12.523399999999999 -6.5664 0.8203 156
-6.238300000000001 -3.2714999999999996 -0.7358 57
-12.476600000000001 -6.5390999999999995 1.1465 225
-6.3359000000000005 -3.3223000000000003 -0.5811 170
-12.398399999999999 -6.5039 1.4668 253
-11.8906 -6.234400000000001 1.7216999999999998 135
-12.1719 -6.3828 2.0898 160
-12.468800000000002 -6.5352 -0.1637 191
-12.218800000000002 -6.4062 2.4258 96
-6.1836 -3.2168 -1.2217 102
-12.5625 -6.5352 0.16469999999999999 33
-6.1953 -3.2226999999999997 -1.0586 237
-12.523399999999999 -6.511699999999999 0.491 162
-6.1836 -3.2148000000000003 -0.8911 49
-12.5703 -6.5390999999999995 0.8218000000000001 192
-6.230499999999999 -3.2401999999999997 -0.7334 29
-12.539100000000001 -6.5234000000000005 1.1514 151
-6.3711 -3.3125 -0.583 202
-12.3594 -6.425800000000001 1.459 211
-11.8906 -6.1875 1.7187999999999999 64
-12.1719 -6.328099999999999 2.084 179
-12.5 -6.5 -0.1638 209
-12.1953 -6.3438 2.416 28
-6.175800000000001 -3.1855 -1.2178 224
-12.585899999999999 -6.4961 0.1648 172
-6.203099999999999 -3.1992000000000003 -1.0576 149
-12.601600000000001 -6.5039 0.49340000000000006 113
-6.1875 -3.1914 -0.8896 6
-12.6406 -6.5234000000000005 0.8251999999999999 178
-6.2227 -3.2108999999999996 -0.7314 139
-12.531199999999998 -6.4648 1.1484 111
-12.375 -6.386699999999999 1.459 35
-11.875 -6.125 1.7128999999999999 234
-12.164100000000001 -6.2734000000000005 2.0801 248
-12.5625 -6.480499999999999 -0.16440000000000002 44
-8.4062 -4.3359 1.6602000000000001 37
-6.1797 -3.1601999999999997 -1.2168 229
-12.664100000000001 -6.4727 0.1654 40
-6.199199999999999 -3.1699 -1.0556999999999999 238
-12.664100000000001 -6.4765999999999995 0.4949 131
-6.1875 -3.1641000000000004 -0.8881999999999999 195
-12.664100000000001 -6.4765999999999995 0.8251999999999999 15
-6.2227 -3.1816000000000004 -0.73 35
-12.593800000000002 -6.4375 1.1514 9
-6.4336 -3.2910000000000004 -0.5869 124
-12.3906 -6.3359000000000005 1.4580000000000002 116
-11.8594 -6.0625 1.7080000000000002 7
-12.1875 -6.230499999999999 2.0801 173
-12.6328 -6.4609000000000005 -0.165 181
-8.4219 -4.3047 1.6602000000000001 57
-6.1914 -3.1387 -1.2168 76
-12.656199999999998 -6.417999999999999 0.165 121
-6.1797 -3.1327999999999996 -1.0498 50
-12.6719 -6.421900000000001 0.4941 84
-6.1875 -3.1367000000000003 -0.8872 194
-12.6875 -6.4336 0.8251999999999999 240
-6.2227 -3.1543 -0.7284999999999999 202
-12.6953 -6.4375 1.1592 30
-12.375 -6.2734000000000005 1.4531 75
-11.8672 -6.015599999999999 1.7061000000000002 87
-6.5 -3.2949 -0.2527 189
-8.6719 -4.3945 1.4756 133
-12.656199999999998 -6.4140999999999995 -0.165 255
-8.4141 -4.2656 1.6562000000000001 134
-6.1953 -3.1132999999999997 -1.2148 171
-12.726600000000001 -6.3984000000000005 0.1656 81
-6.199199999999999 -3.1172000000000004 -1.0518 65
-12.7344 -6.4023 0.49579999999999996 246
-6.1797 -3.1074 -0.8843000000000001 60
-12.789100000000001 -6.4297 0.8301000000000001 3
-6.2265999999999995 -3.1308999999999996 -0.728 129
-12.7422 -6.4062 1.1611 34
-12.3594 -6.2148 1.4491999999999998 186
-11.875 -5.9727 1.7050999999999998 153
-12.164100000000001 -6.1172 2.0703 41
-12.726600000000001 -6.3984000000000005 -0.1656 129
-7.957000000000001 -4.0 1.5625 76
-6.1875 -3.0839999999999996 -1.2119 200
-12.8594 -6.4102 0.1671 100
-6.203099999999999 -3.0938 -1.0508 30
-12.8281 -6.394500000000001 0.4988 18
-6.1797 -3.0801 -0.8828 107
-12.8906 -6.4297 0.8354 22
-6.230499999999999 -3.1055 -0.7271 208
-12.9219 -6.4414 1.1758 11
-12.375 -6.167999999999999 1.4482 16
-11.8828 -5.925800000000001 1.7031 118
-12.156199999999998 -6.0625 2.0645 215
-12.8281 -6.394500000000001 -0.16670000000000001 164
-7.9609000000000005 -3.9688 1.5615 196
-6.175800000000001 -3.0488 -1.207 136
-12.906199999999998 -6.3711 0.1674 130
-6.2109000000000005 -3.0683999999999996 -1.0498 105
-12.960899999999999 -6.4023 0.5029 199
-6.1797 -3.0526999999999997 -0.8813 5
-13.0 -6.417999999999999 0.8408 124
-6.2148 -3.0683999999999996 -0.7241 193
-13.0547 -6.449199999999999 1.1855 198
-12.3828 -6.1172 1.4472999999999998 158
-11.9375 -5.894500000000001 1.7069999999999999 125
-12.156199999999998 -6.0039 2.0605 105
-12.9297 -6.386699999999999 -0.1677 82
-7.9922 -3.9452999999999996 1.5644999999999998 99
-6.1797 -3.0254000000000003 -1.2061 83
-13.0547 -6.390599999999999 0.1691 94
-6.1953 -3.0312 -1.0449 228
-13.0625 -6.394500000000001 0.5059 120
-6.1914 -3.0312 -0.8813 87
-13.1094 -6.4140999999999995 0.8462000000000001 42
-6.207000000000001 -3.0370999999999997 -0.7217 137
-13.164100000000001 -6.4453 1.1934 244
-12.398399999999999 -6.0703 1.4463 57
-11.968800000000002 -5.859400000000001 1.7080000000000002 11
-12.156199999999998 -5.953099999999999 2.0586 180
-13.0625 -6.394500000000001 -0.16920000000000002 206
-8.5781 -4.1992 1.6768 146
-6.1836 -3.002 -1.2051 197
-13.164100000000001 -6.386699999999999 0.1702 55
-6.175800000000001 -2.998 -1.041 131
-13.1719 -6.394500000000001 0.5097999999999999 108
-6.1914 -3.0039 -0.8798999999999999 32
-13.226600000000001 -6.421900000000001 0.853 202
-6.207000000000001 -3.0137 -0.7206999999999999 65
-13.2578 -6.4336 1.2002 134
-12.4297 -6.0312 1.4472999999999998 234
-12.0156 -5.832000000000001 1.7128999999999999 137
-12.1328 -5.886699999999999 2.0488 181
-13.164100000000001 -6.390599999999999 -0.1702 210
-8.7891 -4.2656 1.7147999999999999 116
-6.1875 -2.9766000000000004 -1.2031 166
-13.2969 -6.3984000000000005 0.1716 190
-6.1836 -2.9766000000000004 -1.04 112
-13.273399999999999 -6.386699999999999 0.5127 2
-6.1875 -2.9766000000000004 -0.8774 43
-13.335899999999999 -6.417999999999999 0.8584 252
-6.2148 -2.9922000000000004 -0.7202 240
-13.398399999999999 -6.4453 1.2109 73
-12.3906 -5.9648 1.4404 117
-12.0703 -5.8086 1.7178 197
-12.0547 -5.800800000000001 2.0332 243
-13.2656 -6.386699999999999 -0.17129999999999998 211
-8.8828 -4.2734 1.7305000000000001 69
-6.1875 -2.9512 -1.2012 84
-13.3906 -6.386699999999999 0.1726 27
-6.1953 -2.9551 -1.04 99
-13.3828 -6.3828 0.5161 242
-6.175800000000001 -2.9452999999999996 -0.8745 68
-13.4531 -6.417999999999999 0.8647 23
-6.2148 -2.9629000000000003 -0.7188 71
-13.4922 -6.4336 1.2168 100
-12.398399999999999 -5.9140999999999995 1.4394999999999998 197
-12.093800000000002 -5.769500000000001 1.7178 236
-8.7109 -4.1562 1.4658000000000002 29
-13.351600000000001 -6.3711 -0.1721 26
-9.0 -4.293 1.751 202
-6.175800000000001 -2.9199 -1.1973 207
-13.5078 -6.390599999999999 0.17379999999999998 12
-6.1914 -2.9297000000000004 -1.0381 241
-13.5 -6.3828 0.5195000000000001 127
-6.1836 -2.9257999999999997 -0.8745 22
-13.5547 -6.4102 0.8695999999999999 158
-6.207000000000001 -2.9355 -0.7173 225
-13.5781 -6.421900000000001 1.2236 169
-12.3672 -5.8515999999999995 1.4336000000000002 170
-7.9765999999999995 -3.7714999999999996 1.1299 160
-8.6797 -4.1055 1.4580000000000002 207
-13.476600000000001 -6.3711 -0.17350000000000002 47
-8.5547 -4.0469 1.6611000000000002 186
-6.1836 -2.8945 -1.1963 175
-13.5781 -6.359400000000001 0.1744 254
-6.1914 -2.8983999999999996 -1.0361 68
-13.585899999999999 -6.359400000000001 0.522 101
-6.1836 -2.8964999999999996 -0.873 5
-13.5781 -6.355499999999999 0.8695999999999999 130
-6.207000000000001 -2.9062 -0.7158 164
-13.5547 -6.3477 1.2187999999999999 223
-12.3906 -5.8047 1.4336000000000002 26
-7.859400000000001 -3.6797000000000004 1.1113 4
-8.3828 -3.9257999999999997 1.4053 195
-13.5547 -6.3477 -0.17420000000000002 22
-8.0781 -3.7812 1.5654 180
-6.1914 -2.873 -1.1963 232
-13.601600000000001 -6.3086 0.1744 7
-6.1836 -2.8691000000000004 -1.0332 246
-13.5703 -6.296900000000001 0.5205 149
-6.1914 -2.873 -0.8726 164
-13.585899999999999 -6.3047 0.8687 120
-6.207000000000001 -2.8789 -0.7143999999999999 96
-13.5625 -6.292999999999999 1.2178 44
-12.406199999999998 -5.7539 1.4325999999999999 74
-7.8828 -3.6582 1.1123 122
-11.8672 -5.5039 1.9883000000000002 84
-13.5703 -6.296900000000001 -0.174 5
-8.0469 -3.7344 1.5575999999999999 185
-6.1875 -2.8457 -1.1934 147
-13.6094 -6.2578 0.17420000000000002 197
-6.1836 -2.8438 -1.0312000000000001 195
-13.5547 -6.234400000000001 0.519 105
-6.1836 -2.8438 -0.8701000000000001 39
-13.5781 -6.2461 0.8672 19
-6.2188 -2.8594 -0.7148 63
-13.5703 -6.2422 1.2168 130
-12.406199999999998 -5.703099999999999 1.4306999999999999 154
-7.921900000000001 -3.6445 1.1162 253
-11.851600000000001 -5.449199999999999 1.9824000000000002 45
-13.5547 -6.234400000000001 -0.1736 221
-8.0625 -3.7089999999999996 1.5575999999999999 119
-6.1875 -2.8202999999999996 -1.1914 4
-13.6094 -6.203099999999999 0.174 243
-6.1914 -2.8223000000000003 -1.0312000000000001 153
-13.5703 -6.1875 0.519 174
-6.171900000000001 -2.8145 -0.8667 36
-13.5703 -6.1875 0.8647 228
-6.2148 -2.8339999999999996 -0.7134 25
-13.5781 -6.1914 1.2148 143
-12.398399999999999 -5.6523 1.4277000000000002 51
-7.9922 -3.6445 1.124 80
-11.851600000000001 -5.4062 1.9805000000000001 3
-13.5469 -6.175800000000001 -0.1732 89
-8.0703 -3.6816000000000004 1.5575999999999999 242
-6.171900000000001 -2.7870999999999997 -1.1865 46
-13.601600000000001 -6.140599999999999 0.1736 102
-6.203099999999999 -2.8007999999999997 -1.0312000000000001 205
-13.5625 -6.125 0.5181 104
-6.1797 -2.7910000000000004 -0.8667 131
-13.5625 -6.1211 0.8628 77
-6.2148 -2.8066000000000004 -0.7119 101
-13.5703 -6.125 1.2119 191
-12.398399999999999 -5.5977 1.4258000000000002 33
-8.3281 -3.7617000000000003 1.1699 97
-8.7109 -3.9336 1.4512 132
-13.5469 -6.1172 -0.17300000000000001 38
-12.1797 -5.4961 2.3477 238
-6.1797 -2.7656 -1.1865 222
-13.5703 -6.0703 0.17300000000000001 167
-6.1836 -2.7656 -1.0264 71
-13.5781 -6.074199999999999 0.5176 58
-6.175800000000001 -2.7637 -0.8647 1
-13.5625 -6.0664 0.8618000000000001 199
-6.2148 -2.7793 -0.7109000000000001 143
-13.5781 -6.0703 1.2109 69
-12.3828 -5.5390999999999995 1.4209 22
-8.2344 -3.6836 1.1553 55
-8.5938 -3.8438 1.4287 111
-13.5547 -6.0625 -0.1727 110
-8.1406 -3.6406 1.5644999999999998 5
-6.1875 -2.7422000000000004 -1.1855 22
-13.5703 -6.015599999999999 0.1727 162
-6.1797 -2.7401999999999997 -1.0244 120
-13.5547 -6.0078 0.5161 107
-6.1797 -2.7382999999999997 -0.8637999999999999 154
-13.5703 -6.015599999999999 0.8608 58
-6.2148 -2.7558999999999996 -0.71 55
-13.5469 -6.0039 1.2061 28
-12.3906 -5.4922 1.4199000000000002 63
-8.8672 -3.9297000000000004 1.2422 60
-11.875 -5.265599999999999 1.9746000000000001 91
-13.5469 -6.0039 -0.1724 233
-8.125 -3.6035000000000004 1.5596 246
-6.1875 -2.7188 -1.1845999999999999 168
-13.5781 -5.9688 0.1726 1
-6.1836 -2.7168 -1.0234 83
-13.539100000000001 -5.949199999999999 0.5146000000000001 145
-6.167999999999999 -2.7089999999999996 -0.8608 14
-13.5625 -5.957000000000001 0.8589 28
-6.2188 -2.7324 -0.7090000000000001 171
-13.539100000000001 -5.949199999999999 1.2041 213
-12.3906 -5.4453 1.4180000000000001 111
-12.0078 -5.2773 1.6816 104
-8.6953 -3.8183999999999996 1.4413999999999998 13
-13.539100000000001 -5.949199999999999 -0.1721 232
-12.1797 -5.3515999999999995 2.3379 14
-6.1836 -2.6895 -1.1816 21
-13.5703 -5.9023 0.1722 94
-6.1914 -2.6914 -1.0225 48
-13.5469 -5.890599999999999 0.5142 88
-6.167999999999999 -2.6816000000000004 -0.8599 216
-13.5703 -5.9023 0.8584 98
-6.2227 -2.707 -0.7084999999999999 230
-13.593800000000002 -5.9102 1.207 131
-12.3906 -5.386699999999999 1.415 238
-8.1406 -3.5391000000000004 1.1367 122
-8.9688 -3.8983999999999996 1.4844 65
-13.539100000000001 -5.886699999999999 -0.1718 248
-12.1797 -5.296900000000001 2.334 132
-6.175800000000001 -2.6601999999999997 -1.1787 37
-13.593800000000002 -5.855499999999999 0.1721 243
-6.1953 -2.668 -1.0225 30
-13.6094 -5.863300000000001 0.5156000000000001 79
-6.167999999999999 -2.6562 -0.8584 23
-13.6172 -5.8672 0.8604 53
-6.2227 -2.6797000000000004 -0.7075 184
-13.648399999999999 -5.8789 1.21 10
-12.398399999999999 -5.3398 1.4141 117
-8.2656 -3.5586 1.1514 102
-11.898399999999999 -5.125 1.9697 222
-13.5469 -5.832000000000001 -0.1716 188
-12.1797 -5.2461 2.3301 68
-6.175800000000001 -2.6367000000000003 -1.1768 147
-13.601600000000001 -5.8086 0.172 110
-6.1836 -2.6406 -1.0186 198
-13.648399999999999 -5.828099999999999 0.5166 80
-6.1797 -2.6387 -0.8589 67
-13.656199999999998 -5.832000000000001 0.8613 56
-6.207000000000001 -2.6504000000000003 -0.7045999999999999 15
-13.648399999999999 -5.828099999999999 1.208 226
-12.406199999999998 -5.296900000000001 1.4131 11
-8.3281 -3.5547000000000004 1.1592 61
-8.8516 -3.7793 1.4609 149
-13.5469 -5.7812 -0.17129999999999998 66
-8.8516 -3.7773000000000003 1.6894999999999998 243
-6.1836 -2.6151999999999997 -1.1758 214
-13.6094 -5.7539 0.17190000000000003 248
-6.175800000000001 -2.6132999999999997 -1.0166 89
-13.656199999999998 -5.7773 0.5161 30
-6.1797 -2.6151999999999997 -0.8579000000000001 164
-13.656199999999998 -5.7773 0.8604 150
-6.203099999999999 -2.625 -0.7036 140
-13.6406 -5.769500000000001 1.2061 87
-12.398399999999999 -5.2461 1.4102000000000001 148
-8.3203 -3.5195 1.1562000000000001 182
-11.8828 -5.0273 1.9609 56
-13.539100000000001 -5.7265999999999995 -0.171 67
-12.1719 -5.1484000000000005 2.3242 74
-6.1836 -2.5898000000000003 -1.1748 210
-13.6172 -5.699199999999999 0.1718 135
-6.171900000000001 -2.5839999999999996 -1.0137 241
-13.648399999999999 -5.7148 0.5151 14
-6.175800000000001 -2.5858999999999996 -0.8554999999999999 220
-13.6719 -5.7227 0.8599 16
-6.2227 -2.6055 -0.7045999999999999 68
-13.648399999999999 -5.7148 1.2051 209
-12.3906 -5.1875 1.4072 235
-8.3281 -3.4882999999999997 1.1562000000000001 138
-11.8906 -4.9805 1.959 159
-13.531199999999998 -5.6640999999999995 -0.1707 214
-12.1875 -5.1016 2.3223 53
-6.167999999999999 -2.5566 -1.1699 176
-13.6094 -5.644500000000001 0.1714 55
-6.175800000000001 -2.5605 -1.0127 199
-13.656199999999998 -5.6602 0.5146000000000001 153
-6.167999999999999 -2.5586 -0.8534999999999999 7
-13.664100000000001 -5.6640999999999995 0.8579000000000001 108
-6.2188 -2.5781 -0.7026 157
-13.648399999999999 -5.6602 1.2031 125
-12.3906 -5.136699999999999 1.4053 24
-8.3359 -3.457 1.1553 21
-11.8594 -4.918 1.9512 130
-13.5156 -5.605499999999999 -0.1702 69
-12.1328 -5.0312 2.3086 133
-6.1602 -2.5273 -1.166 26
-13.6094 -5.5898 0.1711 111
-6.1797 -2.5371 -1.0127 129
-13.6719 -5.613300000000001 0.5142 138
-6.175800000000001 -2.5352 -0.853 204
-6.207000000000001 -2.5488 -0.7006999999999999 219
-12.4531 -5.1133 1.0957 248
-12.375 -5.082 1.4013999999999998 24
-8.3438 -3.4276999999999997 1.1553 46
-8.7578 -3.5938 1.4365 22
-12.1328 -4.9805 2.3047 88
-6.167999999999999 -2.5059 -1.166 143
-12.5156 -5.0898 0.15710000000000002 175
-6.167999999999999 -2.5059 -1.0088 123
-12.4297 -5.0508 0.4668 239
-6.1836 -2.5137 -0.853 64
-12.4219 -5.0469 0.7773 124
-6.203099999999999 -2.5215 -0.6992 199
-12.398399999999999 -5.0391 1.0898 128
-12.3828 -5.0352 1.4003999999999999 182
-12.218800000000002 -4.9648 1.6913999999999998 43
-8.7969 -3.5742000000000003 1.4413999999999998 112
-12.3906 -5.0352 -0.1555 78
-12.1406 -4.9336 2.3027 212
-6.1797 -2.4863 -1.167 205
-12.460899999999999 -5.0156 0.1562 120
-6.167999999999999 -2.4824 -1.0078 113
-12.398399999999999 -4.9883 0.4648 105
-6.1797 -2.4883 -0.8515999999999999 185
-12.406199999999998 -4.9922 0.7754000000000001 150
-6.199199999999999 -2.4941 -0.6978 191
-12.398399999999999 -4.9883 1.0879 175
-12.3828 -4.9844 1.3984 9
-12.226600000000001 -4.918 1.6894999999999998 169
-11.8828 -4.7812 1.9472999999999998 100
-12.3828 -4.9805 -0.1552 176
-12.1328 -4.8828 2.2988 239
-6.1797 -2.4629 -1.166 129
-12.4375 -4.9531 0.15560000000000002 198
-6.167999999999999 -2.457 -1.0059 43
-12.3906 -4.9375 0.46409999999999996 57
-6.175800000000001 -2.459 -0.8495999999999999 39
-12.4219 -4.9453 0.7748999999999999 39
-6.2188 -2.4766 -0.6987000000000001 225
-12.4219 -4.9492 1.0889 142
-12.375 -4.9297 1.3955000000000002 56
-12.2344 -4.8711 1.6885 119
-8.9297 -3.5566000000000004 1.459 28
-12.3828 -4.9336 -0.155 192
-12.1328 -4.8359 2.2949 204
-6.171900000000001 -2.4316 -1.1621 107
-12.4453 -4.9023 0.1555 138
-6.175800000000001 -2.4336 -1.0059 51
-12.414100000000001 -4.8945 0.46409999999999996 216
-6.167999999999999 -2.4316 -0.8477 75
-12.4297 -4.8984 0.7748999999999999 209
-6.2188 -2.4512 -0.6981999999999999 254
-12.4844 -4.9219 1.0928 77
-12.375 -4.875 1.3936000000000002 45
-12.218800000000002 -4.8164 1.6836000000000002 176
-8.8672 -3.4941000000000004 1.4472999999999998 108
-12.3828 -4.8828 -0.1548 211
-8.8594 -3.4922000000000004 1.6719 228
-6.1602 -2.4043 -1.1592 128
-12.476600000000001 -4.8672 0.1558 85
-6.1836 -2.4121 -1.0059 165
-12.4531 -4.8594 0.46509999999999996 203
-6.175800000000001 -2.4082 -0.8472 117
-12.468800000000002 -4.8633 0.7759 29
-6.2188 -2.4258 -0.6968000000000001 106
-12.5156 -4.8828 1.0937999999999999 26
-12.3828 -4.8281 1.3925999999999998 113
-12.210899999999999 -4.7617 1.6806999999999999 152
-11.843800000000002 -4.6211 1.9325999999999999 0
-12.414100000000001 -4.8398 -0.1549 13
-12.101600000000001 -4.7188 2.2832 195
-6.171900000000001 -2.3848 -1.1592 224
-12.531199999999998 -4.8398 0.1562 237
-6.171900000000001 -2.3828 -1.002 139
-12.5 -4.8281 0.4661 181
-6.175800000000001 -2.3848 -0.8462000000000001 15
-12.531199999999998 -4.8398 0.7787999999999999 169
-6.2109000000000005 -2.3984 -0.6953 237
-12.5625 -4.8516 1.0967 173
-12.4219 -4.7969 1.3944999999999999 179
-12.210899999999999 -4.7148 1.6787 125
-11.8281 -4.5703 1.9268 107
-12.468800000000002 -4.8164 -0.15539999999999998 75
-12.101600000000001 -4.6758 2.2793 22
-6.1797 -2.3633 -1.1592 15
-12.625 -4.8281 0.15710000000000002 106
-6.171900000000001 -2.3613 -1.001 237
-12.593800000000002 -4.8164 0.469 58
-6.1797 -2.3633 -0.8456999999999999 52
-13.539100000000001 -5.175800000000001 0.8403 50
-6.2188 -2.3789 -0.6953 183
-13.531199999999998 -5.175800000000001 1.1797 44
-9.0078 -3.4452999999999996 1.0088 177
-8.8828 -3.3964999999999996 1.2178 180
-11.835899999999999 -4.5273 1.9268 74
-12.539100000000001 -4.793 -0.156 219
-12.1094 -4.6328 2.2793 184
-6.1797 -2.3379 -1.1572 242
-13.5469 -5.125 0.1685 146
-6.175800000000001 -2.3359 -1.0 183
-13.523399999999999 -5.1172 0.5029 221
-6.171900000000001 -2.3359 -0.8432999999999999 133
-13.5469 -5.125 0.8398 252
-6.2188 -2.3535 -0.6938 168
-13.539100000000001 -5.125 1.1787 33
-6.3438 -2.4004 -0.5503 101
-8.9844 -3.4004000000000003 1.0049 185
-8.8828 -3.3632999999999997 1.2168 29
-11.8203 -4.4727 1.9209 117
-13.5078 -5.1133 -0.168 180
-10.0234 -3.793 1.8818000000000001 38
-6.167999999999999 -2.3105 -1.1543 109
-13.5625 -5.082 0.1685 23
-6.1797 -2.3164 -1.0 11
-13.523399999999999 -5.0664 0.5024000000000001 3
-6.1640999999999995 -2.3105 -0.8412999999999999 194
-13.523399999999999 -5.0664 0.8379000000000001 243
-6.230499999999999 -2.334 -0.6943 189
-13.539100000000001 -5.0742 1.1777 251
-8.9766 -3.3651999999999997 1.0029000000000001 117
-8.8906 -3.3301 1.2158 47
-8.8438 -3.3125 1.4336000000000002 171
-13.5078 -5.0586 -0.1677 229
-12.093800000000002 -4.5312 2.2715 37
-6.1602 -2.2793 -1.1504 241
-13.5469 -5.0156 0.168 113
-6.1836 -2.2871 -0.9984999999999999 254
-13.539100000000001 -5.0117 0.5024000000000001 91
-6.1640999999999995 -2.2812 -0.8398 184
-13.531199999999998 -5.0078 0.8364 236
-6.2227 -2.3027 -0.6929000000000001 205
-13.5469 -5.0156 1.1768 202
-8.9922 -3.3262 1.0029000000000001 104
-12.0469 -4.4609 1.6475 50
-8.8516 -3.2754000000000003 1.4325999999999999 94
-13.5078 -5.0 -0.1675 100
-9.9688 -3.6895 1.8672 38
-6.171900000000001 -2.2578 -1.1514 234
-13.5469 -4.957 0.1678 5
-6.1797 -2.2617 -0.9971 223
-13.531199999999998 -4.9531 0.5015 114
-6.175800000000001 -2.2598 -0.8403 135
-13.5156 -4.9453 0.835 213
-6.2148 -2.2754 -0.6909000000000001 52
-13.531199999999998 -4.9531 1.1729 165
-9.0156 -3.3007999999999997 1.0049 83
-12.039100000000001 -4.4062 1.6436000000000002 4
-8.875 -3.248 1.4346 98
-13.5 -4.9414 -0.1672 249
-12.0781 -4.4219 2.2617 184
-6.171900000000001 -2.2383 -1.1504 137
-13.5469 -4.9102 0.16760000000000003 45
-6.1640999999999995 -2.2344 -0.9932 49
-13.531199999999998 -4.9062 0.5005 18
-6.1797 -2.2402 -0.8398 221
-13.531199999999998 -4.9062 0.835 175
-6.2265999999999995 -2.2578 -0.6914 136
-13.523399999999999 -4.9062 1.1719 107
-9.0234 -3.2714999999999996 1.0039 97
-12.164100000000001 -4.4102 1.6582 178
-11.851600000000001 -4.2969 1.915 171
-13.5 -4.8945 -0.16699999999999998 109
-8.875 -3.2168 1.6562000000000001 222
-6.171900000000001 -2.2148 -1.1494 29
-13.5469 -4.8594 0.1674 60
-6.1797 -2.2168 -0.9945999999999999 53
-13.5156 -4.8516 0.49979999999999997 14
-6.1797 -2.2168 -0.8389 191
-13.523399999999999 -4.8555 0.8334999999999999 252
-6.230499999999999 -2.2363 -0.6909000000000001 125
-13.523399999999999 -4.8516 1.1699 92
-9.0312 -3.2401999999999997 1.0039 183
-12.2031 -4.3789 1.6621000000000001 39
-13.4922 -4.8438 -0.16670000000000001 134
-8.8828 -3.1895 1.6572 23
-6.1640999999999995 -2.1855 -1.1455 31
-13.5703 -4.8125 0.1675 44
-6.1875 -2.1934 -0.9945999999999999 253
-13.5156 -4.793 0.499 26
-6.171900000000001 -2.1895 -0.8369 241
-13.5156 -4.793 0.8320000000000001 14
-6.2265999999999995 -2.207 -0.6899 41
-13.531199999999998 -4.7969 1.1689 248
-9.0469 -3.207 1.0039 133
-12.2031 -4.3281 1.6602000000000001 139
