# .PCD v0.7 - Point Cloud Data file format
VERSION 0.7
FIELDS x y z intensity
SIZE 4 4 4 4
TYPE F F F F
COUNT 1 1 1 1
WIDTH 1330
HEIGHT 1
VIEWPOINT 0 0 0 1 0 0 0
POINTS 1330
DATA ascii
-0.6884999999999999 -4.9609 -0.6386999999999999 189
-6.3984000000000005 -46.0938 2.7051 218
-0.6958 -5.0156 -0.5278 140
-6.9922 -50.375 4.1523 193
-0.7373000000000001 -5.3164 -0.4346 100
-0.9536 -6.8711 -0.24050000000000002 15
-0.6836 -4.8047 -0.8481000000000001 130
-0.9365000000000001 -6.578099999999999 0.0768 70
-0.7056 -4.957 -0.7568 89
-6.332000000000001 -44.5 1.5674000000000001 207
-0.7036 -4.9453 -0.6372 249
-6.5273 -45.8438 2.6914 232
-0.7134 -5.0117 -0.5278 9
-0.7515000000000001 -5.2812 -0.4321 107
-0.9731000000000001 -6.8359000000000005 -0.2394 136
-0.9843999999999999 -6.917999999999999 -0.0808 176
-0.6987000000000001 -4.7891 -0.8456999999999999 197
-0.9623999999999999 -6.5977 0.077 122
-0.7241 -4.9648 -0.7583 56
-0.7222 -4.9492 -0.6382 219
-6.636699999999999 -45.5 2.6719 1
-0.7358 -5.043 -0.5307999999999999 76
-0.7661 -5.25 -0.42969999999999997 227
-1.001 -6.859400000000001 -0.2404 206
-1.0088 -6.9140999999999995 -0.0808 30
-0.7148 -4.7812 -0.8452 237
-0.9829000000000001 -6.578099999999999 0.0768 94
-0.7456 -4.9922 -0.7626999999999999 187
-6.582000000000001 -44.0625 1.5537 91
-0.7432 -4.9727 -0.6411 81
-6.796900000000001 -45.4688 2.6719 86
-0.7484999999999999 -5.0078 -0.5278 236
-0.7929999999999999 -5.3086 -0.4346 225
-1.0273 -6.875 -0.2408 112
-0.7354 -4.8086 -0.8501000000000001 137
-1.0059 -6.574199999999999 0.0768 205
-0.7603 -4.9688 -0.7598 59
-6.7852 -44.3438 1.5654 187
-0.7606999999999999 -4.9727 -0.6416 157
-6.8672 -44.875 2.6387 78
-0.7661 -5.0039 -0.5278 97
-7.421900000000001 -48.5 4.0039 158
-0.813 -5.3125 -0.4353 161
-1.0527 -6.8789 -0.2412 241
-0.7534000000000001 -4.8125 -0.8515999999999999 157
-1.0303 -6.578099999999999 0.077 188
-0.7744 -4.9453 -0.7568 35
-0.7876000000000001 -5.0273 -0.6494 42
-7.4297 -47.4375 2.7910000000000004 143
-0.7837000000000001 -5.0039 -0.5278 54
-7.5547 -48.25 3.9844 110
-0.8295999999999999 -5.296900000000001 -0.4343 101
-1.0156 -6.484400000000001 -0.2273 152
-0.7681 -4.793 -0.8486 132
-1.0556999999999999 -6.5898 0.0771 174
-0.7974 -4.9766 -0.7622 118
-0.8047 -5.0234 -0.6489 89
-7.390599999999999 -46.1562 2.7168 193
-0.8008 -5.0 -0.5278 136
-7.7188 -48.1875 3.9824 95
-0.8438 -5.265599999999999 -0.4321 164
-6.605499999999999 -41.25 5.3672 64
-1.0303 -6.4336 -0.2257 190
-0.7870999999999999 -4.8086 -0.8515999999999999 46
-1.0781 -6.5859000000000005 0.0771 254
-0.8169 -4.9883 -0.7642 234
-7.300800000000001 -44.5938 1.5762 50
-0.8223 -5.0195 -0.6489 199
-7.5625 -46.1562 2.7188 11
-0.8184 -4.9961 -0.5278 122
-7.4609000000000005 -45.5625 3.7676 208
-0.8711 -5.3203 -0.4365 163
-6.6914 -40.875 5.3203 245
-1.0595999999999999 -6.4727 -0.22719999999999999 236
-0.8037000000000001 -4.8047 -0.8515999999999999 255
-1.1025 -6.5859000000000005 0.07719999999999999 157
-0.8364 -4.9961 -0.7661 74
-0.8418000000000001 -5.0312 -0.6504000000000001 252
-7.703099999999999 -46.0312 2.7129000000000003 86
-0.8359000000000001 -4.9961 -0.5278 137
-7.6015999999999995 -45.4375 3.7598000000000003 255
-0.8848 -5.2890999999999995 -0.4343 157
-1.085 -6.484400000000001 -0.2278 17
-0.8315 -4.8633 -0.8628 103
-1.1220999999999999 -6.5625 0.077 98
-0.8545 -5.0 -0.7666 120
-0.8613 -5.0391 -0.6518999999999999 191
-7.6602 -44.8125 2.6426 57
-0.9131 -5.3398 -0.439 242
-6.3828 -37.3438 3.9766000000000004 133
-1.2871000000000001 -7.5312 -0.08839999999999999 193
-0.8481000000000001 -4.8594 -0.8628 54
-1.1484 -6.582000000000001 0.07719999999999999 123
-0.8687 -4.9766 -0.7637 108
-0.8794 -5.0391 -0.6523 73
-8.2188 -47.0938 2.7793 175
-7.074199999999999 -40.5312 3.3574 151
-0.9238 -5.292999999999999 -0.4353 138
-6.519500000000001 -37.3438 3.9805 122
-0.8540000000000001 -4.8047 -0.853 185
-1.1699 -6.582000000000001 0.07730000000000001 148
-0.8892 -5.0 -0.7681 101
-7.015599999999999 -39.4688 1.3984 78
-0.894 -5.0273 -0.6514 128
-6.925800000000001 -38.9688 2.2988 8
-6.144500000000001 -34.5625 2.8651999999999997 254
-0.937 -5.2734000000000005 -0.4336 56
-6.6172 -37.2188 3.9688 73
-1.3711000000000002 -7.7109000000000005 -0.2717 117
-1.3584 -7.640599999999999 -0.0898 206
-0.8837999999999999 -4.8789 -0.8667 137
-1.1973 -6.609400000000001 0.0776 120
-0.9043000000000001 -4.9883 -0.7666 145
-7.1484000000000005 -39.4375 1.3984 158
-0.9097 -5.0195 -0.6509 245
-7.0547 -38.9375 2.3008 60
-0.9028 -4.9844 -0.5278 82
-6.2461 -34.4688 2.8594 118
-0.9619 -5.3086 -0.43700000000000006 138
-6.7227 -37.0938 3.9589999999999996 230
-1.4062000000000001 -7.761699999999999 -0.2737 226
-1.3877000000000002 -7.6602 -0.0901 213
-0.9238 -4.9961 -0.8881999999999999 170
-1.2197 -6.5938 0.0775 109
-0.9297 -5.0273 -0.7729 19
-7.269500000000001 -39.2812 1.3936000000000002 53
-0.9320999999999999 -5.0391 -0.6537999999999999 53
-7.25 -39.1875 2.3164 185
-6.3828 -34.5 2.8632999999999997 39
-0.9849 -5.324199999999999 -0.4385 124
-6.8789 -37.1875 3.9707 200
-1.1162 -6.0352 -0.3542 116
-1.4258000000000002 -7.707000000000001 -0.272 151
-1.3437999999999999 -7.261699999999999 -0.08539999999999999 102
-0.9028 -4.7852 -0.8515999999999999 110
-1.2412 -6.578099999999999 0.0774 50
-0.9429000000000001 -5.0 -0.769 254
-0.9545999999999999 -5.0625 -0.6572 19
-6.9375 -36.7812 2.1758 206
-6.636699999999999 -35.1875 2.9219 29
-0.9961 -5.2812 -0.4353 254
-6.9648 -36.9375 3.9452999999999996 100
-1.1504 -6.1015999999999995 -0.35840000000000005 226
-0.9224 -4.7969 -0.8540000000000001 211
-1.2656 -6.5859000000000005 0.0775 232
-0.9634 -5.0117 -0.772 165
-0.9697 -5.0469 -0.6553 94
-6.7265999999999995 -35.0 2.9082 154
-1.0254 -5.3359000000000005 -0.44020000000000004 77
-7.2148 -37.5312 4.0117 193
-1.1963 -6.2227 -0.366 56
-1.4131 -7.3515999999999995 -0.2595 160
-0.9429000000000001 -4.8164 -0.8579000000000001 47
-1.2930000000000001 -6.605499999999999 0.07780000000000001 174
-0.9823999999999999 -5.0156 -0.7729 118
-8.2188 -41.9688 1.4922 206
-0.9893000000000001 -5.0508 -0.6567000000000001 100
-7.0586 -36.0312 2.1348 200
-1.0498 -5.359400000000001 -0.4424 211
-7.1562 -36.5312 3.9082 176
-1.4228999999999998 -7.265599999999999 -0.2568 25
-0.9561 -4.793 -0.8540000000000001 208
-1.0029000000000001 -5.0273 -0.7754000000000001 31
-8.3516 -41.875 1.4883000000000002 254
-0.9965999999999999 -4.9961 -0.6498999999999999 47
-8.1562 -40.9062 3.4023000000000003 226
-1.0693000000000001 -5.359400000000001 -0.4429 17
-7.7227 -38.7188 5.0742 5
-0.978 -4.8164 -0.8589 151
-1.0176 -5.0117 -0.7734000000000001 117
-1.0166 -5.0078 -0.6518999999999999 135
-8.8047 -43.3438 2.5702999999999996 241
-1.0859 -5.3438 -0.44189999999999996 96
-7.7265999999999995 -38.0312 4.0742 97
-1.3506 -6.6484000000000005 -0.0784 153
-0.9926999999999999 -4.7969 -0.8564 244
-1.0391 -5.0195 -0.7754000000000001 153
-8.9062 -43.0625 1.5341999999999998 125
-1.0469 -5.0586 -0.6592 131
-7.019500000000001 -33.9375 2.0137 42
-1.1113 -5.3711 -0.4443 189
-7.0352 -34.0 3.6445 50
-8.0 -38.6875 5.0742 31
-1.0117 -4.8047 -0.8584 174
-1.0693000000000001 -5.0781 -0.7847 227
-1.0703 -5.082 -0.6626000000000001 172
-7.1523 -33.9688 2.0176 216
-7.7852 -36.9688 3.0839999999999996 28
-1.1279000000000001 -5.355499999999999 -0.4434 231
-7.1602 -34.0 3.6464999999999996 86
-7.9453 -37.75 4.9531 242
-1.3857 -6.582000000000001 -0.07780000000000001 109
-1.0332 -4.8242 -0.8628 73
-10.0703 -47.0 0.5615 85
-1.0859 -5.0703 -0.7842 9
-8.5859 -40.0625 1.4297 47
-1.084 -5.0586 -0.6602 54
-7.25 -33.8438 2.0117 82
-7.265599999999999 -33.9062 2.8301 213
-1.1523 -5.3789 -0.4458 212
-8.0156 -37.4375 4.0195 115
-7.8477 -36.625 4.8164 82
-1.4003999999999999 -6.5390999999999995 -0.23170000000000002 127
-3.5195 -16.4219 -0.1956 140
-1.0469 -4.8047 -0.8599 204
-1.1025 -5.0586 -0.7831999999999999 218
-1.0723 -4.9219 -0.6426000000000001 129
-7.355499999999999 -33.7812 2.0078 207
-7.3789 -33.875 2.8281 136
-1.1777 -5.4062 -0.4482 203
-3.5547000000000004 -16.3125 -0.1945 248
-1.0674 -4.8203 -0.8633 188
-1.0957 -4.9531 -0.7666 109
-9.4531 -42.6875 1.5253999999999999 143
-1.0869 -4.9102 -0.6411 165
-7.4453 -33.6562 2.002 130
-7.3789 -33.3438 2.7851999999999997 251
-1.1953 -5.4023 -0.4482 18
-7.832000000000001 -35.375 3.8047000000000004 8
-3.6055 -16.2812 -0.1942 81
-1.0791 -4.8008 -0.8604 1
-8.8594 -39.4062 0.4714 100
-1.1025 -4.9062 -0.7603 143
-9.5859 -42.6562 1.5244 4
-1.1152 -4.9609 -0.6489 240
-7.515599999999999 -33.4375 1.9912 60
-7.4609000000000005 -33.1875 2.7754000000000003 108
-1.2139 -5.3984000000000005 -0.4482 186
-7.9062 -35.1562 3.7832 20
-7.609400000000001 -33.8438 4.457 169
-1.4385 -6.3984000000000005 -0.22719999999999999 112
-3.6562 -16.2656 -0.19399999999999998 38
-1.1025 -4.8242 -0.8652 67
-1.1318000000000001 -4.9531 -0.7681 20
-1.1396 -4.9883 -0.6528 32
-7.640599999999999 -33.4375 1.9931999999999999 67
-7.582000000000001 -33.1875 2.7773000000000003 222
-1.2412 -5.4336 -0.4517 66
-7.75 -33.9375 4.4688 132
-3.7108999999999996 -16.25 -0.19399999999999998 177
-1.1143 -4.8008 -0.8618000000000001 139
-1.1602 -5.0 -0.6548 96
-7.949199999999999 -34.2812 2.0449 246
-1.2734 -5.488300000000001 -0.45649999999999996 189
-7.8515999999999995 -33.8438 3.6483999999999996 28
-7.8515999999999995 -33.8438 4.4648 135
-3.7637 -16.2188 -0.1938 137
-1.1338 -4.8047 -0.8633 39
-1.1768 -4.9883 -0.7754000000000001 55
-1.1719 -4.9688 -0.6514 75
-8.6016 -36.4688 2.1777 24
-7.890599999999999 -33.4688 2.8047000000000004 178
-1.3037 -5.5312 -0.4604 84
-1.4756 -6.2539 -0.3713 223
-7.9688 -33.7812 4.4609 40
-3.8202999999999996 -16.2031 -0.1937 145
-1.1553 -4.8242 -0.8676999999999999 135
-9.4766 -39.5625 0.47490000000000004 54
-1.1924 -4.9766 -0.7739 46
-1.1885 -4.9609 -0.6509 111
-8.4062 -35.0938 2.0977 21
-7.917999999999999 -33.0625 2.7733999999999996 241
-1.335 -5.574199999999999 -0.4646 151
-9.4688 -39.5312 4.2656 82
-8.2656 -34.5 4.5586 196
-3.8827999999999996 -16.2188 -0.1941 109
-1.2129 -4.9883 -0.7764 163
-1.25 -5.136699999999999 -0.6748000000000001 102
-10.5078 -43.2188 2.5839999999999996 177
-7.988300000000001 -32.8438 2.7577999999999996 3
-1.374 -5.6484000000000005 -0.47119999999999995 163
-1.5438999999999998 -6.3515999999999995 -0.3774 221
-8.4609 -34.7812 4.6016 148
-3.9395 -16.2031 -0.19399999999999998 173
-14.226600000000001 -57.625 0.6929000000000001 16
-1.2305 -4.9844 -0.7764 192
-8.9766 -36.375 1.3066 167
-1.2676 -5.1328 -0.6748000000000001 172
-8.0938 -32.7812 2.7558999999999996 38
-1.3925999999999998 -5.640599999999999 -0.4707 205
-1.5596 -6.3164 -0.3757 107
-14.3125 -57.9688 7.675800000000001 73
-3.9941000000000004 -16.1719 -0.19399999999999998 112
-14.476600000000001 -57.6875 0.6943 34
-1.2539 -4.9961 -0.7787999999999999 125
-14.476600000000001 -57.6562 2.0742 80
-1.2841999999999998 -5.1172 -0.6729 233
-8.9844 -35.8125 2.1445 55
-8.2266 -32.7812 2.7577999999999996 243
-1.4072 -5.605499999999999 -0.4685 218
-9.0703 -36.1562 4.7891 222
-13.9844 -55.7188 8.75 175
-4.0664 -16.2031 -0.1945 17
-13.976600000000001 -55.6875 10.1172 30
-9.0625 -35.5625 0.4282 127
-1.2754 -5.0039 -0.7807999999999999 75
-1.2930000000000001 -5.0703 -0.6675 191
-10.0156 -39.2812 2.3574 182
-1.4472999999999998 -5.6797 -0.47509999999999997 184
-8.5547 -33.5625 3.6367000000000003 237
-8.8984 -34.9062 4.6289 81
-13.976600000000001 -54.8438 8.625 107
-4.1406 -16.2344 -0.19510000000000002 243
-13.960899999999999 -54.7812 9.9609 59
-1.2949000000000002 -5.0195 -0.7837000000000001 132
-1.3018 -5.043 -0.6646 243
-13.9922 -54.2188 3.2558999999999996 92
-1.4824000000000002 -5.7422 -0.48100000000000004 191
-8.6328 -33.4688 3.627 229
-9.2656 -35.9062 4.7656 246
-13.906199999999998 -53.9062 8.4844 79
-4.1875 -16.2344 -0.19519999999999998 125
-13.898399999999999 -53.875 9.8047 92
-1.3174000000000001 -5.0352 -0.9106000000000001 237
-1.3096 -5.0039 -0.7827 44
-11.476600000000001 -43.8438 1.5811000000000002 142
-10.335899999999999 -39.5 2.373 105
-3.7188 -14.218800000000002 -1.1963 183
-8.9062 -34.0312 3.6933999999999996 162
-9.3047 -35.5938 4.7266 29
-13.8906 -53.125 8.3672 230
-4.2617 -16.2969 -0.196 111
-13.875 -53.0312 9.6562 168
-1.3457 -5.0703 -0.9175 143
-9.7188 -36.5938 0.44189999999999996 83
-1.3311000000000002 -5.0117 -0.7842 78
-8.8828 -33.4688 1.207 74
-1.3477000000000001 -5.0781 -0.6704000000000001 142
-8.9766 -33.8125 2.0332 54
-3.7733999999999996 -14.210899999999999 -1.1973 238
-8.6875 -32.7188 3.5526999999999997 41
-9.5 -35.7812 4.7578 199
-13.8672 -52.2188 8.2344 191
-4.3477 -16.375 -0.1971 137
-13.875 -52.2812 9.5312 13
-1.3643 -5.0703 -0.9179999999999999 19
-13.960899999999999 -51.8438 0.627 245
-1.3486000000000002 -5.0078 -0.7842 173
-9.0312 -33.5312 1.2109 9
-1.3779 -5.1172 -0.6762999999999999 70
-14.0 -52.0 3.1308999999999996 28
-3.8339999999999996 -14.2422 -1.2012 159
-8.8281 -32.7812 3.5625 189
-14.039100000000001 -52.125 6.9414 223
-14.0547 -52.1875 8.2344 1
-4.3984 -16.3281 -0.19690000000000002 148
-14.0625 -52.2188 9.5312 153
-1.3691 -5.0156 -0.7861 201
-9.1094 -33.3438 1.2061 111
-1.3936000000000002 -5.1055 -0.6748000000000001 106
-9.2344 -33.8125 2.0371 83
-3.877 -14.2031 -1.1982 10
-9.2656 -33.9375 3.6914 115
-14.2344 -52.125 6.9453 143
-14.2422 -52.1875 8.2422 133
-10.1562 -37.2188 -0.45020000000000004 184
-14.2578 -52.25 9.5391 122
-1.3838 -5.0 -0.7847 252
-14.3672 -51.9062 1.8788999999999998 133
-1.4091999999999998 -5.0938 -0.6743000000000001 80
-10.593800000000002 -38.2812 2.3086 103
-3.9297000000000004 -14.2031 -1.2002 220
-14.4375 -52.1562 6.957000000000001 174
-14.4375 -52.1562 8.25 9
-10.343800000000002 -37.375 -0.4526 190
-14.4297 -52.1562 9.5312 13
-10.781199999999998 -38.4375 0.4658 12
-1.4072 -5.0195 -0.7881 27
-9.3281 -33.25 1.2041 24
-1.4141 -5.0391 -0.6679999999999999 211
-9.6016 -34.2188 2.0664 88
-3.998 -14.25 -1.2051 6
-13.7656 -49.0625 6.550800000000001 84
-13.8047 -49.2188 7.7852 172
-10.523399999999999 -37.5 -0.4546 134
-13.781199999999998 -49.125 8.9922 43
-1.4102000000000001 -4.9609 -0.9018999999999999 25
-10.914100000000001 -38.4062 0.4658 16
-1.4247999999999998 -5.0117 -0.7881 53
-10.875 -38.25 1.3866999999999998 125
-10.1875 -35.8125 2.1641 12
-4.0508 -14.2422 -1.2061 147
-10.625 -37.375 4.0781 181
-13.7422 -48.3125 6.457000000000001 222
-13.7656 -48.4375 7.671900000000001 151
-13.781199999999998 -48.4688 -0.5884 37
-13.7656 -48.4375 8.8672 128
-1.4394999999999998 -5.0 -0.9097 195
-1.4443000000000001 -5.0156 -0.7890999999999999 0
-9.7344 -33.7812 1.2266 96
-1.4687999999999999 -5.0977 -0.6768000000000001 119
-13.8594 -48.125 2.9101999999999997 33
-4.0977 -14.226600000000001 -1.2051 166
-13.75 -47.75 6.386699999999999 179
-13.7578 -47.75 7.5703 233
-13.7969 -47.9062 -0.5820000000000001 224
-13.75 -47.75 8.75 49
-1.4453 -4.9531 -0.9023 108
-1.4736000000000002 -5.0469 -0.7954000000000001 218
-10.3281 -35.4062 1.2861000000000002 223
-1.4844 -5.0859 -0.6762999999999999 118
-4.1523 -14.218800000000002 -1.2061 71
-9.7734 -33.5 3.6641000000000004 245
-10.3594 -35.5 4.75 80
-13.773399999999999 -47.1875 -0.5742 81
-13.7422 -47.0938 8.6406 210
-1.5059 -5.0898 -0.8031999999999999 221
-11.031199999999998 -37.2812 1.3563999999999998 93
-1.5234 -5.1523 -0.6855 162
-11.039100000000001 -37.3125 2.2617 115
-9.8516 -33.3125 2.8339999999999996 97
-4.207 -14.218800000000002 -1.208 178
-9.9219 -33.5312 3.6699 37
-10.5156 -35.5312 4.7617 246
-13.726600000000001 -46.4062 7.3711 118
-13.7344 -46.4062 -0.5649000000000001 141
-13.710899999999999 -46.3438 8.5156 234
-11.226600000000001 -37.4688 0.45649999999999996 168
-10.1719 -33.9688 2.0605 113
-9.9922 -33.3438 2.8398000000000003 101
-4.2656 -14.2344 -1.21 163
-11.3828 -38.0 4.1641 165
-13.7422 -45.8438 6.1523 142
-13.718800000000002 -45.7812 7.2812 57
-13.75 -45.9062 -0.5596 32
-13.7031 -45.7188 8.4062 53
-13.8047 -45.5625 1.6602000000000001 33
-10.539100000000001 -34.7812 2.1113 239
-10.4922 -34.5938 2.9512 185
-4.3086 -14.218800000000002 -1.21 224
-10.1875 -33.625 3.6875 171
-13.726600000000001 -45.2812 6.082000000000001 113
-13.375 -44.125 7.0234000000000005 128
-13.7344 -45.3125 -0.5527000000000001 27
-13.375 -44.125 8.125 79
-11.1406 -36.3125 1.3252000000000002 221
-10.648399999999999 -34.7188 2.1113 109
-10.6172 -34.625 2.9551 27
-4.3711 -14.2578 -1.2139 202
-13.4375 -43.8125 4.8125 99
-13.4297 -43.7812 5.886699999999999 129
-4.8047 -15.6719 -0.5708 249
-13.4219 -43.75 6.9727 86
-13.875 -45.25 -0.5522 85
-13.414100000000001 -43.75 8.0625 131
-11.3047 -36.375 1.3281 82
-13.5078 -43.4688 2.6464999999999996 209
-10.8672 -34.9688 2.9882999999999997 147
-4.3672 -14.0547 -1.1982 169
-13.4453 -43.2812 4.7578 200
-13.4219 -43.1875 5.8125 166
-4.8789 -15.7031 -0.5722999999999999 53
-13.406199999999998 -43.1562 6.8828 73
-14.0703 -45.2812 -0.5537 94
-13.3906 -43.0938 7.953099999999999 97
-13.4922 -42.875 1.5684 61
-13.4844 -42.875 2.6113 178
-11.0156 -35.0312 2.9961 194
-4.4375 -14.1094 -1.2051 197
-13.4375 -42.7188 4.7031 140
-13.406199999999998 -42.625 5.7422 138
-13.3828 -42.5625 6.796900000000001 168
-13.664100000000001 -43.4375 -0.5317000000000001 106
-13.3828 -42.5312 7.855499999999999 126
-13.468800000000002 -42.2812 1.5478999999999998 239
-13.460899999999999 -42.2812 2.5781 205
-11.039100000000001 -34.6562 2.9668 185
-4.4883 -14.085899999999999 -1.2041 113
-13.3906 -42.0312 5.667999999999999 29
-13.3906 -42.0312 6.7227 73
-13.7656 -43.2188 -0.5293 232
-13.3672 -41.9375 7.7578 44
-9.5078 -29.4844 0.3613 36
-13.468800000000002 -41.7812 1.5303 65
-13.4531 -41.7188 2.5488 5
-11.0781 -34.3438 2.9452999999999996 251
-4.543 -14.085899999999999 -1.2051 165
-4.5742 -14.1797 -0.8643000000000001 222
-13.3906 -41.5312 5.605499999999999 177
-13.375 -41.5 6.640599999999999 162
-13.9375 -43.2188 -0.5303 5
-13.3594 -41.4375 7.671900000000001 221
-9.6016 -29.4375 0.3613 154
-13.4375 -41.2188 1.5116999999999998 64
-13.4375 -41.1875 2.5195 212
-11.1875 -34.3125 2.9452999999999996 130
-4.6328 -14.2031 -1.2168 32
-11.6953 -35.875 3.9608999999999996 247
-4.6328 -14.210899999999999 -0.8672 214
-13.3203 -40.8438 5.5234000000000005 240
-9.5156 -29.1875 -1.0703 252
-13.343800000000002 -40.9062 6.5547 7
-14.7656 -45.2812 -0.5562 0
-13.3594 -40.9688 7.5898 165
-13.398399999999999 -40.625 1.4922 178
-13.4219 -40.6875 2.4902 35
-13.4453 -40.7812 3.5039 195
-4.6875 -14.210899999999999 -1.2187999999999999 131
-13.4531 -40.8125 4.5117 131
-4.7031 -14.2578 -0.8711 133
-13.468800000000002 -40.8438 5.5273 209
-13.4844 -40.9062 6.5586 129
-14.898399999999999 -45.1875 -0.5552 213
-13.5078 -40.9688 7.5977 42
-13.5625 -40.625 1.4941 233
-13.585899999999999 -40.6875 2.4941 111
-13.6094 -40.7812 3.5077999999999996 236
-4.7305 -14.1719 -1.2168 161
-13.601600000000001 -40.75 4.5117 56
-4.7734 -14.2969 -0.8740000000000001 151
-13.5781 -40.6875 5.511699999999999 2
-13.5703 -40.6562 6.5312 109
-13.601600000000001 -40.75 -0.5015 220
-13.6094 -40.7812 7.5703 56
-13.6875 -40.5312 1.4922 234
-13.6953 -40.5312 2.4883 117
-13.625 -40.3438 3.4745999999999997 246
-4.7969 -14.2031 -1.2207 173
-12.101600000000001 -35.8438 3.9707 124
-13.6406 -40.375 5.4765999999999995 16
-13.5625 -40.1562 6.457000000000001 206
-13.6328 -40.375 -0.49729999999999996 124
-13.710899999999999 -40.5938 7.550800000000001 53
-12.5703 -36.8125 0.4539 120
-12.039100000000001 -35.25 2.1641 123
-13.585899999999999 -39.7812 3.4297000000000004 28
-13.5469 -39.6562 6.3828 84
-13.789100000000001 -40.375 -0.4978 60
-13.5469 -39.2188 1.4472999999999998 187
-12.1094 -35.0625 2.1543 237
-13.593800000000002 -39.3438 3.3964999999999996 220
-13.5781 -39.3125 4.3672 129
-13.5625 -39.25 5.3359000000000005 224
-13.531199999999998 -39.1562 6.3125 84
-14.843800000000002 -42.9688 -0.5307999999999999 71
-13.5156 -39.0938 7.2890999999999995 151
-12.7578 -36.5312 0.4514 212
-13.5547 -38.7812 1.4336000000000002 215
-13.6172 -38.9688 2.3984 237
-13.5781 -38.8438 3.3594 156
-13.531199999999998 -38.7188 4.3047 176
-13.5469 -38.7812 5.2773 187
-13.5703 -38.8438 -1.4346 108
-13.523399999999999 -38.6875 6.2422 49
-13.5469 -38.7812 -0.47950000000000004 219
-13.5078 -38.6562 7.2148 146
-12.835899999999999 -36.3438 0.4497 52
-13.5625 -38.4062 1.4199000000000002 183
-13.6094 -38.5 2.373 184
-13.5703 -38.4062 3.3242000000000003 62
-13.5078 -38.25 4.2578 206
-13.625 -38.5625 5.2539 233
-13.5625 -38.4062 -1.4199000000000002 157
-13.523399999999999 -38.25 6.1836 30
-13.5625 -38.375 -0.47509999999999997 94
-13.460899999999999 -38.0938 7.1172 152
-12.960899999999999 -36.2812 0.4497 62
-13.5469 -37.9062 1.4043 26
-13.6797 -38.2812 2.3633 71
-13.539100000000001 -37.9062 3.2851999999999997 96
-13.5078 -37.8125 4.2148 89
-13.5156 -37.8438 6.1211 233
-13.593800000000002 -38.0625 -0.4717 203
-13.460899999999999 -37.6562 7.046900000000001 26
-13.0625 -36.1562 0.4487 81
-13.523399999999999 -37.4375 1.3887 228
-13.5469 -37.5 3.2539 98
-13.4844 -37.3438 4.168 49
-13.4922 -37.3438 5.1016 114
-13.4453 -37.2188 6.9727 253
-13.2031 -36.1562 0.44920000000000004 70
-13.5078 -37.0 1.374 67
-13.5547 -37.125 2.2969 165
-13.523399999999999 -37.0312 3.2168 155
-13.468800000000002 -36.9062 4.125 220
-13.5156 -37.0312 5.0625 43
-13.5 -36.9688 -1.3721 224
-13.4922 -36.9375 -0.45899999999999996 173
-13.5078 -37.0 6.9375 78
-13.3281 -36.0938 0.44920000000000004 50
-13.4922 -36.5625 1.3594 56
-13.539100000000001 -36.6875 2.2715 204
-13.523399999999999 -36.6562 3.1875 239
-13.460899999999999 -36.4688 4.082 25
-9.2422 -25.0469 3.4297000000000004 46
-13.5 -36.5625 -1.3594 114
-13.4844 -36.5312 -0.4546 166
-13.4375 -36.4062 6.8359000000000005 115
-13.4375 -36.0312 0.4487 58
-13.476600000000001 -36.1562 1.3457 90
-13.5156 -36.25 2.248 203
-13.5078 -36.2188 3.1543 202
-13.476600000000001 -36.125 4.0508 73
-13.460899999999999 -36.0938 4.9492 254
-13.4922 -36.1875 -1.3466999999999998 185
-13.476600000000001 -36.125 -0.45020000000000004 141
-13.4453 -36.0625 6.7773 164
-13.5156 -35.875 0.4475 65
-13.476600000000001 -35.7812 1.3330000000000002 178
-13.5078 -35.8438 2.2266 141
-13.4844 -35.7812 3.1211 8
-13.476600000000001 -35.7812 4.0156 97
-9.4297 -25.0312 3.4355 95
-13.4844 -35.7812 -1.334 187
-13.4922 -35.8125 5.832000000000001 87
-13.460899999999999 -35.75 -0.4458 19
-13.4844 -35.8125 6.738300000000001 246
-13.5547 -35.5625 0.4443 62
-13.5469 -35.5312 1.3262 20
-13.5781 -35.625 2.2148 36
-13.593800000000002 -35.6562 3.1151999999999997 241
-9.5234 -24.9844 3.4336 84
-13.5156 -35.4688 -1.3232 43
-13.6328 -35.7812 5.832000000000001 127
-13.523399999999999 -35.5 -0.4434 199
-13.4844 -35.375 6.667999999999999 255
-9.625 -24.9844 0.3123 160
-13.718800000000002 -35.625 2.2188 242
-9.6328 -25.0156 2.8125 183
-9.6172 -24.9688 3.4355 136
-13.6406 -35.4375 -1.3241999999999998 42
-9.6875 -25.1562 4.1055 171
-13.664100000000001 -35.5 -0.44380000000000003 199
-13.468800000000002 -34.9688 6.6015999999999995 144
-9.6797 -24.8906 0.31129999999999997 125
-9.6719 -24.8594 0.9297 24
-9.6797 -24.8906 1.5518 106
-9.7031 -24.9531 2.1836 126
-9.6797 -24.8906 2.8026999999999997 229
-9.7109 -24.9688 3.4414 227
-9.6406 -24.7969 -0.9272 22
-13.9219 -35.8125 5.8515999999999995 121
-9.6328 -24.7656 -0.3098 241
-13.460899999999999 -34.625 6.542999999999999 35
-9.7656 -24.8594 0.9312 52
-14.0 -35.6562 2.2266 165
-14.0078 -35.6875 3.127 36
-9.8125 -24.9844 3.4473000000000003 54
-9.7344 -24.7812 -0.9277 144
-14.0156 -35.6875 5.8398 41
-9.7344 -24.7812 -0.3105 226
-13.4219 -34.1875 6.4648 217
-2.9707 -7.480499999999999 -1.0303 183
-14.085899999999999 -35.5 2.2188 208
-14.0703 -35.4375 3.1113 111
-9.9219 -24.9844 3.4531 38
-9.3984 -23.6719 -0.8876999999999999 234
-14.031199999999998 -35.3438 -0.44380000000000003 214
-13.4219 -33.8125 6.4102 240
-14.085899999999999 -35.125 2.1992 10
-14.0547 -35.0312 3.0801 129
-13.4844 -33.625 3.8047000000000004 26
-9.5 -23.6875 -0.8896 146
-14.023399999999999 -34.9688 -0.4399 250
-10.0781 -25.1406 4.7695 20
-2.8457 -7.0273 -1.3291 222
-14.0703 -34.75 0.4375 170
-2.9336 -7.2422 -1.1845999999999999 239
-14.093800000000002 -34.8125 2.1816 82
-14.0469 -34.6562 3.0526999999999997 107
-10.125 -25.0 3.4629000000000003 237
-14.0547 -34.6875 -1.3056999999999999 44
-14.0469 -34.6875 -0.4368 160
-13.351600000000001 -32.9688 6.265599999999999 254
-2.8535000000000004 -6.9727 -1.3213 185
-14.0703 -34.375 0.4336 189
-2.957 -7.230499999999999 -1.1845999999999999 6
-13.406199999999998 -32.7812 2.0566 154
-13.406199999999998 -32.7812 2.8887 86
-13.375 -32.6875 3.707 103
-13.335899999999999 -32.5938 4.5234 109
-13.3594 -32.6562 5.375 206
-14.085899999999999 -34.4375 -0.4341 77
-13.351600000000001 -32.625 6.2109000000000005 45
-2.8711 -6.949199999999999 -1.3184 198
-13.4219 -32.4688 0.4102 158
-2.8691000000000004 -6.9453 -1.1396 223
-13.406199999999998 -32.4375 1.2246 244
-13.4219 -32.4688 2.041 231
-13.398399999999999 -32.4375 2.8613 107
-13.375 -32.375 3.6757999999999997 82
-13.3281 -32.25 4.4844 4
-13.3906 -32.4062 -1.2227 227
-13.375 -32.375 5.332000000000001 18
-13.3672 -32.3438 -0.40840000000000004 224
-13.343800000000002 -32.2812 6.1523 66
-2.9004000000000003 -6.949199999999999 -1.3203 238
-13.4219 -32.1562 0.4067 36
-2.8632999999999997 -6.863300000000001 -1.127 149
-13.406199999999998 -32.125 1.2139 151
-13.398399999999999 -32.125 2.0215 34
-13.398399999999999 -32.0938 2.8379000000000003 80
-13.3672 -32.0312 3.6426 62
-13.3203 -31.9219 4.4414 78
-13.3906 -32.0938 -1.2119 204
-13.3594 -32.0 5.2812 199
-13.3594 -32.0312 -0.4048 104
-13.343800000000002 -31.9688 6.1015999999999995 166
-2.8827999999999996 -6.8398 -1.3018 149
-13.414100000000001 -31.8438 0.4031 58
-2.8516000000000004 -6.765599999999999 -1.1133 175
-13.3906 -31.7812 1.2021 248
-13.398399999999999 -31.8125 2.0059 191
-13.375 -31.75 2.8105 94
-13.3672 -31.7344 3.6151999999999997 86
-13.3047 -31.5781 4.4023 237
-13.3672 -31.7188 -1.2002 29
-13.335899999999999 -31.6562 5.230499999999999 148
-13.351600000000001 -31.6875 -0.4014 106
-13.3281 -31.6406 6.046900000000001 228
-2.9336 -6.890599999999999 -1.3135 30
-13.406199999999998 -31.5 0.3994 55
-2.8613 -6.7227 -1.1074 129
-13.3828 -31.4531 1.1914 244
-13.3828 -31.4531 1.9863 57
-13.375 -31.4375 2.7870999999999997 89
-13.351600000000001 -31.375 3.5801 55
-13.3125 -31.2812 4.3672 112
-13.351600000000001 -31.3906 -1.1895 86
-13.3281 -31.3281 5.1875 30
-13.343800000000002 -31.3594 -0.39770000000000005 150
-13.3125 -31.2812 5.988300000000001 230
-2.9120999999999997 -6.7773 -1.2930000000000001 139
-13.406199999999998 -31.2031 0.3962 159
-2.9062 -6.761699999999999 -1.1162 167
-13.375 -31.1406 1.1816 104
-13.3828 -31.1562 1.9707 77
-13.3594 -31.1094 2.7617000000000003 92
-13.343800000000002 -31.0625 3.5488 162
-13.3047 -30.9688 4.3281 201
-13.343800000000002 -31.0625 -1.1787 166
-13.3281 -31.0156 5.140599999999999 107
-13.335899999999999 -31.0469 -0.3943 190
-13.3125 -31.0 5.9414 160
-2.8358999999999996 -6.5352 -1.249 54
-13.3828 -30.8438 0.3923 48
-2.8964999999999996 -6.675800000000001 -1.1035 159
-13.375 -30.8281 1.1719 136
-13.375 -30.8281 1.9531 222
-13.3594 -30.8125 2.7401999999999997 237
-13.335899999999999 -30.75 3.5195 208
-13.3125 -30.6875 4.2969 102
-13.343800000000002 -30.7656 -1.1689 93
-13.3125 -30.6875 5.0938 216
-13.3281 -30.7344 -0.3909 209
-13.2969 -30.6562 5.8828 133
-2.8535000000000004 -6.515599999999999 -1.2470999999999999 19
-13.3828 -30.5469 0.3892 146
-2.9375 -6.707000000000001 -1.1104 101
-13.3672 -30.5312 1.1621 162
-13.3672 -30.5156 1.9365 126
-13.351600000000001 -30.4844 2.7148000000000003 208
-13.335899999999999 -30.4531 3.4901999999999997 80
-13.3203 -30.4062 4.2656 16
-13.3203 -30.4219 -1.1582 1
-13.3125 -30.4062 5.0547 9
-13.3203 -30.4219 -0.3875 227
-13.289100000000001 -30.3438 5.832000000000001 225
-2.8672000000000004 -6.484400000000001 -1.2422 170
-13.3672 -30.2344 0.3857 232
-13.3594 -30.2188 1.1514 178
-13.3594 -30.2188 1.9188999999999998 29
-13.343800000000002 -30.1875 2.6933999999999996 110
-13.3203 -30.125 3.457 168
-13.3125 -30.1094 4.2305 36
-13.2969 -30.0781 -1.1465 31
-13.3047 -30.0938 5.0117 40
-13.3125 -30.1094 -0.384 26
-13.3047 -30.0938 5.792999999999999 103
-2.8867000000000003 -6.4688 -1.2422 102
-13.3672 -29.9531 0.38280000000000003 216
-13.343800000000002 -29.9062 1.1416 3
-13.3203 -29.8438 1.8984 156
-13.335899999999999 -29.8906 2.6699 44
-13.3047 -29.8125 3.4276999999999997 109
-13.3047 -29.8125 4.1953 141
-13.2969 -29.7969 -1.1377 65
-13.2969 -29.7969 4.9688 77
-13.2969 -29.7969 -0.38060000000000005 82
-13.289100000000001 -29.7812 5.7422 124
-13.375 -29.6875 0.3799 64
-13.335899999999999 -29.6094 1.1318000000000001 179
-13.3125 -29.5625 1.8838 55
-13.335899999999999 -29.6094 2.6483999999999996 151
-13.3125 -29.5469 3.4004000000000003 167
-13.2969 -29.5312 4.1602 174
-13.289100000000001 -29.5 -1.1279000000000001 225
-13.289100000000001 -29.5 4.9258 31
-13.289100000000001 -29.5 -0.3774 235
-13.273399999999999 -29.4531 5.6914 183
-13.343800000000002 -29.375 0.3765 11
-13.3203 -29.3125 1.123 246
-13.281199999999998 -29.25 1.8662 254
-13.3047 -29.2812 2.625 219
-13.2969 -29.2656 3.375 103
-13.281199999999998 -29.2344 4.125 244
-13.273399999999999 -29.2344 -1.1191 33
-13.281199999999998 -29.2344 4.8906 141
-13.281199999999998 -29.25 -0.37479999999999997 112
-13.2656 -29.2031 5.6484000000000005 211
-13.3203 -29.0625 0.373 91
-13.3125 -29.0625 1.1143 127
-13.289100000000001 -29.0 1.8535 106
-13.3047 -29.0312 2.6055 8
-13.3047 -29.0312 3.3516000000000004 147
-13.281199999999998 -28.9844 4.0977 87
-13.2656 -28.9375 -1.1104 170
-13.3203 -29.0781 4.8711 237
-13.281199999999998 -28.9844 -0.3721 211
-13.3281 -29.0938 5.6328 230
-13.335899999999999 -28.8281 0.37060000000000004 67
-13.351600000000001 -28.8438 1.1084 65
-13.351600000000001 -28.8594 1.8477000000000001 36
-13.375 -28.9062 2.5976999999999997 14
-13.414100000000001 -29.0 3.3535000000000004 157
-13.406199999999998 -28.9844 4.1016 219
-13.3047 -28.75 -1.1045 159
-13.4375 -29.0469 4.875 59
-13.3047 -28.7656 -0.3696 222
-13.4531 -29.0781 5.644500000000001 70
-2.8808999999999996 -6.167999999999999 -1.1934 41
-13.4922 -28.9062 0.3721 214
-13.468800000000002 -28.8438 1.1104 59
-13.476600000000001 -28.8594 1.8506 24
-13.5 -28.9062 2.6035000000000004 147
-13.531199999999998 -28.9688 3.3555 141
-13.531199999999998 -28.9844 4.1094 33
-13.5469 -29.0156 4.8789 178
-13.5781 -29.0781 5.6523 106
-2.9160000000000004 -6.1875 -1.1992 153
-13.585899999999999 -28.8281 0.3718 169
-13.5703 -28.7969 1.1094 71
-13.601600000000001 -28.8438 1.8535 238
-13.6328 -28.9219 2.6074 195
-13.648399999999999 -28.9531 3.3594 208
-13.664100000000001 -28.9844 4.1172 147
-13.6875 -29.0312 4.8867 191
-13.585899999999999 -28.8125 -0.3716 128
-13.7031 -29.0625 5.6602 129
-13.726600000000001 -28.8594 0.3728 33
-13.710899999999999 -28.8125 1.1123 2
-13.726600000000001 -28.8438 1.8563999999999998 52
-13.7578 -28.9219 2.6132999999999997 233
-13.7656 -28.9531 3.3651999999999997 90
-13.781199999999998 -28.9688 4.1211 94
-13.8125 -29.0312 4.8984 21
-13.6719 -28.7344 -0.3711 160
-13.8281 -29.0625 5.667999999999999 153
-2.8535000000000004 -5.9453 -1.1553 61
-13.8281 -28.8281 0.373 22
-13.835899999999999 -28.8438 1.1152 138
-13.8281 -28.8281 1.8574000000000002 85
-13.8672 -28.9062 2.6151999999999997 247
-13.898399999999999 -28.9688 3.3711 254
-13.898399999999999 -28.9688 4.1289 32
-13.9297 -29.0312 4.9023 116
-13.8281 -28.8125 -0.3728 175
-13.9453 -29.0625 5.675800000000001 134
-2.8672000000000004 -5.925800000000001 -1.1533 102
-13.976600000000001 -28.8906 0.37450000000000006 103
-13.9297 -28.7969 1.1152 92
-13.960899999999999 -28.8438 1.8622999999999998 121
-13.976600000000001 -28.8906 2.6191000000000004 26
-14.0078 -28.9531 3.375 81
-14.0156 -28.9688 4.1328 170
-14.039100000000001 -29.0156 4.9102 243
-13.9453 -28.8125 -0.3735 243
-14.0625 -29.0625 5.6875 214
-14.085899999999999 -28.8438 0.37450000000000006 100
-13.0781 -26.7812 1.0391 125
-2.8983999999999996 -5.9336 -0.8442000000000001 79
-14.085899999999999 -28.8438 1.8643 209
-14.1094 -28.8906 2.623 148
-14.125 -28.9219 3.3789 168
-14.1406 -28.9531 4.1406 150
-14.1719 -29.0156 4.918 194
-13.085899999999999 -26.7969 -0.3479 118
-14.2031 -29.0781 5.699199999999999 136
-13.1875 -26.7656 0.3479 80
-13.1172 -26.6094 1.0342 108
-14.2031 -28.8281 1.8672 28
-14.2422 -28.9062 2.6289 138
-14.2578 -28.9375 3.3867000000000003 188
-14.281199999999998 -28.9844 4.1484 133
-13.164100000000001 -26.7188 -1.0381 248
-14.2969 -29.0312 4.9258 65
-13.164100000000001 -26.7188 -0.34740000000000004 124
-14.3125 -29.0469 5.703099999999999 214
-13.210899999999999 -26.5781 0.34619999999999995 19
-13.218800000000002 -26.5938 1.0352 163
-14.3203 -28.8125 1.8691 73
-14.3672 -28.9062 2.6327999999999996 209
-14.3906 -28.9531 3.3926 172
-14.398399999999999 -28.9688 4.1562 222
-13.1875 -26.5312 -1.0332 81
-14.4219 -29.0156 4.9336 49
-13.164100000000001 -26.4844 -0.345 49
-14.4375 -29.0469 5.7109000000000005 234
-13.2656 -26.4531 0.3452 39
-13.2422 -26.4062 1.0303 88
-14.4531 -28.8125 1.8730000000000002 7
-14.4922 -28.9062 2.6367000000000003 100
-14.5156 -28.9531 3.3983999999999996 20
-14.5156 -28.9531 4.1602 185
-13.218800000000002 -26.3594 -1.0283 185
-14.5469 -29.0156 4.9453 255
-13.2031 -26.3438 -0.34380000000000005 129
-14.5703 -29.0469 5.7227 7
-13.3672 -26.4375 0.3455 53
-13.2344 -26.1562 1.0215 246
-14.5781 -28.8281 1.8769999999999998 229
-14.6094 -28.8906 2.6406 20
-14.6406 -28.9375 3.4043 53
-14.648399999999999 -28.9688 4.168 12
-13.210899999999999 -26.125 -1.0205 75
-14.6797 -29.0156 4.9531 114
-13.1953 -26.0938 -0.3411 135
-14.6875 -29.0469 5.730499999999999 50
-13.2344 -25.9531 0.3398 38
-13.210899999999999 -25.8906 1.0137 154
-14.7031 -28.8125 1.8799000000000001 213
-14.726600000000001 -28.875 2.6445 21
-14.7578 -28.9219 3.4082 163
-14.773399999999999 -28.9531 4.1758 152
-13.210899999999999 -25.8906 -1.0137 113
-14.8047 -29.0156 4.9609 88
-13.1797 -25.8281 -0.3381 75
-14.8203 -29.0469 5.7422 181
-13.2422 -25.7344 0.33740000000000003 190
-13.210899999999999 -25.6719 1.0059 10
-14.835899999999999 -28.8125 1.8828 217
-14.8672 -28.875 2.6483999999999996 57
-14.8828 -28.9219 3.4141000000000004 151
-14.898399999999999 -28.9531 4.1836 70
-13.210899999999999 -25.6562 -1.0059 146
-14.9219 -28.9844 4.9648 34
-13.2031 -25.6562 -0.33640000000000003 63
-14.9531 -29.0469 5.7539 180
-13.226600000000001 -25.4844 0.3347 190
-13.210899999999999 -25.4531 0.9995 95
-14.9531 -28.7969 1.8857 164
-14.9922 -28.875 2.6543 5
-15.0156 -28.9219 3.4199 13
-15.023399999999999 -28.9375 4.1875 101
-13.2969 -25.6094 -1.0059 8
-15.0625 -29.0 4.9766 196
-13.2969 -25.6094 -0.3367 97
-15.0625 -29.0156 5.7578 10
-13.218800000000002 -25.25 0.3323 150
-13.1953 -25.2031 0.9917 165
-15.0703 -28.7969 1.8887 246
-15.1172 -28.8906 2.6601999999999997 158
-15.148399999999999 -28.9375 3.4297000000000004 141
-15.1406 -28.9219 4.1953 67
-13.4219 -25.6406 -1.0088 244
-15.1797 -29.0 4.9844 100
-15.1875 -29.0156 5.769500000000001 188
-13.2031 -25.0156 0.3298 235
-13.1875 -24.9844 0.9849 87
-15.1953 -28.7969 1.8916 239
-15.226600000000001 -28.8594 2.6620999999999997 122
-15.2656 -28.9219 3.4316000000000004 88
-15.2656 -28.9375 4.2031 212
-14.023399999999999 -26.5781 -1.0479 208
-15.3047 -29.0 4.9922 100
-14.0703 -26.6719 -0.3518 176
-15.3125 -29.0156 5.7773 86
-13.1953 -24.7969 0.3276 208
-13.1719 -24.75 0.9771 61
-2.8848000000000003 -5.421900000000001 -0.7847 88
-15.3281 -28.7969 1.8955000000000002 93
-15.3594 -28.8594 2.6660000000000004 129
-15.398399999999999 -28.9375 3.4395 38
-15.406199999999998 -28.9531 4.2148 1
-15.4219 -28.9844 5.0 221
-14.1875 -26.6562 -0.35229999999999995 216
-15.4453 -29.0312 5.7890999999999995 89
-13.1953 -24.5938 0.32539999999999997 36
-13.1719 -24.5469 0.9712000000000001 226
-2.8613 -5.3359000000000005 -0.7734000000000001 103
-15.4531 -28.7969 1.8994 148
-15.4922 -28.875 2.6738 31
-15.5078 -28.9219 3.4433999999999996 195
-15.523399999999999 -28.9531 4.2188 35
-15.5547 -29.0 5.0117 39
-14.3047 -26.6719 -0.353 1
-15.5703 -29.0156 5.800800000000001 169
-13.1875 -24.3594 0.3232 225
-13.1797 -24.3438 0.9653 34
-15.5781 -28.7812 1.9013999999999998 47
-15.625 -28.8594 2.6776999999999997 176
-15.656199999999998 -28.9219 3.4512 61
-15.664100000000001 -28.9219 4.2266 134
-15.6875 -28.9844 5.0195 25
-14.4219 -26.6406 -0.3533 78
-15.7031 -29.0 5.8086 91
-13.164100000000001 -24.1094 0.32030000000000003 244
-13.1719 -24.125 0.958 155
-15.710899999999999 -28.7812 1.9053 232
-15.773399999999999 -28.8906 2.6855 34
-15.781199999999998 -28.9062 3.457 57
-15.781199999999998 -28.9062 4.2305 148
-15.898399999999999 -29.125 5.0547 158
-14.531199999999998 -26.625 -0.3538 60
-15.9453 -29.2031 5.859400000000001 55
-13.1875 -23.9531 0.3188 40
-13.164100000000001 -23.9062 0.9517 78
-15.851600000000001 -28.7969 1.9102000000000001 205
-15.9375 -28.9375 2.6952999999999996 81
-15.914100000000001 -28.9062 3.4629000000000003 231
-15.914100000000001 -28.9062 4.2383 134
-16.0156 -29.0781 5.0547 45
-14.656199999999998 -26.625 -0.35450000000000004 60
-16.0781 -29.2031 5.8711 60
-13.1797 -23.7344 0.31670000000000004 130
-13.156199999999998 -23.6875 0.9443 240
-15.9844 -28.7812 1.9131 2
-16.0938 -29.0 2.7051 88
-16.0312 -28.875 3.4668 221
-16.0469 -28.9062 4.25 92
-16.1562 -29.1094 5.0703 61
-14.7969 -26.6406 -0.3555 143
-16.2031 -29.1719 5.875 237
-13.164100000000001 -23.5469 0.3145 121
-13.156199999999998 -23.5156 0.9395 208
-16.0938 -28.7812 1.916 136
-16.2031 -28.9688 2.707 103
-16.1562 -28.8906 3.4745999999999997 58
-16.1719 -28.9219 4.2578 135
-16.3125 -29.1562 5.0859 71
-14.914100000000001 -26.6719 -0.3564 40
-16.3281 -29.1875 5.890599999999999 167
-13.148399999999999 -23.3281 0.3123 141
-13.148399999999999 -23.3281 0.9336 30
-16.2188 -28.7812 1.9199000000000002 61
-16.3281 -28.9844 2.7129000000000003 54
-2.9785000000000004 -5.2812 -0.4917 134
-16.2812 -28.8906 3.4824 62
-16.3125 -28.9219 4.2656 209
-16.4688 -29.2188 5.1094 94
-13.0781 -23.2031 -0.3105 93
-16.4531 -29.1875 5.9023 186
-13.1406 -23.0938 0.3098 199
-13.1406 -23.0938 0.9262999999999999 185
-16.375 -28.7812 1.9247999999999998 88
-16.5 -29.0 2.7226999999999997 177
-16.4375 -28.875 3.4882999999999997 57
-16.4375 -28.8906 4.2695 225
-16.625 -29.2031 5.1172 175
-13.1094 -23.0312 -0.3091 80
-16.625 -29.2031 5.917999999999999 25
-13.156199999999998 -22.9219 0.3081 219
-13.1406 -22.9062 0.9204000000000001 54
-16.5156 -28.7812 1.9277000000000002 242
-3.1151999999999997 -5.425800000000001 -0.6533 35
-16.5625 -28.8594 2.7148000000000003 122
-16.5781 -28.875 3.4941000000000004 207
-3.0547000000000004 -5.3203 -0.3542 55
-16.5781 -28.8906 4.2773 213
-16.75 -29.1875 5.125 47
-13.125 -22.8594 -0.3074 218
-16.7656 -29.2031 5.9297 246
-13.1328 -22.7188 0.9146 122
-16.6406 -28.7812 1.9316 0
-3.082 -5.332000000000001 -0.6426000000000001 122
-16.7969 -29.0469 2.7363 132
-3.0918 -5.3477 -0.501 146
-16.7031 -28.875 3.502 130
-16.7031 -28.8906 4.2891 197
-16.8594 -29.1406 5.1289 74
-13.101600000000001 -22.6562 -0.30519999999999997 12
-16.9062 -29.2188 5.9453 248
-13.1406 -22.5469 0.9097 150
-16.7812 -28.7969 1.9365 0
-16.9375 -29.0625 2.7441000000000004 127
-16.8281 -28.875 3.5077999999999996 162
-16.8438 -28.8906 4.2969 191
-16.9375 -29.0625 5.125 171
-13.0625 -22.4062 -0.3025 244
-16.9375 -29.0625 5.921900000000001 179
-13.1328 -22.3594 0.9037999999999999 7
-13.1328 -22.375 1.5068000000000001 226
-16.9688 -28.8906 2.7324 184
-16.9531 -28.8594 3.5137 195
-16.9688 -28.8906 4.3047 65
-17.0 -28.9531 5.1133 175
-13.125 -22.3594 -0.30219999999999997 1
-17.0156 -28.9688 5.917999999999999 163
-13.125 -22.1875 0.8984000000000001 200
-13.1094 -22.1562 1.4950999999999999 85
-17.0469 -28.8125 2.7324 233
-3.1836 -5.3789 -0.5068 152
-17.0781 -28.875 3.5214999999999996 189
-17.0938 -28.8906 4.3125 134
-17.125 -28.9531 5.1211 241
-13.156199999999998 -22.25 -0.3013 159
-17.1406 -28.9844 5.9297 60
-13.1328 -21.9844 0.8926000000000001 127
-13.1094 -21.9531 1.4853999999999998 225
-17.1875 -28.7969 2.7363 86
-3.1836 -5.332000000000001 -0.5039 56
-17.2344 -28.8594 3.5293 232
-17.2344 -28.8594 4.3203 251
-17.2812 -28.9375 5.1328 75
-13.2422 -22.1719 -0.301 59
-17.2969 -28.9688 5.9414 186
-13.1328 -21.8125 0.8872 38
-13.101600000000001 -21.7656 1.4756 66
-17.3438 -28.7969 2.7422000000000004 96
-3.1914 -5.300800000000001 -0.502 157
-17.375 -28.8594 3.5370999999999997 78
-17.3906 -28.8906 4.332 240
-3.1387 -5.2148 -0.2107 44
-17.4062 -28.9219 5.140599999999999 152
-17.4375 -28.9531 5.953099999999999 27
-13.125 -21.6406 0.8818 108
-13.093800000000002 -21.5938 1.4668 64
-17.4531 -28.7812 2.7461 133
-3.2207 -5.3125 -0.5039 132
-17.5 -28.8438 3.5410000000000004 1
-17.5 -28.875 4.3359 130
-17.5312 -28.9219 5.1523 109
-13.5156 -22.2812 -0.304 233
-17.5625 -28.9531 5.9648 211
-13.1406 -21.5 0.2937 10
-13.1172 -21.4688 0.8765000000000001 82
-13.093800000000002 -21.4375 1.459 226
-17.5938 -28.7969 2.752 121
-3.2344 -5.292999999999999 -0.5029 166
-17.6406 -28.8594 3.5507999999999997 40
-17.6406 -28.8594 4.3477 78
-17.6719 -28.9375 5.1640999999999995 147
-13.0625 -21.3906 -0.2922 43
-17.6875 -28.9531 5.9765999999999995 232
-13.1094 -21.2812 0.8711 13
-13.093800000000002 -21.2656 1.4502000000000002 187
-17.7344 -28.7969 2.7577999999999996 8
-3.2577999999999996 -5.292999999999999 -0.5039 71
-17.7656 -28.8594 3.5566000000000004 202
-17.7656 -28.8594 4.3555 228
-17.8125 -28.9375 5.175800000000001 14
-13.0625 -21.2188 -0.2905 247
-17.8281 -28.9531 5.988300000000001 24
-13.093800000000002 -21.1094 0.8656999999999999 170
-13.093800000000002 -21.1094 1.4424000000000001 225
-17.8438 -28.7812 2.7617000000000003 46
-3.2714999999999996 -5.2734000000000005 -0.5034000000000001 212
-17.8906 -28.8438 3.5625 234
-17.9062 -28.875 4.3633 151
-17.9219 -28.9062 5.1797 34
-13.0703 -21.0625 -0.2891 125
-17.9688 -28.9688 6.0039 30
-13.093800000000002 -20.9375 0.8604 158
-7.625 -12.1953 0.8345 247
-18.0 -28.8125 2.7714999999999996 252
-3.3066000000000004 -5.2890999999999995 -0.5059 9
-18.0312 -28.8438 3.5723000000000003 35
-18.0312 -28.8594 4.3711 164
-18.0781 -28.9219 5.1953 85
-13.0703 -20.9219 -0.2876 41
-18.1094 -28.9688 6.015599999999999 241
-13.0703 -20.7656 0.855 62
-13.0703 -20.75 1.4238 40
-7.5 -11.906199999999998 1.1455 153
-3.3398000000000003 -5.3047 -0.5083 230
-18.1562 -28.8438 3.5781 220
-18.1719 -28.8594 4.3828 180
-18.2031 -28.9062 5.203099999999999 18
-18.2344 -28.9531 6.0273 186
-13.085899999999999 -20.6094 0.8506 146
-13.0781 -20.5938 1.4169999999999998 219
-7.609400000000001 -11.9844 1.1553 245
-3.3301 -5.2422 -0.5039 117
-7.109400000000001 -11.1953 1.3896000000000002 237
-18.3281 -28.8594 4.3906 242
-18.5469 -29.1875 5.265599999999999 111
-18.6094 -29.2969 6.113300000000001 219
-13.0781 -20.4375 0.8452 17
-7.8203 -12.218800000000002 0.8412999999999999 10
-7.6172 -11.898399999999999 1.1504 88
-3.3808999999999996 -5.2812 -0.5088 182
-7.1172 -11.1172 1.3828 72
-18.7188 -29.25 4.4609 36
-18.7656 -29.3125 5.300800000000001 8
-18.7812 -29.3438 6.136699999999999 189
-13.0703 -20.2656 0.8403 51
-13.0703 -20.2656 1.4003999999999999 195
-7.5859000000000005 -11.7578 1.1396 48
-3.4004000000000003 -5.2734000000000005 -0.5088 219
-7.0586 -10.9453 1.3643 210
-18.8594 -29.2344 4.4688 53
-18.9062 -29.3125 5.3125 81
-18.9062 -29.3125 6.140599999999999 157
-13.0625 -20.0938 0.835 137
-7.0273 -10.8125 0.7476 239
-7.0625 -10.8672 1.0547 114
-3.4238 -5.269500000000001 -0.5097999999999999 22
-7.074199999999999 -10.8828 1.3594 231
-18.9688 -29.1875 4.4727 165
-3.0995999999999997 -4.7695 -0.1968 248
-19.0312 -29.2812 5.3203 5
-13.0 -20.0 -0.2781 138
-19.0469 -29.2969 6.1523 30
-13.0625 -19.9375 0.8306 145
-2.9120999999999997 -4.4492 -0.6781999999999999 199
-7.0078 -10.7031 0.7417 197
-7.0547 -10.773399999999999 1.0479 251
-3.4785000000000004 -5.3125 -0.5151 65
-7.6914 -11.7422 1.4707 232
-19.1094 -29.1719 4.4805 226
-19.1719 -29.2812 5.332000000000001 69
-13.0078 -19.8594 -0.2766 130
-19.2031 -29.3281 6.175800000000001 239
-13.039100000000001 -19.7656 0.2761 35
-6.949199999999999 -10.531199999999998 0.4387 38
-6.9648 -10.5547 0.7334 105
-7.0078 -10.625 1.0361 238
-7.0898 -10.7422 1.3477000000000001 101
-7.1562 -10.843800000000002 1.666 29
-19.2812 -29.2344 5.332000000000001 210
-13.0156 -19.7188 -0.2754 66
-19.2656 -29.2031 6.1640999999999995 17
-13.039100000000001 -19.625 0.2747 49
-6.988300000000001 -10.5156 0.439 71
-7.0312 -10.5781 0.7363 22
-7.0 -10.531199999999998 1.0293 15
-7.171900000000001 -10.789100000000001 1.3574000000000002 194
-7.1562 -10.7656 1.6572 142
-19.2812 -29.0156 5.3047 147
-13.023399999999999 -19.5938 -0.2742 55
-19.2656 -28.9844 6.1289 166
-13.039100000000001 -19.4844 0.2732 28
-7.015599999999999 -10.4844 0.4387 244
-7.082000000000001 -10.5781 0.7378 64
-7.011699999999999 -10.476600000000001 1.0264 169
-7.296900000000001 -10.898399999999999 1.374 237
-7.0 -10.4531 1.6133000000000002 143
-6.8047 -10.1641 1.8584 52
-13.0156 -19.4531 -0.2727 68
-19.3594 -28.9219 6.1328 138
-13.0469 -19.3281 0.2717 55
-13.023399999999999 -19.2969 0.8115000000000001 19
-7.1602 -10.6172 0.7422 5
-7.050800000000001 -10.4531 1.0264 162
-7.703099999999999 -11.414100000000001 1.4424000000000001 44
-6.9961 -10.3672 1.6035 21
-6.859400000000001 -10.1641 1.8643 87
-13.0156 -19.2969 -0.2712 144
-19.5156 -28.9219 6.144500000000001 154
-13.0703 -19.2344 0.271 6
-13.031199999999998 -19.1719 0.8076000000000001 132
-7.113300000000001 -10.460899999999999 0.7334 134
-7.171900000000001 -10.5469 1.0381 239
-7.3672 -10.835899999999999 1.3730000000000002 233
-7.203099999999999 -10.593800000000002 1.6425999999999998 161
-7.0977 -10.4375 1.9180000000000001 43
-13.031199999999998 -19.1719 -0.2703 219
-7.046900000000001 -10.3672 2.2031 138
-0.5288 -0.772 -0.1576 55
-13.101600000000001 -19.1406 0.2703 48
-13.039100000000001 -19.0469 0.8042 151
-7.109400000000001 -10.3828 0.7295 100
-7.0664 -10.3203 1.0186 140
-7.7773 -11.3594 1.4424000000000001 16
-19.75 -28.8438 4.4922 144
-6.9688 -10.1719 1.874 123
-13.0469 -19.0625 -0.2693 105
-7.0586 -10.3125 2.1953 61
-13.0781 -18.9688 0.2686 60
-13.023399999999999 -18.8906 0.7993000000000001 128
-7.175800000000001 -10.406199999999998 0.7329000000000001 230
-7.0078 -10.1641 1.0049 61
-7.9023 -11.460899999999999 1.4580000000000002 42
-19.875 -28.8281 4.5 84
-7.050800000000001 -10.2266 1.8877000000000002 111
-13.0469 -18.9219 -0.26780000000000004 232
-7.0586 -10.2344 2.1855 169
-13.125 -18.875 0.2681 173
-13.023399999999999 -18.7344 0.7948999999999999 223
-13.0156 -18.7188 1.3232 140
-7.015599999999999 -10.0859 1.0 129
-6.949199999999999 -9.9922 1.2744 188
-7.1602 -10.2969 1.6084 104
-7.082000000000001 -10.1797 1.8847999999999998 221
-13.101600000000001 -18.8438 -0.2676 143
-7.1523 -10.289100000000001 2.2012 21
-13.210899999999999 -18.8594 0.2686 243
-13.023399999999999 -18.5938 0.7905 200
-7.2265999999999995 -10.3125 0.73 238
-7.074199999999999 -10.1016 1.0039 172
-6.984400000000001 -9.9688 1.2754 205
-20.1875 -28.8125 4.5195 190
-7.019500000000001 -10.0156 1.8584 76
-13.1172 -18.7344 -0.2666 71
-7.203099999999999 -10.281199999999998 2.207 51
-13.2031 -18.7188 0.2668 151
-7.9375 -11.25 0.479 252
-2.8808999999999996 -4.0859 -0.6377 194
-7.238300000000001 -10.2656 0.728 78
-4.0234 -5.703099999999999 -0.7290000000000001 214
-20.2812 -28.75 2.8691000000000004 38
-7.011699999999999 -9.9375 1.2734 49
-7.2265999999999995 -10.2422 1.6074000000000002 55
-7.0664 -10.0156 1.8622999999999998 189
-13.085899999999999 -18.5469 -0.2646 70
-7.175800000000001 -10.1719 2.1875 168
-13.2031 -18.5938 0.2659 112
-7.9414 -11.1797 0.4771 30
-2.9101999999999997 -4.0977 -0.6411 253
-7.234400000000001 -10.1875 0.7241 134
-4.0117 -5.6484000000000005 -0.7236 32
-7.1289 -10.0312 1.002 184
-6.925800000000001 -9.75 1.2529000000000001 71
-7.2422 -10.1953 1.6025 198
-3.3358999999999996 -4.6953 -0.1993 181
-7.0898 -9.9766 1.8603999999999998 53
-13.101600000000001 -18.4531 -0.2637 57
-7.1602 -10.0781 2.1738 224
-13.0156 -18.1719 0.7787999999999999 3
-2.9492000000000003 -4.1211 -0.6459999999999999 40
-6.7852 -9.4766 0.6758 20
-4.0117 -5.605499999999999 -0.7202 190
-7.171900000000001 -10.0234 1.0029000000000001 188
-6.9765999999999995 -9.7422 1.2549 188
-7.125 -9.9531 1.5693000000000001 201
-3.3398000000000003 -4.6641 -0.1986 194
-7.1562 -9.9922 1.8681999999999999 75
-13.1172 -18.3281 -0.2627 28
-7.3164 -10.2188 2.209 111
-7.828099999999999 -10.851600000000001 0.15560000000000002 129
