# .PCD v0.7 - Point Cloud Data file format
VERSION 0.7
FIELDS x y z intensity
SIZE 4 4 4 4
TYPE F F F F
COUNT 1 1 1 1
WIDTH 1216
HEIGHT 1
VIEWPOINT 0 0 0 1 0 0 0
POINTS 1216
DATA ascii
-12.414100000000001 -6.6523 1.1465 90
-6.300800000000001 -3.377 -0.5806 215
-12.351600000000001 -6.6211 1.4678 186
-11.898399999999999 -6.375 1.7305000000000001 92
-12.156199999999998 -6.515599999999999 2.0977 109
-12.4219 -6.6602 -0.16390000000000002 201
-12.1953 -6.5352 2.4316 165
-6.2461 -3.3202999999999996 -1.2393 204
-12.460899999999999 -6.625 0.1642 223
-6.1914 -3.2910000000000004 -1.0625 201
-12.476600000000001 -6.6328 0.4917 188
-6.199199999999999 -3.2949 -0.8979 170
-12.460899999999999 -6.625 0.8184 15
-6.234400000000001 -3.3145 -0.7378 10
-12.4297 -6.605499999999999 1.1465 29
-6.3203 -3.3594 -0.5811 95
-12.3594 -6.5703 1.4668 203
-6.4140999999999995 -3.4082 -0.4199 104
-11.898399999999999 -6.324199999999999 1.7275 252
-12.1797 -6.4727 2.0957 252
-12.4453 -6.613300000000001 -0.16390000000000002 33
-12.210899999999999 -6.488300000000001 2.4297 237
-12.4844 -6.578099999999999 0.1642 121
-6.1836 -3.2598000000000003 -1.0595999999999999 133
-12.476600000000001 -6.578099999999999 0.4907 123
-6.1914 -3.2637 -0.8945000000000001 223
-12.5078 -6.5898 0.8198000000000001 101
-6.234400000000001 -3.2870999999999997 -0.7363 17
-12.4531 -6.5664 1.1465 198
-6.3359000000000005 -3.3379000000000003 -0.5811 141
-12.3906 -6.5312 1.4678 253
-11.875 -6.2578 1.7207 150
-12.1719 -6.4140999999999995 2.0918 84
-12.468800000000002 -6.5703 -0.16390000000000002 173
-12.210899999999999 -6.4336 2.4258 103
-6.1914 -3.2363 -1.2236 178
-12.5156 -6.542999999999999 0.1643 45
-6.1875 -3.2344 -1.0586 9
-12.5078 -6.5390999999999995 0.491 186
-6.1914 -3.2363 -0.8931 95
-12.5547 -6.5625 0.8218000000000001 144
-6.2227 -3.2539 -0.7334 200
-12.5 -6.5312 1.1484 174
-6.3398 -3.3145 -0.5806 199
-12.3594 -6.4609000000000005 1.4619 101
-11.8672 -6.207000000000001 1.7178 197
-12.156199999999998 -6.3515999999999995 2.084 139
-12.476600000000001 -6.5234000000000005 -0.1638 132
-12.210899999999999 -6.3828 2.4219 183
-6.175800000000001 -3.2031 -1.2197 139
-12.5781 -6.5234000000000005 0.1648 228
-6.1953 -3.2129000000000003 -1.0576 54
-12.5547 -6.511699999999999 0.4919 197
-6.175800000000001 -3.2031 -0.8896 6
-12.593800000000002 -6.5312 0.8228 89
-6.230499999999999 -3.2305 -0.7329000000000001 92
-12.5547 -6.511699999999999 1.1514 14
-12.3594 -6.4102 1.459 105
-11.875 -6.1562 1.7147999999999999 246
-12.164100000000001 -6.3086 2.082 100
-12.5156 -6.488300000000001 -0.16390000000000002 132
-12.1953 -6.324199999999999 2.4141 52
-6.175800000000001 -3.1738 -1.2168 212
-12.6406 -6.4961 0.1653 113
-6.199199999999999 -3.1875 -1.0566 57
-12.648399999999999 -6.5 0.4946 164
-6.1836 -3.1776999999999997 -0.8887 236
-12.648399999999999 -6.5 0.8247 172
-6.2188 -3.1973000000000003 -0.7304999999999999 105
-12.5469 -6.449199999999999 1.1484 178
-12.375 -6.359400000000001 1.4569999999999999 185
-11.8828 -6.105499999999999 1.7128999999999999 207
-12.1719 -6.2539 2.0801 113
-12.593800000000002 -6.4727 -0.16469999999999999 142
-8.3984 -4.3164 1.6582 164
-6.1797 -3.1483999999999996 -1.2158 174
-12.656199999999998 -6.449199999999999 0.16519999999999999 221
-6.1953 -3.1562 -1.0537 107
-12.664100000000001 -6.453099999999999 0.4946 188
-6.1914 -3.1562 -0.8887 22
-12.664100000000001 -6.453099999999999 0.8242 113
-6.2109000000000005 -3.1660000000000004 -0.728 107
-12.656199999999998 -6.449199999999999 1.1572 177
-12.3906 -6.3164 1.4569999999999999 170
-11.8672 -6.046900000000001 1.7080000000000002 214
-12.164100000000001 -6.199199999999999 2.0762 191
-12.6406 -6.4414 -0.165 146
-8.4141 -4.2852 1.6572 150
-6.1836 -3.125 -1.2148 159
-12.6719 -6.4023 0.16519999999999999 158
-6.1914 -3.127 -1.0508 221
-12.6797 -6.4023 0.4941 138
-6.1875 -3.125 -0.8862000000000001 255
-12.726600000000001 -6.425800000000001 0.8267 139
-6.2188 -3.1406 -0.7275 197
-12.7344 -6.4297 1.1611 183
-12.375 -6.25 1.4531 77
-11.8672 -5.9922 1.7041 208
-6.4727 -3.2695 -0.2515 145
-8.6797 -4.3867 1.4766 206
-12.6797 -6.4023 -0.16519999999999999 191
-7.9609000000000005 -4.0234 1.5654 209
-6.1914 -3.1016000000000004 -1.2139 82
-12.773399999999999 -6.3984000000000005 0.1663 8
-6.203099999999999 -3.1055 -1.0508 219
-12.773399999999999 -6.394500000000001 0.4968 41
-6.1797 -3.0938 -0.8833 12
-12.8281 -6.425800000000001 0.8320000000000001 103
-6.2265999999999995 -3.1172000000000004 -0.7275 44
-12.7969 -6.4062 1.165 20
-12.3906 -6.203099999999999 1.4512 228
-11.875 -5.9453 1.7021000000000002 0
-9.0 -4.5078 1.5283000000000002 24
-12.7656 -6.394500000000001 -0.1661 111
-7.9609000000000005 -3.9863 1.5625 247
-6.1797 -3.0664 -1.209 138
-12.8906 -6.3984000000000005 0.1674 37
-6.203099999999999 -3.0781 -1.0488 2
-12.8828 -6.394500000000001 0.5005 142
-6.167999999999999 -3.0625 -0.8804000000000001 167
-12.9375 -6.421900000000001 0.8379000000000001 155
-6.2265999999999995 -3.0898000000000003 -0.7261 128
-12.9844 -6.4453 1.1806999999999999 89
-12.3828 -6.144500000000001 1.4482 66
-11.906199999999998 -5.9102 1.7041 39
-12.156199999999998 -6.0352 2.0645 91
-12.8672 -6.386699999999999 -0.1671 32
-7.984400000000001 -3.9629000000000003 1.5644999999999998 34
-6.175800000000001 -3.0391000000000004 -1.2061 167
-13.0078 -6.3984000000000005 0.1686 19
-6.203099999999999 -3.0526999999999997 -1.0479 84
-13.0078 -6.3984000000000005 0.5044 196
-6.175800000000001 -3.0391000000000004 -0.8798999999999999 35
-13.039100000000001 -6.417999999999999 0.8428 139
-6.2148 -3.0586 -0.7231000000000001 41
-13.1172 -6.457000000000001 1.1904000000000001 42
-12.398399999999999 -6.0977 1.4472999999999998 55
-11.9453 -5.8789 1.7069999999999999 234
-12.164100000000001 -5.984400000000001 2.0605 33
-12.9844 -6.386699999999999 -0.16829999999999998 138
-8.3906 -4.1289 1.6416 159
-6.1797 -3.0137 -1.2051 86
-13.085899999999999 -6.386699999999999 0.16940000000000002 216
-6.1953 -3.0233999999999996 -1.0449 89
-13.1094 -6.3984000000000005 0.5078 52
-6.1875 -3.0195 -0.8804000000000001 108
-13.148399999999999 -6.4140999999999995 0.8486 102
-6.199199999999999 -3.0254000000000003 -0.7202 14
-13.210899999999999 -6.449199999999999 1.1973 249
-12.3828 -6.042999999999999 1.4443000000000001 153
-11.9844 -5.8477 1.71 192
-12.1406 -5.925800000000001 2.0527 27
-13.093800000000002 -6.386699999999999 -0.16940000000000002 73
-8.5938 -4.1953 1.6787 173
-6.1797 -2.9901999999999997 -1.2031 213
-13.1953 -6.386699999999999 0.1705 138
-6.1836 -2.9922000000000004 -1.041 168
-13.210899999999999 -6.394500000000001 0.5107 217
-6.1914 -2.9961 -0.8794 113
-13.273399999999999 -6.421900000000001 0.8554999999999999 58
-6.203099999999999 -3.0 -0.7197 100
-13.289100000000001 -6.4297 1.2021 143
-12.375 -5.988300000000001 1.4404 22
-12.031199999999998 -5.824199999999999 1.7138999999999998 109
-12.101600000000001 -5.855499999999999 2.043 138
-13.2031 -6.390599999999999 -0.1707 105
-12.2031 -5.9023 2.3828 221
-6.1875 -2.9648000000000003 -1.2021 11
-13.3281 -6.386699999999999 0.172 146
-6.1836 -2.9629000000000003 -1.0391 101
-13.3203 -6.3828 0.5142 73
-6.1797 -2.9608999999999996 -0.8759999999999999 36
-13.398399999999999 -6.417999999999999 0.8613 32
-6.203099999999999 -2.9726999999999997 -0.7188 68
-13.4531 -6.4453 1.2148 216
-12.3906 -5.9375 1.4394999999999998 107
-12.093800000000002 -5.792999999999999 1.7197 179
-12.0078 -5.7539 2.0234 149
-13.3125 -6.3789 -0.1718 229
-8.8984 -4.2656 1.7324000000000002 50
-6.1797 -2.9355 -1.1992 187
-13.4219 -6.3711 0.1729 108
-6.1914 -2.9395 -1.0391 146
-13.4297 -6.3789 0.5176 197
-6.1797 -2.9355 -0.8745 102
-13.4922 -6.4062 0.8662000000000001 164
-6.2188 -2.9531 -0.7192000000000001 237
-13.539100000000001 -6.4297 1.2207 80
-12.3828 -5.8828 1.4365 90
-7.9688 -3.7851999999999997 1.1299 167
-8.6484 -4.1055 1.4531 53
-13.414100000000001 -6.3711 -0.1727 80
-9.0234 -4.2852 1.7538999999999998 191
-6.175800000000001 -2.9082 -1.1963 255
-13.5547 -6.3828 0.1743 74
-6.1914 -2.9141000000000004 -1.0371 32
-13.5547 -6.3828 0.5215 18
-6.1836 -2.9101999999999997 -0.8734999999999999 58
-13.5781 -6.394500000000001 0.8706 11
-6.2109000000000005 -2.9238 -0.7168000000000001 115
-13.593800000000002 -6.3984000000000005 1.2236 16
-12.406199999999998 -5.8398 1.4365 168
-7.9765999999999995 -3.7558999999999996 1.1289 132
-8.4453 -3.9766000000000004 1.4169999999999998 98
-13.523399999999999 -6.3672 -0.17379999999999998 111
-8.5625 -4.0312 1.6611000000000002 63
-6.1836 -2.8848000000000003 -1.1953 33
-13.593800000000002 -6.3477 0.1746 27
-6.1836 -2.8848000000000003 -1.0342 79
-13.585899999999999 -6.3438 0.522 66
-6.1914 -2.8906 -0.8734999999999999 184
-13.5781 -6.3359000000000005 0.8691 30
-6.1953 -2.8926 -0.7143999999999999 29
-13.5781 -6.3359000000000005 1.2197 249
-12.4375 -5.8047 1.4375 69
-12.1797 -5.6875 1.7236000000000002 15
-8.4062 -3.9238 1.4082 215
-13.5625 -6.328099999999999 -0.1741 122
-8.0469 -3.7577999999999996 1.5586000000000002 5
-6.1836 -2.8613 -1.1943000000000001 121
-13.593800000000002 -6.2852 0.17420000000000002 18
-6.1797 -2.8574 -1.0312000000000001 173
-13.5703 -6.2773 0.5205 249
-6.1875 -2.8613 -0.8715999999999999 134
-13.5781 -6.2812 0.8676999999999999 86
-6.207000000000001 -2.8711 -0.7143999999999999 31
-13.5625 -6.2734000000000005 1.2168 157
-12.406199999999998 -5.738300000000001 1.4325999999999999 112
-7.988300000000001 -3.6933999999999996 1.126 88
-11.851600000000001 -5.484400000000001 1.9853999999999998 147
-13.5703 -6.2773 -0.174 230
-8.0469 -3.7226999999999997 1.5566 34
-6.1875 -2.8358999999999996 -1.1924 152
-13.601600000000001 -6.234400000000001 0.1741 94
-6.1797 -2.832 -1.0303 176
-13.5703 -6.2188 0.5195000000000001 191
-6.1797 -2.8339999999999996 -0.8691 67
-13.5703 -6.2227 0.8662000000000001 254
-6.2109000000000005 -2.8476999999999997 -0.7134 223
-13.5469 -6.2109000000000005 1.2139 69
-12.3906 -5.6836 1.4287 222
-8.0234 -3.6797000000000004 1.1299 190
-11.8672 -5.4414 1.9844 164
-13.5547 -6.2148 -0.17350000000000002 252
-8.0938 -3.7108999999999996 1.5635 186
-6.1836 -2.8066000000000004 -1.1904000000000001 58
-13.585899999999999 -6.1640999999999995 0.1736 91
-6.1914 -2.8105 -1.0303 172
-13.5625 -6.1562 0.5186 179
-6.175800000000001 -2.8026999999999997 -0.8667 80
-13.5781 -6.1602 0.8647 214
-6.2188 -2.8223000000000003 -0.7129000000000001 142
-13.5703 -6.1602 1.2139 221
-12.414100000000001 -5.636699999999999 1.4287 36
-8.0312 -3.6445 1.1289 85
-8.7812 -3.9844 1.4638999999999998 41
-13.5547 -6.1523 -0.1732 7
-8.0859 -3.668 1.5575999999999999 198
-6.171900000000001 -2.7754000000000003 -1.1855 106
-13.585899999999999 -6.105499999999999 0.1732 112
-6.1953 -2.7851999999999997 -1.0293 44
-13.5625 -6.0977 0.5176 167
-6.175800000000001 -2.7754000000000003 -0.8652 129
-13.5625 -6.0977 0.8628 101
-6.2109000000000005 -2.793 -0.7114 111
-13.5781 -6.105499999999999 1.2119 203
-12.406199999999998 -5.578099999999999 1.4247999999999998 69
-8.4219 -3.7870999999999997 1.1826 225
-8.6562 -3.8926 1.4413999999999998 213
-13.5547 -6.0938 -0.1729 175
-8.125 -3.6543 1.5635 219
-6.175800000000001 -2.7539 -1.1855 240
-13.5703 -6.050800000000001 0.1729 125
-6.1914 -2.7598000000000003 -1.0273 132
-13.5781 -6.0547 0.5171 53
-6.1797 -2.7558999999999996 -0.8647 165
-13.5625 -6.046900000000001 0.8613 170
-6.207000000000001 -2.7676 -0.7095 78
-13.5625 -6.046900000000001 1.209 26
-8.0703 -3.5976999999999997 0.9238 44
-8.2109 -3.6601999999999997 1.1504 109
-11.875 -5.296900000000001 1.9766 140
-13.5469 -6.042999999999999 -0.1726 157
-8.1484 -3.6308999999999996 1.5654 116
-6.1797 -2.7305 -1.1836 179
-13.5703 -5.9961 0.1726 93
-6.1797 -2.7305 -1.0234 40
-13.5469 -5.988300000000001 0.5156000000000001 159
-6.1836 -2.7324 -0.8637999999999999 174
-13.5547 -5.9922 0.8599 209
-6.2109000000000005 -2.7441000000000004 -0.7090000000000001 243
-13.531199999999998 -5.980499999999999 1.2051 14
-8.0547 -3.5586 0.9209 76
-8.0625 -3.5625 1.1279000000000001 231
-8.6875 -3.8398000000000003 1.4424000000000001 53
-13.5547 -5.9922 -0.1724 234
-12.1797 -5.3789 2.3398 8
-6.1953 -2.707 -1.1845999999999999 252
-13.585899999999999 -5.9375 0.1725 130
-6.1797 -2.7012 -1.0225 144
-13.5547 -5.925800000000001 0.5146000000000001 62
-6.1836 -2.7012 -0.8623000000000001 36
-13.5625 -5.9297 0.8589 217
-6.2265999999999995 -2.7207 -0.7095 146
-13.5469 -5.921900000000001 1.2041 29
-8.0547 -3.5195 0.9194 138
-8.0469 -3.5176 1.124 161
-11.8828 -5.1914 1.9707 212
-13.5547 -5.921900000000001 -0.172 151
-12.1797 -5.324199999999999 2.3359 4
-6.1875 -2.6776999999999997 -1.1806999999999999 21
-13.601600000000001 -5.886699999999999 0.1724 61
-6.1953 -2.6816000000000004 -1.0225 122
-13.5781 -5.875 0.5146000000000001 124
-6.167999999999999 -2.6699 -0.8589 221
-13.6094 -5.890599999999999 0.8604 178
-6.2188 -2.6914 -0.7075 189
-13.6328 -5.8984000000000005 1.209 164
-8.0312 -3.4766000000000004 0.915 98
-8.0312 -3.4745999999999997 1.1201 4
-8.9531 -3.875 1.4813999999999998 208
-13.539100000000001 -5.859400000000001 -0.1716 176
-12.1719 -5.265599999999999 2.3301 14
-6.171900000000001 -2.6464999999999996 -1.1768 206
-13.601600000000001 -5.832000000000001 0.1721 179
-6.1953 -2.6562 -1.0215 84
-13.6328 -5.8477 0.5161 40
-6.167999999999999 -2.6445 -0.8579000000000001 215
-13.648399999999999 -5.8515999999999995 0.8613 17
-6.2188 -2.6660000000000004 -0.7065 65
-13.656199999999998 -5.855499999999999 1.21 122
-8.0391 -3.4492000000000003 0.915 125
-8.0312 -3.4452999999999996 1.1191 115
-11.9297 -5.1133 1.9716999999999998 85
-13.5469 -5.8086 -0.17149999999999999 44
-8.7578 -3.7577999999999996 1.6738 250
-6.167999999999999 -2.6191000000000004 -1.1748 222
-13.593800000000002 -5.7734000000000005 0.17190000000000003 90
-6.1836 -2.625 -1.0176 162
-13.6719 -5.8086 0.5171 140
-6.171900000000001 -2.6211 -0.8573999999999999 103
-13.656199999999998 -5.796900000000001 0.8604 168
-6.207000000000001 -2.6367000000000003 -0.7041 254
-13.656199999999998 -5.800800000000001 1.208 154
-12.398399999999999 -5.265599999999999 1.4111000000000002 25
-8.25 -3.5039 1.1475 4
-8.875 -3.7676 1.4638999999999998 96
-13.5547 -5.7578 -0.17129999999999998 135
-12.1875 -5.175800000000001 2.3262 146
-6.175800000000001 -2.5976999999999997 -1.1738 19
-13.601600000000001 -5.7227 0.1718 47
-6.171900000000001 -2.5957 -1.0146 175
-13.656199999999998 -5.7422 0.5156000000000001 81
-6.1797 -2.5976999999999997 -0.8569 88
-13.6797 -5.7539 0.8608 82
-6.2109000000000005 -2.6113 -0.7036 88
-13.656199999999998 -5.7422 1.2061 11
-12.406199999999998 -5.2188 1.4102000000000001 102
-12.226600000000001 -5.140599999999999 1.7002000000000002 36
-8.7031 -3.6620999999999997 1.4336000000000002 89
-13.5469 -5.699199999999999 -0.171 107
-12.2031 -5.1328 2.3262 183
-6.1875 -2.5781 -1.1748 152
-13.6094 -5.667999999999999 0.17149999999999999 76
-6.175800000000001 -2.5723000000000003 -1.0137 94
-13.656199999999998 -5.6875 0.5146000000000001 141
-6.175800000000001 -2.5723000000000003 -0.855 122
-13.6797 -5.6953 0.8593999999999999 169
-6.2227 -2.5898000000000003 -0.7036 200
-13.656199999999998 -5.6875 1.2041 211
-12.398399999999999 -5.1640999999999995 1.4072 95
-12.226600000000001 -5.0898 1.6982 29
-11.843800000000002 -4.9336 1.9502000000000002 142
-13.531199999999998 -5.636699999999999 -0.1705 12
-8.5391 -3.5547000000000004 1.6230000000000002 136
-6.171900000000001 -2.5449 -1.1699 217
-13.6094 -5.613300000000001 0.17129999999999998 236
-6.1797 -2.5488 -1.0127 107
-13.664100000000001 -5.6328 0.5142 224
-6.171900000000001 -2.5449 -0.853 1
-13.6719 -5.636699999999999 0.8573999999999999 42
-6.2188 -2.5645 -0.7026 52
-12.3906 -5.1094 1.4043 119
-12.218800000000002 -5.0391 1.6943000000000001 27
-11.8594 -4.8906 1.9491999999999998 125
-13.523399999999999 -5.574199999999999 -0.1702 108
-8.5312 -3.5195 1.6200999999999999 8
-6.1562 -2.5137 -1.165 189
-13.6328 -5.5664 0.17129999999999998 138
-6.1797 -2.5234 -1.0117 95
-6.1797 -2.5234 -0.853 137
-6.2148 -2.5371 -0.7012 174
-12.4375 -5.0781 1.0937999999999999 38
-12.3906 -5.0586 1.4022999999999999 198
-12.226600000000001 -4.9922 1.6934 4
-11.9219 -4.8672 1.9561000000000002 152
-12.406199999999998 -5.0625 -0.1558 43
-12.125 -4.9531 2.3027 226
-6.1640999999999995 -2.4922 -1.165 131
-12.523399999999999 -5.0664 0.15710000000000002 220
-6.171900000000001 -2.4961 -1.0088 115
-12.414100000000001 -5.0195 0.4658 236
-6.1797 -2.5 -0.8521 191
-12.4219 -5.0234 0.7768999999999999 76
-6.207000000000001 -2.5117 -0.6992 205
-12.414100000000001 -5.0195 1.0898 113
-12.375 -5.0078 1.3984 84
-12.226600000000001 -4.9453 1.6904 54
-8.7422 -3.5351999999999997 1.4316 21
-12.375 -5.0039 -0.1552 181
-12.1172 -4.9023 2.2988 241
-6.171900000000001 -2.4727 -1.165 52
-12.4219 -4.9766 0.15560000000000002 26
-6.1640999999999995 -2.4688 -1.0059 221
-12.398399999999999 -4.9688 0.4648 245
-6.175800000000001 -2.4727 -0.8501000000000001 227
-12.414100000000001 -4.9727 0.7754000000000001 28
-6.207000000000001 -2.4863 -0.6981999999999999 173
-12.406199999999998 -4.9688 1.0879 1
-12.3828 -4.9609 1.3975 143
-12.218800000000002 -4.8945 1.6875 92
-8.7578 -3.5077999999999996 1.4316 92
-12.375 -4.957 -0.155 107
-12.1172 -4.8555 2.2949 77
-6.175800000000001 -2.4473 -1.1641 195
-12.4453 -4.9336 0.15560000000000002 172
-6.167999999999999 -2.4453 -1.0049 224
-12.398399999999999 -4.9141 0.4639 250
-6.175800000000001 -2.4492 -0.8491 222
-12.4375 -4.9336 0.7759 15
-6.2188 -2.4648 -0.6981999999999999 238
-12.4219 -4.9258 1.0879 20
-12.3828 -4.9102 1.3955000000000002 156
-8.9141 -3.5351999999999997 1.2275 219
-8.8906 -3.5254000000000003 1.4521000000000002 58
-12.3906 -4.9141 -0.1549 85
-12.1172 -4.8047 2.291 191
-6.175800000000001 -2.4238 -1.1621 65
-12.4375 -4.8867 0.15539999999999998 13
-6.175800000000001 -2.4238 -1.0049 75
-12.4297 -4.8789 0.4644 222
-6.1640999999999995 -2.4219 -0.8467 183
-12.4531 -4.8906 0.7754000000000001 17
-6.2148 -2.4414 -0.6973 178
-12.476600000000001 -4.8984 1.0908 181
-12.375 -4.8594 1.3925999999999998 159
-12.226600000000001 -4.8008 1.6836000000000002 5
-11.8281 -4.6445 1.9306999999999999 100
-12.406199999999998 -4.8711 -0.155 141
-8.8906 -3.4901999999999997 1.6768 138
-6.1562 -2.3906 -1.1572 26
-12.5 -4.8555 0.156 3
-6.1875 -2.4023 -1.0059 35
-12.476600000000001 -4.8477 0.4658 12
-6.171900000000001 -2.3965 -0.8462000000000001 255
-12.4922 -4.8477 0.7768999999999999 240
-6.207000000000001 -2.4102 -0.6953 181
-12.531199999999998 -4.8633 1.0937999999999999 174
-12.3906 -4.8086 1.3925999999999998 209
-12.218800000000002 -4.7461 1.6806999999999999 222
-11.835899999999999 -4.5938 1.9297 58
-12.4297 -4.8242 -0.155 176
-12.1094 -4.6992 2.2832 151
-6.167999999999999 -2.3691 -1.1572 132
-12.523399999999999 -4.8125 0.156 71
-6.171900000000001 -2.3711 -1.002 31
-12.523399999999999 -4.8125 0.46659999999999996 190
-6.1836 -2.375 -0.8467 236
-12.6094 -4.8438 0.7831999999999999 232
-6.2109000000000005 -2.3867 -0.6948000000000001 55
-13.531199999999998 -5.199199999999999 1.1806999999999999 235
-9.0234 -3.4668 1.0107 248
-8.8672 -3.4082 1.2168 81
-11.843800000000002 -4.5508 1.9287 29
-12.4844 -4.7969 -0.1555 74
-12.1172 -4.6562 2.2812 170
-6.175800000000001 -2.3477 -1.1572 228
-6.171900000000001 -2.3477 -1.0 254
-13.523399999999999 -5.144500000000001 0.5034000000000001 102
-6.171900000000001 -2.3477 -0.8438 26
-13.539100000000001 -5.1484000000000005 0.8403 99
-6.2188 -2.3633 -0.6943 25
-13.539100000000001 -5.1484000000000005 1.1797 230
-9.0078 -3.4257999999999997 1.0088 179
-8.875 -3.375 1.2158 138
-11.8281 -4.5 1.9238 85
-12.585899999999999 -4.7852 -0.1565 156
-10.0234 -3.8125 1.8838 137
-6.1797 -2.3242 -1.1562000000000001 1
-13.539100000000001 -5.0938 0.16820000000000002 141
-6.171900000000001 -2.3223 -0.9990000000000001 180
-13.523399999999999 -5.0898 0.5029 176
-6.171900000000001 -2.3223 -0.8428 227
-13.5469 -5.0977 0.8393999999999999 56
-6.2227 -2.3418 -0.6943 140
-13.539100000000001 -5.0938 1.1777 65
-8.9844 -3.3789 1.0039 141
-8.8906 -3.3457 1.2168 188
-8.8516 -3.3301 1.4355000000000002 82
-13.5156 -5.0859 -0.168 222
-10.0156 -3.7695 1.8799000000000001 34
-6.167999999999999 -2.2969 -1.1533 236
-13.5625 -5.0547 0.1685 193
-6.1797 -2.3027 -0.9990000000000001 80
-13.531199999999998 -5.043 0.5024000000000001 1
-6.1602 -2.2949 -0.8398 39
-13.531199999999998 -5.043 0.8379000000000001 243
-6.2265999999999995 -2.3203 -0.6938 239
-13.5469 -5.0469 1.1768 79
-8.9766 -3.3438 1.002 211
-12.0469 -4.4844 1.6475 221
-8.8359 -3.293 1.4316 192
-13.5078 -5.0312 -0.16760000000000003 203
-12.1172 -4.5117 2.2734 97
-6.1640999999999995 -2.2734 -1.1514 209
-13.5547 -5.0 0.1681 98
-6.1836 -2.2812 -0.9984999999999999 236
-13.531199999999998 -4.9883 0.502 36
-6.1640999999999995 -2.2715 -0.8393999999999999 130
-13.523399999999999 -4.9844 0.8359000000000001 232
-6.2265999999999995 -2.2969 -0.6929000000000001 98
-13.5469 -4.9961 1.1758 52
-8.9844 -3.3125 1.002 65
-12.0469 -4.4414 1.6465 169
-8.875 -3.2714999999999996 1.4355000000000002 149
-13.476600000000001 -4.9688 -0.1671 197
-8.2031 -3.0254000000000003 1.5341999999999998 110
-6.1602 -2.2461 -1.1494 171
-13.539100000000001 -4.9336 0.16760000000000003 225
-6.1797 -2.252 -0.9961 240
-13.539100000000001 -4.9336 0.5015 172
-6.175800000000001 -2.25 -0.8398 205
-13.531199999999998 -4.9336 0.8354 205
-6.2188 -2.2676 -0.6909000000000001 101
-13.523399999999999 -4.9297 1.1719 204
-9.0078 -3.2851999999999997 1.0029000000000001 194
-12.0547 -4.3945 1.6455000000000002 231
-8.8906 -3.2422000000000004 1.4375 138
-13.4922 -4.918 -0.1671 193
-12.1094 -4.4141 2.2637 106
-6.171900000000001 -2.2266 -1.1494 193
-13.5469 -4.8867 0.1675 175
-6.1640999999999995 -2.2227 -0.9926999999999999 85
-13.531199999999998 -4.8789 0.5005 35
-6.1875 -2.2305 -0.8403 154
-13.531199999999998 -4.8789 0.8345 158
-6.230499999999999 -2.2461 -0.6914 45
-13.523399999999999 -4.875 1.1709 215
-9.0312 -3.2558999999999996 1.0039 140
-12.1797 -4.3945 1.6602000000000001 122
-11.8594 -4.2773 1.916 66
-13.5 -4.8672 -0.16690000000000002 85
-8.0625 -2.9082 1.5038999999999998 72
-6.167999999999999 -2.1992 -1.1475 156
-13.5547 -4.832 0.1674 68
-6.175800000000001 -2.2031 -0.9932 116
-13.5078 -4.8203 0.499 232
-6.1836 -2.2051 -0.8389 191
-13.539100000000001 -4.8281 0.8334999999999999 17
-6.238300000000001 -2.2246 -0.6914 217
-13.523399999999999 -4.8242 1.1689 26
-9.0391 -3.2245999999999997 1.0039 247
-12.2031 -4.3516 1.6611000000000002 14
-11.789100000000001 -4.207 1.9022999999999999 178
-13.4844 -4.8086 -0.16649999999999998 106
-8.0391 -2.8672000000000004 1.4971 223
-6.1640999999999995 -2.1738 -1.1445 87
-13.5547 -4.7812 0.1672 9
-6.175800000000001 -2.1777 -0.9922 141
-13.5156 -4.7695 0.4988 97
-6.175800000000001 -2.1797 -0.8369 68
-13.531199999999998 -4.7734 0.8320000000000001 187
-6.238300000000001 -2.2012 -0.6909000000000001 64
-13.531199999999998 -4.7734 1.168 9
-9.0547 -3.1933999999999996 1.0049 91
-12.2031 -4.3047 1.6591999999999998 10
-11.8203 -4.168 1.9043 197
-13.5 -4.7617 -0.16649999999999998 90
-8.0156 -2.8281 1.4912 109
-6.1523 -2.1465 -1.1416 167
-13.5547 -4.7305 0.16699999999999998 85
-6.175800000000001 -2.1543 -0.9906999999999999 241
-13.523399999999999 -4.7227 0.4985 192
-6.1836 -2.1582 -0.8369 134
-13.5156 -4.7188 0.8301000000000001 229
-6.238300000000001 -2.1758 -0.6895 6
-13.5469 -4.7266 1.168 221
-12.3594 -4.3125 1.3711000000000002 180
-12.2031 -4.2578 1.6572 95
-11.8281 -4.1289 1.9033000000000002 186
-13.5156 -4.7148 -0.16649999999999998 129
-6.1602 -2.127 -1.1416 75
-13.5469 -4.6797 0.16670000000000001 162
-6.167999999999999 -2.1309 -0.9887999999999999 61
-13.531199999999998 -4.6719 0.498 199
-6.1797 -2.1348 -0.8354 110
-13.523399999999999 -4.668 0.8295999999999999 169
-6.2265999999999995 -2.1504 -0.6875 147
-9.1172 -3.1464999999999996 0.7837000000000001 22
-12.375 -4.2734 1.3711000000000002 199
-9.2969 -3.2108999999999996 1.2598 2
-8.4922 -2.9336 1.3643 219
-13.5156 -4.6641 -0.1663 32
-8.1484 -2.8145 1.5127000000000002 219
-6.171900000000001 -2.1035 -1.1426 49
-13.5469 -4.6211 0.16649999999999998 45
-6.1602 -2.1016 -0.9858 145
-13.539100000000001 -4.6172 0.4976 164
-6.1797 -2.1074 -0.8345 190
-13.625 -4.6445 0.835 209
-6.2265999999999995 -2.123 -0.687 60
-9.1016 -3.1055 0.7822 199
-9.2656 -3.1601999999999997 1.0244 163
-9.3359 -3.1836 1.2637 185
-9.6875 -3.3026999999999997 1.5537 42
-13.523399999999999 -4.6133 -0.1663 121
-12.085899999999999 -4.1211 2.2441 122
-6.171900000000001 -2.0801 -1.1406 208
-13.6875 -4.6133 0.168 39
-6.1640999999999995 -2.0781 -0.9854 62
-13.6875 -4.6172 0.5029 135
-6.175800000000001 -2.082 -0.8325 154
-13.7969 -4.6523 0.8447 206
-6.2422 -2.1035 -0.6875 68
-9.0938 -3.0664 0.7803 33
-9.2344 -3.1132999999999997 1.0195 167
-12.1953 -4.1133 1.6503999999999999 83
-8.0312 -2.707 1.2861000000000002 111
-13.664100000000001 -4.6055 -0.1677 192
-8.0859 -2.7266000000000004 1.4980000000000002 61
-6.1640999999999995 -2.0527 -1.1377 218
-13.906199999999998 -4.6367 0.1705 196
-6.171900000000001 -2.0566 -0.9854 174
-13.9844 -4.6602 0.5132 223
-6.1602 -2.0527 -0.8295999999999999 44
-14.1328 -4.7109 0.8643000000000001 188
-6.2461 -2.082 -0.6875 59
-9.1094 -3.0351999999999997 0.7803 234
-9.2266 -3.0762 1.0176 93
-12.210899999999999 -4.0664 1.6494 88
-8.0469 -2.6816000000000004 1.2871000000000001 98
-13.976600000000001 -4.6562 -0.1714 164
-8.1094 -2.7012 1.5 167
-6.1484000000000005 -2.0254 -1.1338 89
-14.2031 -4.6797 0.174 205
-6.1836 -2.0371 -0.9858 218
-14.210899999999999 -4.6797 0.5205 235
-6.167999999999999 -2.0312 -0.8295999999999999 213
-14.289100000000001 -4.707 0.8726 246
-6.238300000000001 -2.0547 -0.6859999999999999 231
-9.125 -3.0058999999999996 0.7812 180
-12.3594 -4.0703 1.3633000000000002 226
-12.210899999999999 -4.0195 1.6475 63
-8.0781 -2.6601999999999997 1.29 197
-14.164100000000001 -4.6641 -0.17350000000000002 254
-12.0781 -3.9785000000000004 2.2344 78
-6.1562 -2.0039 -1.1348 185
-14.335899999999999 -4.6641 0.1754 86
-6.1640999999999995 -2.0059 -0.9819 136
-14.375 -4.6797 0.5259 216
-6.171900000000001 -2.0098 -0.8295999999999999 49
-9.1406 -2.9745999999999997 0.5566 171
-6.230499999999999 -2.0273 -0.6840999999999999 207
-9.1328 -2.9726999999999997 0.7807999999999999 241
-12.351600000000001 -4.0195 1.3613 225
-12.1719 -3.9629000000000003 1.6416 43
-8.7969 -2.8613 1.4033000000000002 245
-14.3281 -4.6641 -0.1753 224
-12.085899999999999 -3.9336 2.2344 130
-6.1602 -1.9813999999999998 -1.1338 64
-14.5 -4.6641 0.1772 162
-6.1562 -1.9794999999999998 -0.9795 68
-14.5156 -4.668 0.5307999999999999 63
-6.171900000000001 -1.9853999999999998 -0.8286 252
-9.1406 -2.9395 0.5557 69
-6.2265999999999995 -2.0039 -0.6831 55
-9.1953 -2.957 0.7852 124
-12.3594 -3.9766000000000004 1.3603999999999998 57
-12.1797 -3.918 1.6406 18
-6.515599999999999 -2.0957 -0.2373 177
-8.8359 -2.8438 1.4091999999999998 83
-6.167999999999999 -1.96 -1.1338 228
-6.1484000000000005 -1.9541 -0.9775 97
-9.125 -2.8983999999999996 0.3325 195
-6.171900000000001 -1.9619 -0.8276 70
-9.1328 -2.9023000000000003 0.5547 31
-6.2422 -1.9834 -0.6836 101
-14.8047 -4.7031 1.2646 86
-12.343800000000002 -3.9238 1.3563999999999998 95
-12.1875 -3.873 1.6396000000000002 101
-6.425800000000001 -2.041 -0.2336 227
-14.6328 -4.6523 -0.1787 224
-12.093800000000002 -3.8438 2.2305 152
-6.1523 -1.9316 -1.1299 93
-6.1640999999999995 -1.9355000000000002 -0.9784999999999999 251
-9.0938 -2.8555 0.3311 29
-6.1640999999999995 -1.9355000000000002 -0.8256999999999999 254
-9.1016 -2.8574 0.5522 249
-6.2422 -1.96 -0.6831 160
-14.9922 -4.707 1.2793 238
-12.335899999999999 -3.873 1.3544999999999998 254
-12.1719 -3.8202999999999996 1.6357 248
-6.425800000000001 -2.0176 -0.2334 236
-14.781199999999998 -4.6406 -0.18030000000000002 10
-12.0781 -3.7910000000000004 2.2246 111
-6.1523 -1.9091999999999998 -1.1279000000000001 117
-9.0547 -2.8086 0.1099 37
-6.167999999999999 -1.9141 -0.978 103
-9.0859 -2.8183999999999996 0.33030000000000004 36
-6.171900000000001 -1.915 -0.8256999999999999 177
-9.1016 -2.8223000000000003 0.5518 13
-6.234400000000001 -1.9346 -0.6812 123
-15.1797 -4.7109 1.2949000000000002 159
-12.343800000000002 -3.832 1.3544999999999998 45
-12.101600000000001 -3.7558999999999996 1.625 185
-6.4140999999999995 -1.9902000000000002 -0.2327 155
-9.0469 -2.8066000000000004 -0.1099 47
-12.0703 -3.7461 2.2207 239
-6.1484000000000005 -1.8857 -1.127 127
-9.0391 -2.7714999999999996 0.1097 99
-6.1640999999999995 -1.8896000000000002 -0.9765999999999999 163
-9.0859 -2.7851999999999997 0.3301 210
-6.1797 -1.8944999999999999 -0.8256999999999999 180
-9.1016 -2.7910000000000004 0.5513 163
-6.2227 -1.9091999999999998 -0.6797 67
-9.1094 -2.793 0.7744 176
-12.343800000000002 -3.7870999999999997 1.3525 147
-7.769500000000001 -2.3828 -0.4702 225
-12.1328 -3.7226999999999997 1.6269999999999998 239
-6.4140999999999995 -1.9668 -0.2324 14
-8.9141 -2.7344 1.415 119
-9.0156 -2.7656 -0.1094 212
-12.0781 -3.7051 2.2207 178
-6.1640999999999995 -1.8662 -1.1279000000000001 138
-9.0391 -2.7363 0.1096 74
-6.1640999999999995 -1.8662 -0.9756 165
-9.0859 -2.752 0.3298 86
-6.1797 -1.8700999999999999 -0.8251999999999999 137
-9.1094 -2.7577999999999996 0.5513 46
-6.2265999999999995 -1.8847999999999998 -0.6792 199
-9.1016 -2.7558999999999996 0.7734000000000001 159
-7.707000000000001 -2.332 -0.6543000000000001 91
-12.351600000000001 -3.7401999999999997 1.3525 130
-12.156199999999998 -3.6797000000000004 1.6288999999999998 39
-6.4102 -1.9394999999999998 -0.2321 148
-8.9297 -2.7031 1.416 203
-9.0234 -2.7324 -0.1094 135
-12.093800000000002 -3.6601999999999997 2.2207 56
-6.1640999999999995 -1.8418 -1.127 92
-9.0469 -2.7031 0.10949999999999999 105
-6.1562 -1.8397999999999999 -0.9731000000000001 234
-9.1172 -2.7245999999999997 0.3306 61
-6.171900000000001 -1.8447 -0.8231999999999999 144
-9.1562 -2.7363 0.5532 99
-6.238300000000001 -1.8643 -0.6797 14
-9.1016 -2.7188 0.772 51
-7.7812 -2.3262 -0.6597 195
-12.414100000000001 -3.7108999999999996 1.3574000000000002 107
-12.1797 -3.6406 1.6299000000000001 173
-6.4140999999999995 -1.9169999999999998 -0.2321 132
-11.843800000000002 -3.5391000000000004 1.8779 206
-9.0391 -2.7012 -0.1094 121
-12.085899999999999 -3.6132999999999997 2.2168 120
-6.1562 -1.8163999999999998 -1.124 21
-9.0781 -2.6776999999999997 0.1097 65
-6.171900000000001 -1.8203 -0.9745999999999999 233
-15.414100000000001 -4.5469 0.5596 204
-6.167999999999999 -1.8193000000000001 -0.8212999999999999 143
-15.4297 -4.5547 0.9331 221
-6.2461 -1.8437999999999999 -0.6801999999999999 153
-9.1484 -2.6992000000000003 0.7754000000000001 175
-9.0625 -2.6738 0.9887999999999999 106
-12.1875 -3.5957 1.6288999999999998 174
-6.417999999999999 -1.8936000000000002 -0.2318 32
-11.8203 -3.4882999999999997 1.8730000000000002 170
-9.0703 -2.6757999999999997 -0.1097 253
-12.0781 -3.5645 2.2129 105
-6.1523 -1.7919999999999998 -1.123 159
-9.0938 -2.6483999999999996 0.1099 141
-6.1640999999999995 -1.7959 -0.9727 55
-15.4375 -4.4961 0.5596 81
-6.1640999999999995 -1.7959 -0.8203 41
-6.2265999999999995 -1.8135 -0.6772 10
-9.1562 -2.668 0.7754000000000001 116
-9.0703 -2.6426 0.9887999999999999 251
-12.1719 -3.5449 1.625 44
-6.4453 -1.8769999999999998 -0.2325 148
-11.8125 -3.4395 1.8691 97
-9.1094 -2.6523000000000003 -0.11 79
-8.8047 -2.5664 1.6103999999999998 2
-6.1523 -1.7686000000000002 -1.1211 126
-9.1406 -2.627 0.1103 251
-6.167999999999999 -1.7734 -0.9722 62
-6.175800000000001 -1.7753999999999999 -0.8208 72
-6.230499999999999 -1.791 -0.6768000000000001 36
-9.2109 -2.6483999999999996 0.7793000000000001 73
-12.375 -3.5586 1.3486000000000002 69
-8.9531 -2.5742000000000003 1.1924 97
-6.4453 -1.8535 -0.2324 142
-11.8828 -3.4160000000000004 1.8788999999999998 38
-12.0781 -3.4726999999999997 2.209 144
-6.1562 -1.7471 -1.1211 166
-6.1602 -1.7471 -0.9697 192
-6.171900000000001 -1.7519999999999998 -0.8198000000000001 216
-6.230499999999999 -1.7675999999999998 -0.6762999999999999 102
-15.4453 -4.3828 1.3075999999999999 87
-9.2969 -2.6387 1.0117 205
-8.9609 -2.543 1.1924 120
-6.4688 -1.835 -0.233 69
-8.9141 -2.5293 1.4062000000000001 187
-15.5078 -4.4023 -0.18760000000000002 3
-12.085899999999999 -3.4276999999999997 2.207 144
-6.1602 -1.7246000000000001 -1.1211 192
-6.167999999999999 -1.7266 -0.9702 197
-15.523399999999999 -4.3477 0.561 205
-6.171900000000001 -1.7275 -0.8188 223
-15.468800000000002 -4.3281 0.9316 26
-6.2422 -1.7480000000000002 -0.6768000000000001 131
-15.4453 -4.3242 1.3066 232
-9.2812 -2.5995999999999997 1.0088 94
-8.9609 -2.5098 1.1924 12
-6.5234000000000005 -1.8262 -0.2347 73
-8.9531 -2.5059 1.4111000000000002 39
-15.4453 -4.3242 -0.1868 93
-12.0781 -3.3808999999999996 2.2051 135
-6.1602 -1.7012 -1.1191 197
-6.175800000000001 -1.7050999999999998 -0.9702 148
-16.2969 -4.5039 0.5889 103
-6.167999999999999 -1.7031 -0.8173999999999999 173
-21.9531 -6.0664 1.3232 225
-6.2422 -1.7236000000000002 -0.6758 215
-15.4531 -4.2695 1.3056999999999999 134
-9.2891 -2.5645 1.0078 191
-12.210899999999999 -3.3711 1.624 200
-6.5938 -1.8213 -0.2372 250
-8.9297 -2.4648 1.4053 209
-15.4453 -4.2656 -0.1865 86
-12.085899999999999 -3.3379000000000003 2.2031 20
-6.144500000000001 -1.6747999999999998 -1.1162 218
-18.8281 -5.1289 0.2273 235
-6.175800000000001 -1.6825999999999999 -0.9697 233
-18.8594 -5.140599999999999 0.6812 88
-6.171900000000001 -1.6816 -0.8173999999999999 217
-21.9375 -5.9765999999999995 1.3203 24
-6.238300000000001 -1.7002000000000002 -0.6748000000000001 161
-15.468800000000002 -4.2148 1.3056999999999999 131
-9.2891 -2.5312 1.0078 254
-12.2031 -3.3242000000000003 1.6211000000000002 161
-6.675800000000001 -1.8184 -0.2397 237
-11.8047 -3.2168 1.8594 132
-17.7344 -4.8281 -0.214 179
-12.0703 -3.2891000000000004 2.1992 252
-6.1602 -1.6553 -1.1172 158
-17.6094 -4.7344 0.21239999999999998 16
-6.171900000000001 -1.6582 -0.9678 51
-19.1406 -5.144500000000001 0.6904 57
-6.1836 -1.6611000000000002 -0.8179000000000001 35
-20.7969 -5.5898 1.25 166
-6.230499999999999 -1.6738 -0.6733 46
-15.460899999999999 -4.1523 1.3037 211
-9.3203 -2.5039 1.0098 226
-12.1953 -3.2754000000000003 1.6181999999999999 145
-8.8438 -2.377 1.3896000000000002 209
-17.5938 -4.7266 -0.2122 244
-12.085899999999999 -3.2461 2.1992 232
-6.1640999999999995 -1.6338 -1.1172 131
-17.6719 -4.6836 0.213 181
-6.1602 -1.6328 -0.9653 145
-19.4375 -5.1484000000000005 0.7001999999999999 236
-6.1836 -1.6387 -0.8173999999999999 212
-19.5625 -5.1836 1.1748 90
-6.238300000000001 -1.6522999999999999 -0.6733 12
-15.4453 -4.0898 1.3008000000000002 31
-9.3359 -2.4746 1.0107 229
-12.210899999999999 -3.2344 1.6191 97
-9.0391 -2.3965 1.4199000000000002 233
-17.5938 -4.6641 -0.212 228
-12.0781 -3.1992000000000003 2.1953 220
-6.1640999999999995 -1.6103999999999998 -1.1162 213
-17.6875 -4.6211 0.213 92
-6.1640999999999995 -1.6103999999999998 -0.9648 212
-19.6875 -5.144500000000001 0.7090000000000001 232
-6.1602 -1.6094 -0.8134999999999999 9
-19.8438 -5.1836 1.1904000000000001 60
-6.2422 -1.6309 -0.6733 110
-15.4844 -4.043 1.3037 244
-9.3672 -2.4473 1.0137 92
-12.210899999999999 -3.1895 1.6181999999999999 117
-9.0703 -2.3691 1.4228999999999998 105
-17.5938 -4.5938 -0.2118 1
-8.6875 -2.2676 1.5752000000000002 94
-6.1602 -1.5878999999999999 -1.1143 207
-17.7656 -4.5781 0.21359999999999998 64
-6.1797 -1.5918 -0.9662999999999999 211
-12.4531 -3.2089999999999996 0.4473 243
-6.1602 -1.5878999999999999 -0.813 160
-12.406199999999998 -3.1973000000000003 0.7426999999999999 138
-6.25 -1.6103999999999998 -0.6738 31
-12.414100000000001 -3.1992000000000003 1.0439 198
-9.3828 -2.418 1.0137 162
-12.226600000000001 -3.1504000000000003 1.6181999999999999 76
-6.863300000000001 -1.7686000000000002 -0.24559999999999998 95
-11.8047 -3.0410000000000004 1.8516 250
-12.398399999999999 -3.1952999999999996 -0.1489 70
-12.031199999999998 -3.0995999999999997 2.1836 200
-6.1484000000000005 -1.5625 -1.1113 70
-6.167999999999999 -1.5674000000000001 -0.9639 41
-12.3672 -3.1445 0.44380000000000003 196
-6.171900000000001 -1.5693000000000001 -0.8140000000000001 38
-12.3594 -3.1406 0.7393000000000001 48
-6.2227 -1.5819999999999999 -0.6704000000000001 16
-12.3828 -3.1464999999999996 1.04 117
-9.4141 -2.3926 1.0166 24
-12.226600000000001 -3.1074 1.6172 188
-11.8125 -3.002 1.8516 119
-12.3203 -3.1327999999999996 -0.1478 192
-11.976600000000001 -3.043 2.1719 115
-6.1640999999999995 -1.5430000000000001 -1.1133 101
-12.3828 -3.0995999999999997 0.1484 25
-6.171900000000001 -1.5449000000000002 -0.9639 213
-12.343800000000002 -3.0898000000000003 0.4426 184
-6.171900000000001 -1.5438999999999998 -0.813 166
-12.335899999999999 -3.0879000000000003 0.7373000000000001 121
-6.1523 -1.5391 -0.6620999999999999 232
-12.3672 -3.0957 1.0381 26
-9.4453 -2.3652 1.0195 232
-12.210899999999999 -3.0547000000000004 1.6133000000000002 230
-11.789100000000001 -2.9512 1.8466999999999998 76
-12.3281 -3.0839999999999996 -0.1477 188
-11.875 -2.9726999999999997 2.1523 122
-6.1523 -1.5175999999999998 -1.1104 56
-12.375 -3.0526999999999997 0.1482 81
-6.1602 -1.5186000000000002 -0.9604 130
-12.335899999999999 -3.0410000000000004 0.44189999999999996 79
-6.171900000000001 -1.5215 -0.8125 41
-12.343800000000002 -3.043 0.7368000000000001 186
-6.113300000000001 -1.5068000000000001 -0.6572 61
-12.3672 -3.0488 1.0361 121
-9.5 -2.3418 1.0244 117
-6.3477 -1.5644999999999998 -0.37770000000000004 188
-12.2344 -3.0156 1.6152000000000002 253
-6.9765999999999995 -1.7197 -0.2491 28
-11.7969 -2.9082 1.8466999999999998 204
-12.3281 -3.0391000000000004 -0.1476 59
-11.8125 -2.9120999999999997 2.1387 15
-6.1640999999999995 -1.4971 -1.1113 47
-12.375 -3.0058999999999996 0.1479 188
-6.167999999999999 -1.4980000000000002 -0.9614 230
-12.335899999999999 -2.9961 0.44170000000000004 157
-6.171900000000001 -1.4980000000000002 -0.8115000000000001 134
-12.3672 -3.0039 0.7378 85
-6.105499999999999 -1.4824000000000002 -0.6557999999999999 36
-12.3906 -3.0098000000000003 1.0381 245
-9.5469 -2.3184 1.0283 156
-6.3477 -1.541 -0.3772 66
-12.2422 -2.9726999999999997 1.6152000000000002 5
-11.8281 -2.873 1.8496000000000001 103
-12.335899999999999 -2.9961 -0.1476 46
-9.2031 -2.2344 1.6631 87
-6.1562 -1.4727000000000001 -1.1084 44
-12.398399999999999 -2.9648000000000003 0.1482 206
-6.171900000000001 -1.4766 -0.9614 250
-12.3672 -2.957 0.4421 176
-6.167999999999999 -1.4746000000000001 -0.8101 118
-12.398399999999999 -2.9648000000000003 0.7387999999999999 90
-6.105499999999999 -1.4609 -0.6553 197
-12.4375 -2.9745999999999997 1.041 48
-6.199199999999999 -1.4824000000000002 -0.5171 184
-12.3672 -2.957 1.3319999999999999 104
-6.3359000000000005 -1.5156 -0.3765 78
-9.6562 -2.3105 1.2715 122
-9.6484 -2.3086 1.5068000000000001 27
-12.343800000000002 -2.9512 -0.1475 103
-9.1875 -2.1973 1.6582 233
-6.144500000000001 -1.4453 -1.1055 210
-12.4297 -2.9238 0.1484 138
-6.175800000000001 -1.4531 -0.9604 249
-12.4219 -2.9219 0.44380000000000003 4
-6.171900000000001 -1.4521000000000002 -0.8101 154
-12.4453 -2.9276999999999997 0.7412000000000001 94
-6.113300000000001 -1.4385 -0.6553 83
-12.5547 -2.9551 1.0498 177
-6.2227 -1.4638999999999998 -0.5186 177
-12.414100000000001 -2.9219 1.3359 241
-6.3398 -1.4912 -0.3762 15
-9.6406 -2.2676 1.2686 242
-7.2852 -1.7147999999999999 -0.2595 142
-9.6641 -2.2734 1.5068000000000001 69
-12.3672 -2.9101999999999997 -0.1477 232
-9.2031 -2.1641 1.6591999999999998 176
-6.1484000000000005 -1.4238 -1.1055 16
-12.4375 -2.8808999999999996 0.1484 48
-6.1640999999999995 -1.4277000000000002 -0.9584999999999999 1
-12.468800000000002 -2.8887 0.44530000000000003 65
-6.1797 -1.4306999999999999 -0.8101 157
-12.523399999999999 -2.9004000000000003 0.7456 196
-6.1172 -1.416 -0.6553 61
-13.4844 -3.123 1.127 131
-6.238300000000001 -1.4443000000000001 -0.5195000000000001 71
-13.4844 -3.123 1.4502000000000002 145
-6.3438 -1.4697 -0.3762 248
-9.6484 -2.2344 1.2686 7
-7.3203 -1.6953 -0.2605 229
-9.6719 -2.2402 1.5068000000000001 18
-12.4219 -2.877 -0.1482 243
-11.789100000000001 -2.7305 2.125 133
-6.1562 -1.4043 -1.1064 170
-13.4922 -3.0781 0.1609 91
-6.1562 -1.4043 -0.9565 87
-13.468800000000002 -3.0723000000000003 0.4805 160
-6.175800000000001 -1.4082 -0.8090999999999999 131
-13.4844 -3.0762 0.8022 205
-6.140599999999999 -1.4003999999999999 -0.6572 158
-13.468800000000002 -3.0723000000000003 1.125 58
-6.3672 -1.4521000000000002 -0.5297999999999999 120
-13.476600000000001 -3.0742000000000003 1.4482 147
-6.3672 -1.4521000000000002 -0.3772 217
-9.6719 -2.207 1.2705 99
-7.457000000000001 -1.7012 -0.26539999999999997 84
-9.7031 -2.2129 1.5107 39
-9.5859 -2.1875 1.7266 145
-6.1602 -1.3838 -1.1064 0
-13.4922 -3.0312 0.1609 211
-6.1640999999999995 -1.3847999999999998 -0.9570000000000001 105
-13.460899999999999 -3.0233999999999996 0.48 72
-6.171900000000001 -1.3866999999999998 -0.8081 24
-13.4844 -3.0293 0.8012999999999999 57
-6.1602 -1.3838 -0.6592 212
-13.460899999999999 -3.0233999999999996 1.123 159
-13.476600000000001 -3.0273000000000003 1.4472999999999998 252
-6.363300000000001 -1.4297 -0.377 243
-12.25 -2.752 1.6094 117
-7.6562 -1.7197 -0.2722 84
-11.9453 -2.6836 1.8613 63
-13.4531 -3.0214999999999996 -0.1603 179
-9.5859 -2.1523 1.7246000000000001 7
-6.1562 -1.3584 -1.1035 152
-13.4844 -2.9785000000000004 0.1606 110
-6.171900000000001 -1.3622999999999998 -0.9570000000000001 3
-13.460899999999999 -2.9726999999999997 0.4797 253
-6.1602 -1.3603999999999998 -0.8062 151
-13.476600000000001 -2.9745999999999997 0.8003 127
-13.476600000000001 -2.9745999999999997 1.124 168
-13.468800000000002 -2.9745999999999997 1.4453 234
-12.2422 -2.7031 1.6074000000000002 31
-7.6836 -1.6963 -0.2729 88
-9.8672 -2.1777 1.5341999999999998 105
-13.4531 -2.9707 -0.1602 143
-9.5938 -2.1172 1.7246000000000001 135
-6.136699999999999 -1.3319999999999999 -1.0996 50
-13.4844 -2.9276999999999997 0.1604 108
-6.175800000000001 -1.3408000000000002 -0.9570000000000001 119
-13.468800000000002 -2.9257999999999997 0.47950000000000004 61
-6.167999999999999 -1.3388999999999998 -0.8062 61
-13.468800000000002 -2.9238 0.7988 7
-6.2422 -1.3555000000000001 -0.667 154
-13.4844 -2.9276999999999997 1.123 125
-13.468800000000002 -2.9238 1.4443000000000001 132
-12.226600000000001 -2.6562 1.6044999999999998 118
-13.4844 -2.9276999999999997 -0.4802 75
-9.875 -2.1445 1.5352000000000001 171
-13.4531 -2.9199 -0.16 75
-9.5938 -2.084 1.7236000000000002 250
-6.144500000000001 -1.3115 -1.1006 37
-13.4844 -2.877 0.1603 165
-6.1602 -1.3154 -0.9541 7
-13.476600000000001 -2.877 0.47950000000000004 238
-6.175800000000001 -1.3184 -0.8066 164
-13.468800000000002 -2.875 0.7983 71
-6.25 -1.335 -0.6675 106
-13.468800000000002 -2.875 1.1211 207
-13.4844 -2.8789 1.4443000000000001 247
-12.226600000000001 -2.6094 1.6025 134
-13.4844 -2.8789 -0.4797 113
-12.0469 -2.5723000000000003 1.8721 107
-13.468800000000002 -2.875 -0.1602 55
-9.8906 -2.1113 1.7753999999999999 184
-6.1523 -1.291 -1.1016 3
-13.3828 -2.8086 0.1589 177
-6.1562 -1.2919999999999998 -0.9526 52
-13.460899999999999 -2.8242000000000003 0.47850000000000004 79
-6.171900000000001 -1.2949000000000002 -0.8057 239
-13.4844 -2.8301 0.7993000000000001 157
-6.261699999999999 -1.3135 -0.6679999999999999 91
-13.4531 -2.8223000000000003 1.1191 210
-13.4922 -2.8301 1.4443000000000001 96
-12.25 -2.5702999999999996 1.6044999999999998 189
-13.468800000000002 -2.8262 -0.4788 208
-12.0703 -2.5332 1.874 113
-13.460899999999999 -2.8242000000000003 -0.16 233
-9.8281 -2.0625 1.7627000000000002 17
-6.144500000000001 -1.2676 -1.0986 226
-13.375 -2.7577999999999996 0.1588 110
-6.1562 -1.2695 -0.9521 188
-13.4531 -2.7733999999999996 0.478 166
-6.175800000000001 -1.2734 -0.8057 35
-13.4922 -2.7812 0.7988 136
-6.2773 -1.2949000000000002 -0.6694 28
-13.5156 -2.7870999999999997 1.124 30
-13.468800000000002 -2.7773000000000003 1.4413999999999998 252
-12.2578 -2.5273 1.6044999999999998 87
-13.460899999999999 -2.7754000000000003 -0.4783 175
-12.0781 -2.4902 1.874 209
-13.4531 -2.7733999999999996 -0.1597 126
-11.7578 -2.4238 2.1094 240
-6.1523 -1.2461 -1.0996 168
-13.375 -2.7089999999999996 0.15869999999999998 203
-6.175800000000001 -1.251 -0.9545999999999999 236
-13.5156 -2.7382999999999997 0.4797 114
-6.171900000000001 -1.25 -0.8047 151
-13.539100000000001 -2.7422000000000004 0.8012999999999999 161
-6.2734000000000005 -1.2715 -0.6685 154
-13.5781 -2.75 1.1279000000000001 135
-13.4531 -2.7245999999999997 1.4385 158
-12.2656 -2.4844 1.6044999999999998 132
-13.476600000000001 -2.7285000000000004 -0.4783 81
-12.085899999999999 -2.4473 1.874 142
-13.4531 -2.7245999999999997 -0.1595 125
-11.7578 -2.3809 2.1074 145
-6.136699999999999 -1.2227 -1.0957 230
-13.3672 -2.6641000000000004 0.15839999999999999 240
-6.167999999999999 -1.2295 -0.9526 234
-13.5625 -2.7031 0.48119999999999996 9
-6.167999999999999 -1.2285 -0.8031999999999999 207
-13.5781 -2.7051 0.8027 232
-6.2773 -1.251 -0.6679999999999999 125
-13.5781 -2.707 1.1279000000000001 80
-6.3047 -1.2568000000000001 -0.5215 75
-13.460899999999999 -2.6816000000000004 1.4385 194
-12.25 -2.4414 1.6006 250
-13.4844 -2.6875 -0.4783 118
-12.101600000000001 -2.4121 1.875 152
-13.4531 -2.6816000000000004 -0.1595 131
-11.75 -2.3418 2.1055 126
-6.1328 -1.2002 -1.0937999999999999 157
-13.3672 -2.6172000000000004 0.15839999999999999 151
-6.1640999999999995 -1.207 -0.9512 95
-13.5703 -2.6582 0.48119999999999996 72
-6.175800000000001 -1.209 -0.8037000000000001 50
-13.5781 -2.6582 0.8022 67
-6.25 -1.2236 -0.665 208
-13.585899999999999 -2.6601999999999997 1.127 11
-6.292999999999999 -1.2324 -0.52 188
-13.476600000000001 -2.6387 1.4385 84
-12.2578 -2.4004 1.6006 187
-13.460899999999999 -2.6367000000000003 -0.4771 123
-12.1094 -2.373 1.876 236
-13.460899999999999 -2.6367000000000003 -0.1595 171
-11.7656 -2.3047 2.1074 222
-6.144500000000001 -1.1777 -1.0957 139
-13.375 -2.5625 0.1583 146
-6.1484000000000005 -1.1787 -0.9481999999999999 183
-13.5625 -2.5995999999999997 0.4805 238
-6.175800000000001 -1.1836 -0.8037000000000001 245
-13.601600000000001 -2.6074 0.8027 53
-6.265599999999999 -1.2012 -0.6659999999999999 206
-13.585899999999999 -2.6035000000000004 1.126 201
-6.300800000000001 -1.208 -0.5205 188
-13.4922 -2.5858999999999996 1.4394999999999998 172
-12.2344 -2.3457 1.5966999999999998 122
-13.460899999999999 -2.5801 -0.4768 14
-11.9297 -2.2871 1.8457 160
-13.460899999999999 -2.5801 -0.1594 91
-11.773399999999999 -2.2578 2.1074 74
-6.136699999999999 -1.1523 -1.0937999999999999 70
-13.398399999999999 -2.5176 0.15839999999999999 198
-6.1484000000000005 -1.1553 -0.9473 18
-13.5547 -2.5469 0.48 130
-6.175800000000001 -1.1602 -0.8027 226
-13.601600000000001 -2.5547 0.8022 68
-6.3125 -1.1865 -0.6704000000000001 120
-13.585899999999999 -2.5527 1.125 208
-6.292999999999999 -1.1826 -0.5195000000000001 176
-13.468800000000002 -2.5293 1.4355000000000002 7
-12.25 -2.3008 1.5977000000000001 205
-13.460899999999999 -2.5293 -0.47659999999999997 43
-11.835899999999999 -2.2246 1.8300999999999998 122
-13.4453 -2.5254 -0.1591 229
-11.781199999999998 -2.2129 2.1055 163
-6.136699999999999 -1.1328 -1.0928 12
-13.3906 -2.4707 0.1583 59
-6.1602 -1.1367 -0.9487000000000001 249
-13.5547 -2.502 0.47950000000000004 157
-6.171900000000001 -1.1387 -0.8018000000000001 86
-13.585899999999999 -2.5078 0.8012999999999999 39
-6.3477 -1.1719 -0.6738 25
-13.585899999999999 -2.5078 1.125 84
-6.3125 -1.166 -0.521 42
-13.4531 -2.4844 1.4336000000000002 26
-12.2578 -2.2617 1.5977000000000001 31
-13.460899999999999 -2.4863 -0.4763 78
-11.851600000000001 -2.1875 1.8311000000000002 210
-13.4375 -2.4805 -0.1588 2
-11.773399999999999 -2.1738 2.1035 119
-6.1328 -1.1113 -1.0918 159
-13.406199999999998 -2.4277 0.15839999999999999 239
-6.1640999999999995 -1.1172 -0.9487000000000001 201
-13.5625 -2.457 0.47950000000000004 74
-6.175800000000001 -1.1191 -0.8018000000000001 232
-13.5703 -2.459 0.7998000000000001 233
-6.3515999999999995 -1.1514 -0.6738 164
-13.593800000000002 -2.4629 1.125 208
-6.3047 -1.1426 -0.5195000000000001 248
-13.460899999999999 -2.4395 1.4325999999999999 93
-12.2422 -2.2188 1.5957 29
-13.460899999999999 -2.4395 -0.47609999999999997 151
-11.8594 -2.1484 1.8311000000000002 42
-13.4453 -2.4355 -0.1588 28
-11.7578 -2.1309 2.0996 177
-13.398399999999999 -2.3789 0.1582 86
-6.1602 -1.0937999999999999 -0.9473 5
-13.5625 -2.4082 0.4792 181
-6.171900000000001 -1.0967 -0.8012999999999999 170
-13.5781 -2.4102 0.7993000000000001 62
-6.355499999999999 -1.1289 -0.6738 226
-13.5703 -2.4102 1.1220999999999999 156
