# .PCD v0.7 - Point Cloud Data file format
VERSION 0.7
FIELDS x y z intensity
SIZE 4 4 4 4
TYPE F F F F
COUNT 1 1 1 1
WIDTH 1344
HEIGHT 1
VIEWPOINT 0 0 0 1 0 0 0
POINTS 1344
DATA ascii
-42.5 39.375 2.0215 151
-7.8477 7.269500000000001 -1.3711000000000002 213
-27.4844 25.4531 2.1758 208
-9.3047 8.6172 -1.3281 48
-28.4688 26.375 3.1660000000000004 176
-11.093800000000002 10.273399999999999 -1.2314 27
-26.5938 24.625 3.8047000000000004 46
-13.476600000000001 12.4844 -1.0664 227
-25.7656 23.875 4.5117 61
-17.7188 16.4219 -0.8418000000000001 203
-28.5156 26.4062 5.921900000000001 70
-30.3281 28.0938 -0.4827 37
-0.5889 0.5493 -0.1346 103
-7.824199999999999 7.296900000000001 -1.3711000000000002 77
-27.0938 25.2812 2.1523 132
-9.2422 8.625 -1.3241999999999998 103
-28.8906 26.9531 3.2245999999999997 62
-11.0625 10.3203 -1.2324 45
-26.4375 24.6562 3.7949 113
-13.468800000000002 12.5625 -1.0684 158
-25.8438 24.1094 4.543 148
-17.6094 16.4375 -0.8393999999999999 253
-28.3438 26.4375 5.9023 39
-30.1406 28.125 -0.48119999999999996 149
-0.5615 0.5273 -0.1284 235
-0.6557999999999999 0.6157 -0.1307 178
-7.8047 7.332000000000001 -1.3721 134
-27.0312 25.3906 2.1562 10
-9.2109 8.6484 -1.3232 76
-28.4062 26.6875 3.1797000000000004 100
-11.0 10.335899999999999 -1.2295 245
-26.4375 24.8281 3.8066000000000004 226
-13.3906 12.5781 -1.0664 10
-25.6562 24.1094 4.5234 167
-17.5781 16.5156 -0.8403 14
-27.4375 25.7656 5.734400000000001 12
-29.9844 28.1719 -0.4802 201
-0.5825 0.5508 -0.13390000000000002 105
-42.5625 40.25 2.0449 82
-7.7734000000000005 7.3515999999999995 -1.3711000000000002 121
-26.875 25.4219 2.1504 207
-9.1719 8.6797 -1.3222999999999998 151
-26.8281 25.375 3.0117000000000003 160
-10.914100000000001 10.3203 -1.2236 121
-26.3125 24.8906 3.8026999999999997 77
-13.3594 12.6406 -1.0674 223
-25.5312 24.1406 4.5156 184
-17.5 16.5625 -0.8398 180
-26.1875 24.7656 5.488300000000001 63
-0.5718 0.5444 -0.1318 85
-0.6514 0.6206 -0.1307 174
-42.4688 40.4375 2.0469 134
-7.730499999999999 7.359400000000001 -1.3672 37
-42.5 40.4688 3.4120999999999997 66
-9.1406 8.7109 -1.3222999999999998 119
-28.5 27.1406 3.2108999999999996 149
-10.8594 10.343800000000002 -1.2207 86
-26.4688 25.2188 3.8379000000000003 126
-13.3203 12.6797 -1.0674 192
-25.6719 24.4531 4.5547 24
-17.375 16.5469 -0.8359000000000001 158
-26.0 24.7656 5.4688 182
-23.5781 22.4531 -0.3799 87
-0.5815 0.5576 -0.1346 44
-42.5 40.75 2.0547 255
-7.6953 7.3789 -1.3662 185
-42.5 40.75 3.4219 149
-9.1094 8.7266 -1.3213 63
-26.7031 25.5938 3.0176 108
-10.8047 10.3594 -1.2187999999999999 216
-26.25 25.1719 3.8183999999999996 165
-13.25 12.7031 -1.0654000000000001 139
-25.5625 24.5156 4.5508 126
-17.4062 16.6875 -0.8398 187
-25.875 24.8125 5.4609000000000005 151
-23.2656 22.2969 -0.376 20
-0.5542 0.5352 -0.1284 250
-42.4375 40.9688 2.0586 52
-7.667999999999999 7.4023 -1.3652000000000002 38
-42.4375 41.0 3.4316000000000004 141
-9.0547 8.75 -1.3193000000000001 42
-25.9844 25.0938 2.9473000000000003 40
-10.7578 10.3906 -1.2178 73
-27.9844 27.0312 4.0859 118
-13.218800000000002 12.7656 -1.0664 75
-17.3125 16.7188 -0.8389 18
-25.8125 24.9219 5.4648 208
-0.5776 0.5615 -0.1346 241
-0.645 0.627 -0.1307 55
-42.625 41.4375 2.0742 220
-7.6484000000000005 7.4375 -1.3662 153
-42.7188 41.5312 3.4648000000000003 45
-9.0078 8.7578 -1.3154 160
-25.9531 25.2344 2.9531 230
-10.726600000000001 10.4375 -1.2187999999999999 12
-26.375 25.6562 3.8632999999999997 102
-13.156199999999998 12.7969 -1.0654000000000001 117
-26.2188 25.5 4.6992 139
-17.25 16.7656 -0.8384 67
-25.7344 25.0156 5.4648 78
-23.0625 22.4219 -0.37520000000000003 183
-0.5728 0.561 -0.13390000000000002 129
-42.5625 41.6875 2.0801 142
-7.613300000000001 7.457000000000001 -1.3652000000000002 226
-8.9766 8.7891 -1.3154 169
-26.8125 26.25 3.0605 184
-10.6953 10.468800000000002 -1.2187999999999999 14
-26.2031 25.6562 3.8516000000000004 163
-13.101600000000001 12.8281 -1.0645 175
-26.0938 25.5469 4.6914 199
-17.2031 16.8438 -0.8389 206
-0.5874 0.5796 -0.1381 155
-42.5312 41.9375 2.084 156
-7.578099999999999 7.4727 -1.3633000000000002 63
-60.6875 59.8438 4.957 238
-8.9375 8.8125 -1.3144999999999998 207
-26.1562 25.7812 2.9961 5
-10.6406 10.4922 -1.2168 215
-26.1094 25.75 3.8495999999999997 221
-13.0781 12.898399999999999 -1.0664 121
-25.8281 25.4688 4.6602 98
-17.0625 16.8281 -0.835 210
-0.5522 0.5483 -0.1298 2
-60.3125 59.9062 2.9668 240
-7.5273 7.4765999999999995 -1.3594 231
-60.25 59.8438 4.9375 160
-8.8984 8.8359 -1.3135 123
-25.9531 25.7656 2.9844 249
-10.585899999999999 10.5156 -1.2148 255
-25.9531 25.7656 3.8398000000000003 54
-13.0469 12.9531 -1.0674 150
-25.7031 25.5312 4.6562 106
-17.0625 16.9375 -0.8373999999999999 65
-0.5586 0.5586 -0.1318 167
-59.9375 59.9375 2.9589999999999996 106
-7.5039 7.5039 -1.3603999999999998 56
-59.8125 59.8125 4.918 214
-8.8438 8.8438 -1.3105000000000002 87
-25.8281 25.8281 2.9805 54
-10.5547 10.5547 -1.2148 214
-25.8281 25.8281 3.8358999999999996 59
-12.9922 12.9922 -1.0664 73
-25.7344 25.7344 4.6758 200
-17.0 17.0 -0.8373999999999999 250
-0.5679 0.5718 -0.1346 155
-6.5312 6.574199999999999 -1.4062000000000001 50
-59.5 59.9375 2.9473000000000003 53
-7.4727 7.5273 -1.3584 153
-59.3438 59.7812 4.8984 83
-8.8281 8.8906 -1.3115 94
-25.8906 26.0781 2.998 226
-10.523399999999999 10.593800000000002 -1.2158 0
-27.3906 27.5938 4.082 56
-12.9453 13.039100000000001 -1.0664 144
-25.0312 25.2031 4.5625 103
-16.8906 17.0156 -0.8354 186
-0.563 0.5708 -0.13390000000000002 182
-59.0312 59.875 2.9355 130
-7.4414 7.546900000000001 -1.3574000000000002 217
-59.0 59.8125 4.8867 78
-8.7812 8.9062 -1.3096 77
-25.5 25.8594 2.9629000000000003 48
-10.4844 10.6328 -1.2158 180
-26.6562 27.0312 3.9863 206
-12.8906 13.0703 -1.0654000000000001 223
-26.0469 26.4219 4.7695 238
-16.8438 17.0781 -0.8354 230
-0.5664 0.5786 -0.1354 22
-6.4336 6.5703 -1.3955000000000002 42
-58.6562 59.875 2.9257999999999997 141
-7.4062 7.5625 -1.3563999999999998 95
-58.5625 59.7812 4.8672 252
-8.75 8.9375 -1.3105000000000002 199
-25.6094 26.1406 2.9863 206
-10.460899999999999 10.6797 -1.2178 237
-26.6094 27.1719 3.9922000000000004 133
-12.851600000000001 13.125 -1.0664 144
-26.4219 26.9688 4.8516 184
-16.7969 17.1562 -0.8369 7
-0.5615 0.5776 -0.1346 251
-6.4336 6.613300000000001 -1.4003999999999999 34
-58.2188 59.875 2.9141000000000004 66
-7.3711 7.582000000000001 -1.3544999999999998 118
-58.125 59.7812 4.8477 47
-8.7188 8.9688 -1.3105000000000002 100
-10.406199999999998 10.7031 -1.2158 207
-12.789100000000001 13.148399999999999 -1.0645 199
-26.375 27.125 4.8594 120
-16.7031 17.1719 -0.835 3
-0.5405 0.5596 -0.1298 241
-6.3789 6.605499999999999 -1.3936000000000002 70
-57.8125 59.8438 2.9043 83
-7.3477 7.605499999999999 -1.3544999999999998 61
-57.7188 59.75 4.832 243
-8.6797 8.9844 -1.3075999999999999 209
-10.3828 10.75 -1.2168 173
-25.7344 26.625 3.8867000000000003 247
-12.7422 13.1875 -1.0645 237
-24.9219 25.7969 4.6094 238
-16.6562 17.25 -0.8354 59
-0.5605 0.584 -0.1354 253
-6.332000000000001 6.5977 -1.3877000000000002 124
-57.4062 59.8438 2.8945 160
-7.3125 7.6211 -1.3535 190
-57.3125 59.7188 4.8125 248
-8.6328 8.9922 -1.3056999999999999 51
-10.3281 10.7578 -1.2148 55
-25.5938 26.6719 3.8808999999999996 112
-12.6875 13.218800000000002 -1.0635 183
-24.9688 26.0156 4.6328 54
-16.5938 17.2812 -0.835 106
-0.5586 0.5859000000000001 -0.1354 119
-6.2890999999999995 6.605499999999999 -1.3838 71
-57.0312 59.875 2.8867000000000003 93
-7.292999999999999 7.6523 -1.3544999999999998 159
-56.9062 59.7188 4.7969 197
-8.5938 9.0234 -1.3047 130
-26.6875 28.0156 3.1582 132
-10.289100000000001 10.8047 -1.2148 249
-25.6562 26.9375 3.9043 237
-12.6406 13.2656 -1.0635 145
-24.8281 26.0781 4.625 183
-16.5469 17.3594 -0.8354 119
-0.6025 0.6367 -0.1471 178
-6.269500000000001 6.625 -1.3838 91
-56.5938 59.8125 2.873 217
-7.25 7.6602 -1.3516 5
-56.5 59.7188 4.7812 239
-8.5625 9.0547 -1.3047 249
-26.6406 28.1562 3.1620999999999997 54
-10.2422 10.8281 -1.2139 43
-25.8594 27.3438 3.9512 99
-12.585899999999999 13.3047 -1.0625 196
-24.9375 26.3594 4.6602 11
-16.4688 17.4219 -0.8354 207
-0.5625 0.5986 -0.1375 152
-6.2227 6.625 -1.3799000000000001 165
-56.1875 59.8125 2.8651999999999997 213
-7.2109000000000005 7.675800000000001 -1.3496000000000001 68
-56.0938 59.7188 4.7656 6
-8.5312 9.0859 -1.3056999999999999 151
-26.5312 28.2344 3.1620999999999997 121
-10.2031 10.8672 -1.2139 62
-25.4688 27.1094 3.9062 133
-12.5156 13.3203 -1.0605 87
-24.8438 26.4375 4.6602 83
-16.4219 17.4844 -0.8359000000000001 221
-0.5361 0.5747 -0.13119999999999998 88
-6.1875 6.6328 -1.3769999999999998 195
-55.75 59.7812 2.8535000000000004 9
-7.167999999999999 7.6836 -1.3457 83
-55.6875 59.7188 4.75 198
-8.4688 9.0781 -1.3008000000000002 236
-26.3906 28.2969 3.1582 8
-10.1797 10.906199999999998 -1.2148 159
-25.4844 27.3125 3.9219 71
-12.460899999999999 13.3594 -1.0605 8
-16.375 17.5469 -0.8359000000000001 21
-20.7188 22.2031 -0.3542 151
-0.5366 0.5791 -0.1318 242
-6.1484000000000005 6.6328 -1.3730000000000002 133
-55.375 59.7812 2.8438 184
-7.1523 7.7188 -1.3486000000000002 240
-55.3125 59.6875 4.7305 23
-8.4453 9.1094 -1.3008000000000002 19
-10.1562 10.960899999999999 -1.2168 77
-25.1562 27.1406 3.8848000000000003 113
-12.4219 13.398399999999999 -1.0605 169
-16.3281 17.625 -0.8369 1
-20.5938 22.2344 -0.35350000000000004 11
-0.5669 0.6157 -0.14029999999999998 117
-6.105499999999999 6.6328 -1.3681999999999999 100
-55.0 59.75 2.8339999999999996 71
-7.1015999999999995 7.7148 -1.3437999999999999 204
-54.9375 59.6875 4.7148 32
-8.4062 9.125 -1.2997999999999998 101
-10.1016 10.968800000000002 -1.2139 204
-25.125 27.2969 3.8945 126
-12.3828 13.4453 -1.0605 216
-16.2188 17.625 -0.835 224
-20.4375 22.2031 -0.3521 73
-5.359400000000001 5.8672 -1.3936000000000002 146
-6.074199999999999 6.6484000000000005 -1.3672 190
-54.5938 59.75 2.8242000000000003 18
-7.074199999999999 7.7461 -1.3437999999999999 130
-54.5312 59.6875 4.6992 175
-8.3594 9.1484 -1.2978999999999998 10
-10.0469 11.0 -1.2129 242
-24.9688 27.3281 3.8848000000000003 204
-12.3281 13.5 -1.0605 61
-16.1562 17.6875 -0.835 12
-20.3438 22.2656 -0.3518 123
-5.3125 5.855499999999999 -1.3866999999999998 216
-6.0547 6.671900000000001 -1.3672 71
-54.2188 59.7812 2.8164 98
-7.0273 7.7461 -1.3397999999999999 5
-54.125 59.6875 4.6836 99
-8.3203 9.1719 -1.2978999999999998 154
-54.0312 59.5625 6.5664 222
-10.0312 11.0547 -1.2158 249
-25.7969 28.4375 4.0312 68
-12.281199999999998 13.539100000000001 -1.0605 167
-16.1094 17.75 -0.8354 136
-5.2734000000000005 5.855499999999999 -1.3818000000000001 164
-6.0234000000000005 6.6875 -1.3652000000000002 142
-53.8125 59.75 2.8066000000000004 166
-6.984400000000001 7.7539 -1.3369 247
-53.75 59.6562 4.6719 30
-8.2812 9.1953 -1.2959 1
-53.6875 59.625 6.550800000000001 49
-9.9844 11.085899999999999 -1.2148 201
-25.6719 28.5 4.0273 239
-12.218800000000002 13.5703 -1.0595999999999999 152
-16.0156 17.7812 -0.8340000000000001 133
-5.2422 5.859400000000001 -1.3788999999999998 150
-5.988300000000001 6.6953 -1.3633000000000002 235
-53.4375 59.75 2.7988 95
-6.957000000000001 7.7773 -1.3369 208
-53.3438 59.6562 4.6523 91
-8.2422 9.2109 -1.2949000000000002 159
-53.25 59.5312 6.5234000000000005 103
-9.9141 11.0781 -1.2109 169
-15.960899999999999 17.8438 -0.8345 192
-19.9062 22.25 -0.3481 127
-5.2109000000000005 5.8672 -1.3769999999999998 104
-5.957000000000001 6.707000000000001 -1.3613 147
-53.0625 59.75 2.7891000000000004 151
-6.9102 7.7773 -1.3330000000000002 174
-53.0 59.6562 4.6406 191
-6.3984000000000005 7.203099999999999 -1.0078 114
-52.875 59.5625 6.5039 119
-6.2422 7.0273 -0.7642 186
-8.125 9.1484 -0.1422 91
-5.1875 5.8828 -1.376 194
-5.9336 6.7265999999999995 -1.3613 166
-52.6562 59.7188 2.7793 197
-6.375 7.2265999999999995 -1.2344 85
-52.5938 59.625 4.625 58
-6.1953 7.0234000000000005 -0.9795 187
-52.5 59.5312 6.480499999999999 20
-5.9297 6.7227 -0.7284999999999999 96
-6.0273 6.832000000000001 -0.5273 251
-8.0859 9.1719 -0.1421 13
-5.1602 5.894500000000001 -1.374 234
-5.8984000000000005 6.734400000000001 -1.3584 252
-52.3125 59.7188 2.7714999999999996 189
-6.3047 7.199199999999999 -1.2256 156
-52.2188 59.625 4.6094 29
-5.9140999999999995 6.7539 -0.9390000000000001 51
-52.125 59.5 6.457000000000001 210
-5.8515999999999995 6.6836 -0.7217 32
-5.9102 6.75 -0.5195000000000001 20
-6.015599999999999 6.8711 -0.1059 56
-5.1289 5.8984000000000005 -1.3711000000000002 156
-5.8789 6.761699999999999 -1.3594 199
-51.9062 59.6875 2.7598000000000003 24
-6.300800000000001 7.2461 -1.2295 229
-51.8438 59.625 4.5938 197
-5.8359000000000005 6.7109000000000005 -0.9301999999999999 75
-51.7812 59.5312 6.4414 69
-5.800800000000001 6.667999999999999 -0.7182999999999999 43
-5.890599999999999 6.7734000000000005 -0.5195000000000001 19
-5.9414 6.832000000000001 -0.105 184
-5.1133 5.921900000000001 -1.3721 79
-5.832000000000001 6.7539 -1.3544999999999998 47
-51.5625 59.6875 2.752 79
-6.269500000000001 7.2578 -1.2275 106
-51.5 59.625 4.582 143
-5.769500000000001 6.6797 -0.9233 100
-51.4062 59.5 6.417999999999999 207
-5.7852 6.699199999999999 -0.7192000000000001 63
-5.8515999999999995 6.7734000000000005 -0.5181 250
-5.875 6.800800000000001 -0.312 184
-5.9062 6.8359000000000005 -0.1047 38
-5.0938 5.9375 -1.3721 183
-5.8125 6.7734000000000005 -1.3544999999999998 35
-51.2188 59.6875 2.7441000000000004 190
-6.25 7.2852 -1.2295 183
-51.125 59.5938 4.5664 122
-5.75 6.699199999999999 -0.9233 171
-51.0312 59.4688 6.3984000000000005 104
-5.765599999999999 6.7188 -0.7197 40
-5.8086 6.769500000000001 -0.5166 92
-5.8711 6.8398 -0.1045 164
-5.0703 5.953099999999999 -1.3721 34
-5.7812 6.7890999999999995 -1.3535 155
-50.7812 59.625 2.7344 100
-6.2188 7.300800000000001 -1.2275 103
-50.75 59.5938 4.5508 114
-5.7109000000000005 6.707000000000001 -0.9214 210
-50.6562 59.5 6.3789 139
-5.75 6.7539 -0.7206999999999999 175
-5.761699999999999 6.765599999999999 -0.5146000000000001 107
-5.8125 6.824199999999999 -0.31129999999999997 42
-5.8359000000000005 6.8515999999999995 -0.10439999999999999 204
-5.0312 5.949199999999999 -1.3672 215
-5.9140999999999995 6.9922 0.10619999999999999 180
-5.7461 6.796900000000001 -1.3506 201
-6.2109000000000005 7.3477 -1.2324 235
-50.375 59.5625 4.5352 196
-5.6875 6.7265999999999995 -0.9209 16
-50.2812 59.4688 6.359400000000001 177
-5.730499999999999 6.7773 -0.7212000000000001 213
-5.730499999999999 6.7773 -0.5136999999999999 166
-5.7734000000000005 6.828099999999999 -0.3103 15
-5.0156 5.9727 -1.3681999999999999 37
-5.7265999999999995 6.8164 -1.3516 125
-6.171900000000001 7.3477 0.3333 113
-6.605499999999999 7.863300000000001 -1.3154 225
-50.0 59.5312 4.5195 55
-5.6602 6.738300000000001 -0.9204000000000001 87
-49.9375 59.4375 6.3398 108
-5.703099999999999 6.7890999999999995 -0.7206999999999999 14
-5.6953 6.7812 -0.5127 118
-5.7227 6.8125 -0.30879999999999996 30
-4.9883 5.9765999999999995 -1.3652000000000002 129
-5.6953 6.828099999999999 -1.3496000000000001 117
-6.1562 7.3789 0.3337 199
-6.5977 7.9062 -1.3193000000000001 210
-49.6562 59.5312 4.5078 29
-5.6211 6.738300000000001 -0.9179999999999999 130
-49.5938 59.4375 6.3203 132
-5.675800000000001 6.800800000000001 -0.7197 157
-5.667999999999999 6.792999999999999 -0.5122 72
-5.6914 6.824199999999999 -0.3086 62
-4.9688 6.0 -1.3662 22
-5.6562 6.828099999999999 -1.3457 135
-6.0273 7.2773 0.3281 251
-6.5586 7.921900000000001 -1.3174000000000001 209
-49.3125 59.5312 4.4961 109
-5.6015999999999995 6.761699999999999 -0.9179999999999999 4
-49.2188 59.4062 6.296900000000001 41
-5.640599999999999 6.8086 -0.7188 120
-5.644500000000001 6.8164 -0.5122 4
-5.6602 6.8359000000000005 -0.3081 137
-4.9453 6.015599999999999 -1.3652000000000002 78
-5.6328 6.8477 -1.3457 167
-5.9688 7.2578 0.3264 69
-6.5273 7.9414 -1.3163999999999998 149
-48.9375 59.5312 4.4805 25
-5.5703 6.7734000000000005 -0.9175 102
-48.875 59.4375 6.2812 38
-5.605499999999999 6.8203 -0.7173 220
-5.613300000000001 6.824199999999999 -0.5117 240
-5.6328 6.8515999999999995 -0.3079 213
-4.9219 6.0273 -1.3652000000000002 0
-5.609400000000001 6.8672 -1.3457 1
-5.9297 7.261699999999999 0.3257 161
-6.4922 7.953099999999999 -1.3154 46
-48.5938 59.5 4.4648 214
-5.550800000000001 6.800800000000001 -0.9179999999999999 239
-48.5 59.4062 6.261699999999999 134
-5.582000000000001 6.8398 -0.7173 130
-5.582000000000001 6.8359000000000005 -0.5107 79
-5.609400000000001 6.8711 -0.3079 105
-4.8828 6.0234000000000005 -1.3603999999999998 250
-5.5859000000000005 6.886699999999999 -1.3457 186
-5.9062 7.2852 0.3257 156
-6.4609000000000005 7.9688 -1.3144999999999998 103
-48.2188 59.4688 4.4531 40
-5.511699999999999 6.800800000000001 -0.9155 191
-48.125 59.375 6.2422 231
-5.5586 6.855499999999999 -0.7173 52
-20.2812 25.0156 3.3808999999999996 63
-5.5547 6.8515999999999995 -0.5107 174
-5.5859000000000005 6.890599999999999 -0.3079 44
-5.8477 7.2148 -0.10769999999999999 210
-4.8555 6.0273 -1.3574000000000002 230
-5.8672 7.2890999999999995 0.1085 112
-5.5586 6.9023 -1.3447 232
-5.855499999999999 7.2734000000000005 0.32420000000000004 210
-6.4336 7.988300000000001 -1.3144999999999998 129
-47.9062 59.5 4.4414 244
-5.484400000000001 6.8086 -0.9140999999999999 0
-47.8438 59.4062 6.2265999999999995 15
-5.5312 6.8672 -0.7162999999999999 172
-20.2656 25.1719 3.3926 89
-5.5273 6.863300000000001 -0.5097999999999999 52
-5.5547 6.8984000000000005 -0.30760000000000004 143
-5.824199999999999 7.234400000000001 -0.10769999999999999 184
-4.8438 6.0586 -1.3603999999999998 94
-5.828099999999999 7.2852 0.1082 153
-5.519500000000001 6.9023 -1.3408000000000002 101
-5.832000000000001 7.292999999999999 0.32420000000000004 216
-6.4023 8.0078 -1.3125 124
-47.5625 59.5 4.4297 229
-5.457000000000001 6.824199999999999 -0.9136 248
-47.4688 59.375 6.207000000000001 135
-5.5 6.875 -0.7153 178
-20.2656 25.3438 3.4062 146
-5.5039 6.8828 -0.5097999999999999 192
-5.5234000000000005 6.9062 -0.3071 153
-18.9844 23.7344 4.6289 255
-5.800800000000001 7.2539 -0.10769999999999999 204
-4.8242 6.078099999999999 -1.3603999999999998 228
-5.8164 7.324199999999999 0.1085 212
-5.5 6.9297 -1.3428 232
-5.7578 7.2578 0.3218 121
-6.363300000000001 8.0156 -1.3105000000000002 58
-47.2188 59.4688 4.4141 142
-5.4375 6.8515999999999995 -0.9146 163
-47.0938 59.3438 6.1836 158
-5.4648 6.886699999999999 -0.7143999999999999 24
-19.6719 24.7812 3.3202999999999996 242
-5.4765999999999995 6.8984000000000005 -0.5097999999999999 100
-5.5 6.925800000000001 -0.3071 10
-18.8906 23.7969 4.625 1
-5.7734000000000005 7.2734000000000005 -0.10769999999999999 200
-4.7891 6.078099999999999 -1.3574000000000002 77
-5.7812 7.332000000000001 0.10830000000000001 135
-5.4648 6.9375 -1.3397999999999999 235
-5.6875 7.2188 0.3191 204
-6.3164 8.0156 -1.3075999999999999 68
-46.8438 59.4688 4.4023 90
-5.4102 6.863300000000001 -0.9136 49
-46.8125 59.4062 6.171900000000001 87
-5.4414 6.9062 -0.7143999999999999 122
-19.8281 25.1719 3.3632999999999997 224
-5.4453 6.9062 -0.5093 92
-5.4727 6.9453 -0.3071 78
-18.75 23.7812 4.6094 153
-5.7461 7.292999999999999 -0.10769999999999999 103
-4.7656 6.0898 -1.3563999999999998 83
-5.7461 7.3438 0.1082 57
-5.449199999999999 6.9648 -1.3418 101
-5.7109000000000005 7.296900000000001 0.3218 216
-6.292999999999999 8.0391 -1.3075999999999999 94
-46.5312 59.4688 4.3906 15
-5.3672 6.859400000000001 -0.9106000000000001 248
-18.4531 23.5625 2.4414 127
-5.4140999999999995 6.917999999999999 -0.7139 113
-19.6406 25.0938 3.3438 89
-5.4297 6.9375 -0.5097999999999999 69
-18.8906 24.125 3.9355 117
-5.4453 6.957000000000001 -0.3069 151
-18.8438 24.0781 4.6562 240
-5.7265999999999995 7.3164 -0.10769999999999999 122
-4.7422 6.1015999999999995 -1.3555000000000001 120
-5.730499999999999 7.3711 0.10830000000000001 127
-5.4140999999999995 6.9648 -1.3388999999999998 221
-5.6602 7.2812 0.3201 180
-6.2734000000000005 8.0703 -1.3096 225
-46.1875 59.4375 4.3789 13
-5.3477 6.8789 -0.9111 187
-18.7812 24.1562 2.4961 241
-5.394500000000001 6.9414 -0.7143999999999999 138
-19.4375 25.0 3.3242000000000003 6
-5.4140999999999995 6.9609000000000005 -0.5103 170
-18.8125 24.1875 3.9375 46
-5.4140999999999995 6.9648 -0.3064 225
-18.6875 24.0469 4.6367 238
-5.703099999999999 7.3359000000000005 -0.10779999999999999 182
-4.7266 6.1289 -1.3574000000000002 127
-5.6953 7.3828 0.1082 26
-5.3828 6.9765999999999995 -1.3369 171
-5.625 7.2890999999999995 0.31980000000000003 139
-6.2227 8.0703 -1.3047 88
-45.8125 59.4062 4.3633 116
-5.3164 6.890599999999999 -0.9102 172
-18.6406 24.1562 2.4883 160
-5.3711 6.9609000000000005 -0.7143999999999999 15
-19.3125 25.0312 3.3183999999999996 61
-5.394500000000001 6.9922 -0.5112 53
-18.7188 24.25 3.9355 167
-5.3789 6.9727 -0.3059 99
-5.6797 7.363300000000001 -0.10779999999999999 246
-4.7031 6.140599999999999 -1.3563999999999998 146
-5.699199999999999 7.4414 0.10869999999999999 104
-5.3515999999999995 6.984400000000001 -1.335 228
-5.5977 7.3086 0.31980000000000003 169
-6.199199999999999 8.0938 -1.3056999999999999 15
-45.5312 59.4375 4.3516 142
-5.296900000000001 6.917999999999999 -0.9111 250
-18.5469 24.2188 2.4883 66
-5.328099999999999 6.957000000000001 -0.7119 169
-18.9844 24.7969 3.2773000000000003 49
-5.3672 7.0078 -0.5112 45
-17.625 23.0 3.7226999999999997 187
-5.359400000000001 6.9961 -0.3059 157
-17.75 23.1719 4.4414 216
-5.644500000000001 7.3711 -0.10769999999999999 179
-4.6602 6.1289 -1.3496000000000001 108
-5.640599999999999 7.417999999999999 0.10800000000000001 74
-5.328099999999999 7.0078 -1.3359 11
-5.5586 7.3125 0.3188 194
-6.1602 8.1016 -1.3037 168
-45.1875 59.4062 4.3398 254
-5.2773 6.9375 -0.9116 188
-18.4844 24.3125 2.4922 169
-5.3086 6.984400000000001 -0.7129000000000001 47
-18.9219 24.875 3.2793 225
-5.3398 7.019500000000001 -0.5103 75
-17.5625 23.0938 3.7266000000000004 143
-5.3398 7.0234000000000005 -0.3064 90
-17.625 23.1719 4.4336 242
-5.6172 7.386699999999999 -0.10769999999999999 65
-4.6367 6.140599999999999 -1.3496000000000001 249
-5.3086 7.0312 -1.3369 229
-5.5273 7.324199999999999 0.3186 142
-6.125 8.1172 -1.3027000000000002 183
-44.8438 59.4062 4.3281 189
-5.238300000000001 6.9375 -0.9092 187
-18.2188 24.125 2.4668 254
-5.2852 7.0 -0.7129000000000001 181
-18.9219 25.0625 3.2969 73
-5.3125 7.0352 -0.5103 106
-17.875 23.6719 3.8105 104
-5.3164 7.042999999999999 -0.3064 8
-17.6094 23.3281 4.4531 21
-4.6172 6.1602 -1.3506 188
-5.269500000000001 7.0312 -1.334 36
-5.5039 7.3438 0.3186 207
-6.0938 8.1328 -1.3018 169
-44.5 59.4062 4.3164 51
-5.2148 6.957000000000001 -0.9092 174
-44.4062 59.2812 6.046900000000001 10
-5.269500000000001 7.0312 -0.7139 34
-18.7031 24.9531 3.2733999999999996 201
-17.7812 23.7344 3.8105 35
-5.2773 7.042999999999999 -0.3054 153
-17.9062 23.8906 4.543 104
-4.5977 6.1836 -1.3516 19
-5.230499999999999 7.0273 -1.3291 132
-5.453099999999999 7.332000000000001 0.3171 6
-6.0586 8.1406 -1.2997999999999998 32
-44.1875 59.4062 4.3047 117
-5.1875 6.9727 -0.9092 85
-44.125 59.2812 6.0312 34
-5.234400000000001 7.0352 -0.7123999999999999 206
-17.8906 24.0469 3.1445 107
-5.269500000000001 7.082000000000001 -0.5107 103
-17.7656 23.875 3.8223000000000003 105
-5.25 7.0586 -0.3054 35
-17.9062 24.0625 4.5664 128
-4.5781 6.199199999999999 -1.3516 83
-5.207000000000001 7.050800000000001 -1.3300999999999998 233
-5.4062 7.3164 0.3159 98
-6.019500000000001 8.1484 -1.2978999999999998 14
-43.875 59.375 4.293 65
-5.171900000000001 7.0 -0.9102 171
-43.7812 59.2812 6.015599999999999 74
-5.207000000000001 7.050800000000001 -0.7123999999999999 248
-17.5156 23.7031 3.0938 17
-5.2422 7.0977 -0.5107 107
-18.25 24.7031 3.9452999999999996 8
-5.2265999999999995 7.078099999999999 -0.3054 148
-4.543 6.199199999999999 -1.3477000000000001 6
-5.1836 7.0703 -1.3311000000000002 224
-5.390599999999999 7.3515999999999995 0.31670000000000004 61
-5.980499999999999 8.1562 -1.2949000000000002 141
-43.5312 59.375 4.2812 150
-5.1484000000000005 7.0234000000000005 -0.9106000000000001 253
-43.4688 59.2812 6.0039 137
-5.1797 7.0664 -0.7119 144
-17.2969 23.5781 3.0683999999999996 76
-5.2188 7.1172 -0.5107 97
-18.2344 24.875 3.9629000000000003 111
-5.207000000000001 7.1015999999999995 -0.3057 234
-4.5156 6.199199999999999 -1.3447 58
-5.1602 7.0859000000000005 -1.3300999999999998 142
-5.3789 7.386699999999999 0.3171 169
-5.953099999999999 8.1719 -1.2949000000000002 144
-43.2188 59.3438 4.2695 173
-5.125 7.0352 -0.9102 129
-17.875 24.5469 2.4766 201
-5.1640999999999995 7.0898 -0.7129000000000001 239
-17.2812 23.7344 3.0801 118
-5.1914 7.125 -0.5103 2
-18.1875 24.9531 3.9668 16
-5.1836 7.1172 -0.3057 89
-17.875 24.5312 4.6211 87
-4.4922 6.2109000000000005 -1.3447 112
-5.1211 7.078099999999999 -1.3262 163
-5.363300000000001 7.4140999999999995 0.3179 68
-5.925800000000001 8.1875 -1.2949000000000002 203
-42.9062 59.3125 4.2578 93
-5.0938 7.042999999999999 -0.9087000000000001 109
-17.7812 24.5781 2.4746 105
-5.1523 7.1211 -0.7143999999999999 125
-17.2188 23.8125 3.0839999999999996 54
-5.167999999999999 7.144500000000001 -0.5103 115
-18.3594 25.3906 4.0234 108
-5.1523 7.125 -0.30519999999999997 85
-17.8125 24.625 4.6289 172
-4.4688 6.2265999999999995 -1.3447 128
-5.0938 7.0977 -1.3262 22
-5.3398 7.4414 0.3181 70
-5.890599999999999 8.2031 -1.2938999999999998 145
-42.5938 59.3438 4.2461 157
-5.0703 7.0625 -0.9092 59
-18.7344 26.0938 2.6211 33
-5.1172 7.1289 -0.7129000000000001 162
-17.125 23.8594 3.082 190
-5.1523 7.175800000000001 -0.5112 91
-17.4062 24.25 3.8339999999999996 64
-5.125 7.140599999999999 -0.30519999999999997 110
-17.6875 24.6406 4.6211 148
-4.4453 6.238300000000001 -1.3437999999999999 126
-5.0664 7.109400000000001 -1.3241999999999998 97
-5.269500000000001 7.394500000000001 0.3152 75
-5.855499999999999 8.2188 -1.2919999999999998 200
-42.25 59.3125 4.2344 178
-5.0469 7.082000000000001 -0.9097 91
-18.5469 26.0312 2.6074 107
-5.0898 7.140599999999999 -0.7123999999999999 13
-17.4375 24.4688 3.1543 7
-5.125 7.1914 -0.5112 196
-17.1406 24.0469 3.793 66
-5.1055 7.167999999999999 -0.3054 128
-17.4375 24.4844 4.5781 209
-4.4141 6.2422 -1.3408000000000002 90
-5.0352 7.125 -1.3241999999999998 153
-5.2578 7.4375 0.31620000000000004 55
-5.8125 8.2188 -1.29 9
-41.9375 59.3125 4.2227 26
-5.0352 7.1211 -0.9120999999999999 175
-41.875 59.2188 5.921900000000001 213
-5.0625 7.1602 -0.7129000000000001 5
-17.2188 24.3594 3.1308999999999996 204
-5.0938 7.203099999999999 -0.5107 196
-17.1094 24.2031 3.8086 201
-5.0898 7.199199999999999 -0.3062 250
-17.1719 24.2812 4.5273 195
-4.3906 6.2539 -1.3397999999999999 240
-5.0078 7.140599999999999 -1.3232 41
-5.230499999999999 7.457000000000001 0.31620000000000004 59
-5.7812 8.2422 -1.2891 215
-41.625 59.3125 4.2148 48
-5.0039 7.1328 -0.9111 139
-41.5625 59.25 5.9102 98
-5.043 7.1875 -0.7134 227
-17.125 24.4062 3.1289 251
-5.0664 7.2188 -0.5103 168
-16.2188 23.1094 3.625 253
-5.0625 7.2148 -0.3059 77
-17.0625 24.3125 4.5234 54
-4.3672 6.265599999999999 -1.3388999999999998 102
-4.9844 7.1523 -1.3222999999999998 211
-5.25 7.5352 0.3188 190
-5.765599999999999 8.2734 -1.2919999999999998 244
-41.3125 59.2812 4.1992 129
-4.9805 7.144500000000001 -0.9106000000000001 12
-18.6094 26.7188 2.6562 227
-5.0273 7.2109000000000005 -0.7143999999999999 44
-17.0312 24.4375 3.127 28
-5.043 7.238300000000001 -0.5107 38
-16.375 23.5 3.6776999999999997 80
-5.0391 7.230499999999999 -0.3059 7
-16.9375 24.3125 4.5117 110
-4.3398 6.2734000000000005 -1.3378999999999999 85
-4.9492 7.1523 -1.3193000000000001 101
-5.199199999999999 7.511699999999999 0.3171 155
-5.730499999999999 8.2812 -1.29 17
-41.0312 59.3125 4.1914 123
-4.957 7.1640999999999995 -0.9111 132
-17.9531 25.9531 2.5742000000000003 55
-5.0 7.2265999999999995 -0.7139 69
-17.0156 24.6094 3.1406 34
-5.0234 7.261699999999999 -0.5112 145
-16.3594 23.6406 3.6933999999999996 105
-5.0234 7.2578 -0.3064 208
-16.8906 24.4062 4.5195 98
-16.5312 23.8906 5.1133 92
-4.3242 6.296900000000001 -1.3397999999999999 235
-4.9336 7.1836 -1.3222999999999998 219
-5.1914 7.5586 0.3184 1
-5.6836 8.2734 -1.2861000000000002 87
-40.7188 59.3125 4.1836 79
-4.9336 7.1875 -0.9116 155
-17.7969 25.9062 2.5645 187
-4.9688 7.238300000000001 -0.7134 41
-16.9844 24.7188 3.1483999999999996 93
-5.0039 7.2852 -0.5117 1
-16.3438 23.7969 3.707 116
-4.9961 7.2734000000000005 -0.3064 115
-16.4531 23.9531 5.1133 60
-4.2969 6.300800000000001 -1.3369 15
-4.9102 7.199199999999999 -1.3222999999999998 41
-5.1836 7.6015999999999995 0.3196 214
-5.6523 8.2891 -1.2852000000000001 221
-40.4375 59.2812 4.1719 230
-4.9258 7.2227 -0.9140999999999999 76
-17.7344 26.0 2.5664 143
-4.957 7.269500000000001 -0.7148 233
-16.9062 24.7969 3.1504000000000003 183
-4.9727 7.292999999999999 -0.5107 69
-16.3594 23.9844 3.7285000000000004 163
-4.9766 7.296900000000001 -0.3066 80
-16.6094 24.3438 4.4883 35
-5.8477 8.5781 -0.12050000000000001 201
-16.3125 23.9219 5.0977 51
-4.2656 6.3125 -1.3359 131
-4.8867 7.2265999999999995 -1.3241999999999998 184
-5.136699999999999 7.5938 0.3184 250
-5.6211 8.3125 -1.2852000000000001 176
-16.8281 24.8906 1.7461000000000002 156
-4.8867 7.230499999999999 -0.9126000000000001 59
-17.6875 26.1719 2.5762 153
-4.9375 7.300800000000001 -0.7162999999999999 26
-16.4219 24.2812 3.0762 49
-4.9375 7.3047 -0.5103 15
-15.9531 23.5938 3.6582 32
-4.957 7.332000000000001 -0.3071 243
-15.8047 23.375 4.2969 110
-5.8125 8.6016 -0.12050000000000001 235
-16.2969 24.0938 5.1211 40
-4.2461 6.328099999999999 -1.3359 80
-4.8398 7.2148 -1.3184 28
-5.136699999999999 7.6562 0.3201 47
-5.582000000000001 8.3281 -1.2841999999999998 251
-16.7031 24.9062 1.7422 46
-4.8555 7.2422 -0.9120999999999999 43
-17.5469 26.1562 2.5683999999999996 108
-4.9141 7.324199999999999 -0.7168000000000001 123
-16.3281 24.3594 3.0781 70
-4.918 7.3359000000000005 -0.5112 179
-15.843800000000002 23.625 3.6523000000000003 171
-4.9258 7.3438 -0.3069 44
-15.718800000000002 23.4375 4.2969 114
-16.2812 24.2812 5.1484000000000005 173
-4.2266 6.3438 -1.3369 163
-4.8203 7.234400000000001 -1.3193000000000001 98
-5.1328 7.707000000000001 0.3215 2
-5.5664 8.3516 -1.2861000000000002 240
-16.625 24.9531 1.7422 10
-4.8438 7.2734000000000005 -0.9140999999999999 75
-17.375 26.0781 2.5566 174
-4.8906 7.3438 -0.7168000000000001 202
-15.4375 23.1719 2.9219 41
-4.8906 7.3398 -0.5103 213
-16.6562 25.0 3.8594 110
-4.9023 7.359400000000001 -0.3071 153
-15.6328 23.4688 4.293 8
-16.3281 24.5156 5.1875 226
-4.2031 6.355499999999999 -1.3359 103
-4.793 7.2461 -1.3184 253
-5.0703 7.6640999999999995 0.3191 94
-5.5234000000000005 8.3516 -1.2822 125
-16.5469 25.0156 1.7422 58
-4.8281 7.300800000000001 -0.9155 182
-17.3594 26.2344 2.5664 69
-4.8633 7.3515999999999995 -0.7162999999999999 230
-15.281199999999998 23.1094 2.9062 39
-4.8711 7.3672 -0.5112 133
-16.7969 25.4062 3.9120999999999997 229
-4.8828 7.3828 -0.3074 170
-15.4297 23.3281 4.2578 241
-14.906199999999998 22.5312 4.7578 161
-4.1719 6.359400000000001 -1.334 17
-4.7695 7.2734000000000005 -1.3193000000000001 95
-5.0391 7.6836 0.3191 206
-5.4727 8.3438 -1.2773 95
-4.8086 7.328099999999999 -0.9165000000000001 199
-16.375 24.9531 2.4336 86
-4.8477 7.386699999999999 -0.7182999999999999 4
-15.2031 23.1719 2.9082 194
-4.8398 7.375 -0.5103 67
-16.7188 25.4844 3.9141000000000004 87
-4.8672 7.421900000000001 -0.3081 137
-15.3672 23.4219 4.2656 47
-5.6953 8.6797 -0.12050000000000001 15
-16.2344 24.7344 5.207000000000001 35
-4.1445 6.3672 -1.3319999999999999 80
-4.7383 7.2734000000000005 -1.3174000000000001 128
-5.0547 7.761699999999999 0.3218 197
-5.453099999999999 8.375 -1.2793 191
-16.2188 24.9062 1.7266 100
-4.7812 7.3438 -0.9165000000000001 135
-16.2656 24.9688 2.4316 108
-4.8281 7.4140999999999995 -0.7192000000000001 45
-15.1406 23.25 2.9120999999999997 241
-4.8125 7.390599999999999 -0.5103 18
-17.2344 26.4531 4.0547 230
-4.8477 7.4453 -0.30829999999999996 227
-14.6719 22.5312 4.0938 47
-14.8594 22.8281 4.793 195
-4.1211 6.375 -1.3311000000000002 93
-4.7188 7.296900000000001 -1.3184 60
-5.0703 7.8398 0.32420000000000004 11
-5.421900000000001 8.3906 -1.2793 130
-16.125 24.9531 1.7256 9
-4.7578 7.363300000000001 -0.9165000000000001 49
-15.460899999999999 23.9219 2.3223 238
-4.8086 7.4375 -0.7197 162
-15.093800000000002 23.3594 2.918 229
-4.7969 7.417999999999999 -0.5112 225
-17.0781 26.4219 4.0391 32
-4.8281 7.4648 -0.3086 152
-15.1328 23.4062 4.2461 181
-14.7031 22.7344 4.7656 233
-4.1016 6.386699999999999 -1.3311000000000002 240
-4.6758 7.2852 -1.3135 38
-5.043 7.859400000000001 0.32420000000000004 151
-5.386699999999999 8.3906 -1.2773 91
-16.0938 25.0938 1.7313999999999998 168
-4.7461 7.394500000000001 -0.9189 67
-15.351600000000001 23.9219 2.3184 11
-4.7812 7.449199999999999 -0.7192000000000001 58
-15.0703 23.4844 2.9276999999999997 53
-4.7812 7.449199999999999 -0.5122 47
-15.1406 23.5938 3.5995999999999997 28
-4.8047 7.484400000000001 -0.30879999999999996 136
-15.0781 23.5 4.25 191
-14.5781 22.7188 4.75 178
-4.0781 6.4062 -1.3319999999999999 77
-4.6523 7.3086 -1.3144999999999998 199
-5.3515999999999995 8.4062 -1.2764 228
-15.6875 24.6406 1.6972999999999998 153
-4.7227 7.417999999999999 -0.9198999999999999 223
-15.2578 23.9688 2.3184 56
-4.7539 7.4688 -0.7192000000000001 0
-16.3438 25.6875 3.1952999999999996 123
-4.7617 7.480499999999999 -0.5132 112
-16.5469 25.9844 3.957 30
-4.7852 7.519500000000001 -0.3093 121
-14.648399999999999 23.0156 4.1523 77
-14.5 22.7812 4.7539 167
-4.0469 6.4102 -1.3291 167
-4.6211 7.3164 -1.3135 247
-4.9844 7.894500000000001 0.32420000000000004 205
-5.3125 8.4141 -1.2744 172
-15.5469 24.6094 1.6913999999999998 58
-4.7031 7.4453 -0.9209 232
-14.8906 23.5781 2.2734 64
-4.7422 7.5078 -0.7217 10
-14.710899999999999 23.2969 2.8906 85
-4.7383 7.5 -0.5132 181
-14.875 23.5469 3.5762 40
-4.7617 7.5352 -0.3093 162
-14.1875 22.4531 4.043 115
-14.468800000000002 22.9062 4.7695 121
-4.0195 6.417999999999999 -1.3281 95
-4.5938 7.332000000000001 -1.3135 83
-4.957 7.9102 0.32420000000000004 103
-5.2812 8.4297 -1.2744 46
-15.5078 24.75 1.6963 88
-4.6758 7.4609000000000005 -0.9209 12
-14.7344 23.5156 2.2637 123
-4.7227 7.5352 -0.7227 76
-14.664100000000001 23.4062 2.8983999999999996 177
-4.707 7.515599999999999 -0.5132 120
-14.8047 23.625 3.5801 25
-4.7422 7.5664 -0.31010000000000004 214
-14.2031 22.6719 4.0742 186
-14.468800000000002 23.0938 4.7969 231
-3.998 6.4297 -1.3281 195
-4.5664 7.3477 -1.3125 140
-15.5703 25.0469 1.0283 175
-5.2422 8.4297 -1.2715 147
-36.8438 59.25 4.0547 24
-4.6523 7.484400000000001 -0.9218999999999999 237
-14.7031 23.6562 2.2715 245
-4.7031 7.5625 -0.7236 80
-14.625 23.5312 2.9082 223
-4.6914 7.550800000000001 -0.5146000000000001 216
-15.625 25.125 3.8007999999999997 24
-4.7188 7.5859000000000005 -0.3103 153
-14.1719 22.7812 4.0859 209
-14.398399999999999 23.1719 4.8008 146
-3.9863 6.457000000000001 -1.3300999999999998 231
-4.8125 7.792999999999999 0.10619999999999999 12
-4.5352 7.3477 -1.3105000000000002 232
-15.5 25.1094 1.0283 221
-5.1211 8.2891 -1.248 176
-36.5312 59.1875 4.043 74
-4.6406 7.515599999999999 -0.9238 249
-14.6797 23.7812 2.2793 134
-4.6758 7.578099999999999 -0.7236 53
-14.7656 23.9219 2.9512 68
-4.6758 7.574199999999999 -0.5151 100
-15.585899999999999 25.25 3.8105 53
-4.6992 7.609400000000001 -0.3105 2
-13.9453 22.5938 4.043 149
-4.7539 7.699199999999999 -0.10490000000000001 211
-14.539100000000001 23.5469 4.875 0
-3.9551 6.453099999999999 -1.3271000000000002 187
-4.832 7.8828 0.1072 135
-4.5039 7.3477 -1.3075999999999999 71
-5.082 8.2891 -1.2451 67
-36.2812 59.2188 4.0391 54
-4.6289 7.550800000000001 -0.9262999999999999 57
-14.6406 23.8906 2.2852 48
-4.6719 7.6211 -0.7265999999999999 16
-14.7344 24.0469 2.9589999999999996 47
-4.6602 7.605499999999999 -0.5166 227
-15.4297 25.1719 3.793 183
-4.6836 7.640599999999999 -0.31129999999999997 163
-13.906199999999998 22.6875 4.0508 90
-4.7188 7.703099999999999 -0.1047 232
-14.2344 23.2188 4.7969 206
-3.9276999999999997 6.4648 -1.3262 235
-4.4844 7.3789 -1.3105000000000002 199
-5.0586 8.3281 -1.248 109
-4.6094 7.5898 -0.9287000000000001 78
-16.5469 27.25 2.5995999999999997 205
-4.6055 7.582000000000001 -0.7212000000000001 217
-14.3047 23.5469 2.8906 95
-4.6367 7.6328 -0.5171 48
-15.4844 25.4844 3.8301 72
-13.9453 22.9531 4.0898 223
-4.7031 7.738300000000001 -0.105 237
-14.25 23.4531 4.832 113
-3.8983999999999996 6.4688 -1.3241999999999998 2
-19.375 32.1562 0.43799999999999994 171
-4.4609 7.4023 -1.3115 246
-5.0234 8.3359 -1.2461 194
-15.1797 25.1875 1.709 76
-4.5938 7.6211 -0.9307 183
-16.5938 27.5156 2.6211 252
-4.582 7.6015999999999995 -0.7212000000000001 207
-14.2031 23.5625 2.8867000000000003 16
-4.6602 7.734400000000001 -0.5229 238
-14.2656 23.6562 3.5488 0
-13.835899999999999 22.9531 4.0781 237
-4.6875 7.7773 -0.10529999999999999 229
-14.093800000000002 23.375 4.8047 180
-3.875 6.480499999999999 -1.3241999999999998 65
-19.3438 32.3438 0.4399 133
-4.4258 7.4023 -1.3086000000000002 92
-5.0117 8.375 -1.25 5
-15.1094 25.2656 1.71 87
-4.5742 7.6484000000000005 -0.9320999999999999 16
-4.5508 7.613300000000001 -0.7206999999999999 120
-14.1094 23.5938 2.8848000000000003 139
-4.6445 7.765599999999999 -0.5239 36
-14.156199999999998 23.6719 3.5410000000000004 113
-13.75 22.9844 4.0781 137
-4.7188 7.894500000000001 -0.1066 165
-13.9531 23.3281 4.7852 13
-3.8632999999999997 6.511699999999999 -1.3271000000000002 49
-19.3281 32.5938 0.4421 26
-4.3906 7.3984000000000005 -1.3056999999999999 17
-4.9688 8.375 -1.248 208
-4.6133 7.7734000000000005 -0.9453 215
-14.093800000000002 23.7656 2.2539 62
-4.543 7.6562 -0.7236 56
-16.0625 27.0781 3.3047000000000004 53
-4.625 7.792999999999999 -0.5244 143
-15.148399999999999 25.5312 3.8145 109
-4.6133 7.7734000000000005 -0.314 185
-13.656199999999998 23.0312 4.0742 46
-14.039100000000001 23.6719 4.8438 58
-3.8379000000000003 6.515599999999999 -1.3262 129
-4.3711 7.421900000000001 -1.3066 246
-4.9922 8.4766 -1.2598 65
-14.0781 23.9062 1.6113 0
-4.5625 7.7461 -0.7304999999999999 0
-15.5 26.3281 3.207 220
-15.125 25.6875 3.8301 57
-4.5781 7.7773 -0.3135 47
-13.468800000000002 22.875 4.0391 218
-13.9844 23.75 4.8516 32
-3.8026999999999997 6.5078 -1.3213 87
-4.3438 7.4297 -1.3056999999999999 241
-4.9648 8.5 -1.2607 148
-14.0703 24.0781 1.6200999999999999 165
-5.953099999999999 10.1875 -1.2354 26
-14.093800000000002 24.125 2.2793 117
-7.269500000000001 12.4453 -1.1738 216
-15.398399999999999 26.3594 3.2031 220
-9.2109 15.7578 -1.0595999999999999 0
-13.7344 23.5156 3.4961 176
-4.5547 7.796900000000001 -0.3135 140
-13.414100000000001 22.9688 4.0469 248
-14.101600000000001 24.1406 -0.3259 142
-13.4531 23.0156 4.6953 57
-3.7812 6.5234000000000005 -1.3222999999999998 3
-4.3359 7.480499999999999 -1.3115 50
-4.9336 8.5156 -1.2607 140
-14.0781 24.2812 1.6309 93
-5.917999999999999 10.2109 -1.2354 155
-7.2148 12.4453 -1.1709 155
-15.398399999999999 26.5625 3.2226999999999997 25
-9.1406 15.7656 -1.0576 199
-13.6875 23.6094 3.5039 39
-12.5156 21.5938 -0.8695999999999999 104
-13.2969 22.9375 4.0352 110
-13.351600000000001 23.0312 4.6875 237
-3.7558999999999996 6.5312 -1.3213 72
-4.2969 7.4688 -1.3066 197
-4.9062 8.5234 -1.2598 90
-5.8672 10.1953 -1.2314 82
-7.1640999999999995 12.4531 -1.1699 205
-15.4453 26.8438 3.25 25
-9.0781 15.781199999999998 -1.0566 199
-14.585899999999999 25.3594 3.7577999999999996 44
-12.531199999999998 21.7812 -0.8755 222
-13.6328 23.6875 4.1602 229
-13.0625 22.7031 4.6094 141
-3.7382999999999997 6.5547 -1.3232 49
-4.2539 7.4648 -1.3037 102
-4.8711 8.5469 -1.2598 67
-5.824199999999999 10.2188 -1.2314 160
-14.6797 25.75 2.418 108
-7.0977 12.4453 -1.167 158
-14.9922 26.2969 3.1776999999999997 7
-9.0078 15.7969 -1.0556999999999999 9
-14.4375 25.3281 3.7441000000000004 254
-12.4453 21.8281 -0.8755 215
-13.585899999999999 23.8281 4.1758 249
-13.0 22.8125 4.6211 71
-3.7108999999999996 6.5625 -1.3222999999999998 30
-4.2227 7.4688 -1.3018 88
-4.8281 8.5391 -1.2568000000000001 8
-33.4375 59.0938 3.9473000000000003 216
-5.7852 10.2344 -1.2305 10
-14.5781 25.7656 2.4141 20
-7.0586 12.476600000000001 -1.167 134
-14.8906 26.3281 3.1757999999999997 226
-8.9531 15.835899999999999 -1.0556999999999999 191
-14.5469 25.7188 3.7949 222
-12.3672 21.875 -0.8755 28
-13.468800000000002 23.8125 4.168 141
-12.976600000000001 22.9531 4.6406 32
-3.6836 6.5664 -1.3203 96
-4.2148 7.511699999999999 -1.3066 249
-4.7969 8.5547 -1.2559 195
-33.1562 59.125 3.9414 212
-5.7461 10.2422 -1.2305 33
-7.015599999999999 12.5 -1.167 144
-8.8906 15.843800000000002 -1.0547 192
-14.351600000000001 25.5938 3.7676 108
-12.3203 21.9688 -0.8774 205
-13.281199999999998 23.6719 4.1328 145
-12.843800000000002 22.9062 4.625 229
-3.6601999999999997 6.578099999999999 -1.3203 45
-4.1719 7.5 -1.3027000000000002 196
-4.7656 8.5703 -1.2559 58
-32.8438 59.0312 3.9276999999999997 179
-5.707000000000001 10.2578 -1.2295 107
-14.5703 26.1875 2.4453 19
-6.9688 12.531199999999998 -1.167 236
-8.8359 15.8828 -1.0547 180
-14.226600000000001 25.5625 3.7577999999999996 57
-13.2344 23.7969 4.1445 131
-12.835899999999999 23.0625 4.6484 9
-3.6348000000000003 6.582000000000001 -1.3184 175
-4.1484 7.515599999999999 -1.3027000000000002 191
-4.7422 8.5938 -1.2568000000000001 105
-32.625 59.0625 3.9238 180
-5.667999999999999 10.2656 -1.2275 227
-14.4922 26.25 2.4453 70
-6.917999999999999 12.531199999999998 -1.166 177
-14.125 25.5781 3.0664 242
-8.7656 15.875 -1.0527 49
-14.085899999999999 25.5156 3.7441000000000004 214
-12.2422 22.1719 -0.8828 124
-13.1719 23.8594 4.1484 39
-12.7969 23.1875 4.6602 129
-3.6094 6.5898 -1.3174000000000001 116
-4.1094 7.5039 -1.2978999999999998 141
-4.7109 8.6016 -1.2559 147
-32.375 59.125 3.9199 191
-5.6328 10.281199999999998 -1.2275 84
-6.8789 12.5547 -1.166 156
-14.1328 25.8125 3.0879000000000003 220
-8.7109 15.898399999999999 -1.0527 188
-13.906199999999998 25.3906 3.7188 190
-13.0469 23.8281 4.1367 147
-13.1172 23.9375 4.8047 83
-3.5938 6.6172 -1.3203 166
-4.0781 7.5078 -1.2959 105
-4.6758 8.6094 -1.2549 144
-32.0938 59.0938 3.9101999999999997 103
-5.5898 10.2969 -1.2266 114
-6.832000000000001 12.5781 -1.166 172
-8.6484 15.9375 -1.0527 227
-13.7656 25.3594 3.7051 146
-12.976600000000001 23.8906 4.1406 19
-12.9922 23.9219 4.793 9
-3.5645 6.6211 -1.3184 240
-4.0586 7.5390999999999995 -1.2988 57
-4.6367 8.6094 -1.252 133
-31.8125 59.0938 3.9023000000000003 234
-5.5547 10.3125 -1.2266 78
-14.6875 27.2812 2.5273 139
-6.7734000000000005 12.5781 -1.1631 217
-13.664100000000001 25.375 3.0254000000000003 48
-8.5859 15.9453 -1.0508 189
-13.7422 25.5156 3.7226999999999997 252
-11.976600000000001 22.2344 -0.8798999999999999 160
-12.9219 24.0 4.1484 219
-12.914100000000001 23.9844 4.7969 122
-3.5410000000000004 6.6328 -1.3184 153
-4.0312 7.546900000000001 -1.2978999999999998 113
-4.6055 8.625 -1.252 246
-31.5469 59.0625 3.8926 48
-5.5078 10.3203 -1.2246 44
-14.648399999999999 27.4375 2.5371 86
-6.738300000000001 12.625 -1.165 87
-13.5547 25.375 3.0195 83
-8.5312 15.9844 -1.0518 58
-13.664100000000001 25.5938 3.7266000000000004 52
-3.5137 6.636699999999999 -1.3163999999999998 17
-4.0078 7.5664 -1.2988 83
-4.5742 8.6406 -1.2529000000000001 236
-31.2969 59.0938 3.8887 54
-5.4609000000000005 10.3125 -1.2217 240
-6.6914 12.6406 -1.1641 64
-13.5156 25.5312 3.0312 174
-8.4844 16.0312 -1.0527 162
-13.7031 25.875 3.7617000000000003 153
-13.593800000000002 25.6719 4.4219 42
-12.906199999999998 24.375 -0.3218 153
-3.4901999999999997 6.644500000000001 -1.3163999999999998 155
-3.9668 7.5547 -1.2938999999999998 170
-4.5547 8.6719 -1.2539 240
-31.0156 59.0312 3.877 132
-5.4336 10.343800000000002 -1.2236 84
-6.644500000000001 12.648399999999999 -1.1631 123
-13.8203 26.3125 3.1191000000000004 170
-8.4062 16.0156 -1.0498 39
-13.6328 25.9531 3.7656 42
-11.8828 22.625 -0.8906000000000001 12
-13.3828 25.4844 4.3828 158
-12.8203 24.4062 -0.3215 213
-3.4745999999999997 6.667999999999999 -1.3184 136
-3.9375 7.5586 -1.2930000000000001 160
-4.5195 8.6797 -1.2529000000000001 142
-30.7656 59.0625 3.873 98
-5.394500000000001 10.351600000000001 -1.2217 100
-6.5977 12.664100000000001 -1.1631 97
-13.75 26.3906 3.123 174
-8.3906 16.1094 -1.0537 131
-13.531199999999998 25.9688 3.7617000000000003 209
-13.2344 25.4062 4.3594 70
-12.6719 24.3281 -0.31980000000000003 22
-3.4452999999999996 6.671900000000001 -1.3163999999999998 49
-3.9101999999999997 7.578099999999999 -1.2938999999999998 130
-4.4805 8.6797 -1.251 174
-30.5 59.0938 3.8651999999999997 124
-5.355499999999999 10.375 -1.2227 181
-6.5312 12.656199999999998 -1.1592 231
-13.625 26.3906 3.1172000000000004 2
-8.3125 16.0938 -1.0518 147
-13.4453 26.0469 3.7656 2
-13.0547 25.2812 4.332 132
-12.5703 24.3594 -0.3196 135
-13.3906 25.9375 5.140599999999999 208
-3.418 6.6797 -1.3154 210
-3.8867000000000003 7.5938 -1.2938999999999998 143
-4.4492 8.6953 -1.251 45
-30.2031 59.0312 3.8555 108
-5.3086 10.375 -1.2207 64
-6.488300000000001 12.6797 -1.1592 39
-12.875 25.1562 2.9648000000000003 139
-8.2578 16.125 -1.0518 96
-13.5 26.375 3.8066000000000004 145
-12.898399999999999 25.2031 4.3125 10
-12.5547 24.5312 -0.3215 133
-13.2031 25.7969 5.1055 162
-3.3906 6.675800000000001 -1.3135 217
-3.8555 7.5938 -1.2919999999999998 146
-4.4297 8.7188 -1.2529000000000001 9
-29.9688 59.0312 3.8495999999999997 10
-5.269500000000001 10.375 -1.2187999999999999 243
-6.4453 12.6875 -1.1592 165
-12.843800000000002 25.2812 2.9766000000000004 144
-8.1953 16.1406 -1.0498 217
-13.2344 26.0781 3.7558999999999996 160
-12.8125 25.2344 4.3086 233
-12.476600000000001 24.5781 -0.3215 126
-13.210899999999999 26.0156 5.136699999999999 11
-3.373 6.6953 -1.3144999999999998 35
-3.8183999999999996 7.582000000000001 -1.2881 80
-4.3984 8.7344 -1.2529000000000001 146
-29.7188 59.0 3.8418 152
-5.234400000000001 10.398399999999999 -1.2187999999999999 200
-6.394500000000001 12.6953 -1.1572 64
-12.5703 24.9688 2.9336 15
-8.1406 16.1719 -1.0508 86
-12.8203 25.4531 3.6620999999999997 110
-12.75 25.3125 4.3164 107
-13.0547 25.9219 5.1094 216
-3.3516000000000004 6.7148 -1.3154 156
-3.7988 7.613300000000001 -1.291 99
-4.3594 8.7344 -1.25 202
-29.4531 59.0312 3.8358999999999996 247
-5.203099999999999 10.4297 -1.2197 27
-6.3438 12.710899999999999 -1.1562000000000001 33
-12.4844 25.0156 2.9336 83
-8.0781 16.1875 -1.0498 236
-12.601600000000001 25.25 3.623 39
-12.648399999999999 25.3438 4.3125 225
-13.0078 26.0781 5.1289 142
-3.3262 6.7227 -1.3154 164
-3.7793 7.640599999999999 -1.2930000000000001 49
-4.3398 8.7734 -1.2539 190
-29.1875 59.0 3.8262 88
-5.1562 10.4219 -1.2178 213
-6.300800000000001 12.7422 -1.1572 139
-13.3203 26.9375 3.1543 80
-8.0156 16.2031 -1.0488 222
-12.468800000000002 25.2188 3.6132999999999997 19
-12.539100000000001 25.3438 4.3047 217
-3.2949 6.7148 -1.3115 154
-3.748 7.640599999999999 -1.291 131
-4.3047 8.7812 -1.252 167
-28.9375 59.0 3.8202999999999996 73
-5.1133 10.4219 -1.2158 206
-6.2422 12.726600000000001 -1.1543 42
-12.664100000000001 25.8125 3.0176 93
-7.9648 16.2344 -1.0498 107
-12.539100000000001 25.5625 3.6562 232
-12.156199999999998 24.7812 4.2031 212
-3.2733999999999996 6.730499999999999 -1.3115 79
-3.7168 7.640599999999999 -1.2891 243
-4.2812 8.7969 -1.2529000000000001 235
-28.7031 59.0 3.8145 112
-5.0742 10.4375 -1.2148 247
-6.199199999999999 12.7422 -1.1543 175
-12.5156 25.7188 3.002 204
-7.894500000000001 16.2344 -1.0479 120
-12.460899999999999 25.6094 3.6582 137
-12.25 25.1875 4.2656 7
-3.25 6.7461 -1.3125 135
-3.6855 7.644500000000001 -1.2881 240
-4.2578 8.8281 -1.2559 69
-28.4219 58.9688 3.8066000000000004 4
-5.0312 10.4453 -1.2139 237
-12.156199999999998 25.2188 2.2832 143
-6.1484000000000005 12.7578 -1.1533 179
-7.8438 16.2812 -1.0488 178
-12.3281 25.5781 3.6464999999999996 153
-12.5078 25.9688 4.3867 197
-12.210899999999999 25.3438 4.9531 36
-3.2305 6.761699999999999 -1.3144999999999998 141
-3.6504000000000003 7.644500000000001 -1.2852000000000001 184
-4.2148 8.8203 -1.252 19
-28.1875 59.0312 3.8026999999999997 180
-4.9922 10.4531 -1.2129 154
-12.0156 25.1562 2.2734 43
-6.1015999999999995 12.773399999999999 -1.1523 11
-12.968800000000002 27.1562 3.1582 56
-7.7890999999999995 16.3125 -1.0488 87
-12.1953 25.5312 3.6327999999999996 35
-12.3594 25.875 4.3672 24
-12.1328 25.3906 4.957 208
-3.1992000000000003 6.7578 -1.3115 91
-3.6289 7.667999999999999 -1.2871000000000001 2
-4.1719 8.8203 -1.249 233
-27.9219 58.9688 3.793 139
-4.9609 10.476600000000001 -1.2139 45
-11.914100000000001 25.1562 2.2695 222
