# .PCD v0.7 - Point Cloud Data file format
VERSION 0.7
FIELDS x y z intensity
SIZE 4 4 4 4
TYPE F F F F
COUNT 1 1 1 1
WIDTH 1251
HEIGHT 1
VIEWPOINT 0 0 0 1 0 0 0
POINTS 1251
DATA ascii
-3.6387 -1.1543 -0.6655 133
-3.6641000000000004 -1.1621 -0.5796 21
-9.1094 -2.8887 0.3318 80
-3.7168 -1.1797 -0.4961 155
-9.1172 -2.8926 0.5542 24
-3.9062 -1.2393 -0.426 18
-14.835899999999999 -4.707 1.2676 137
-3.877 -1.2295 -0.3284 121
-12.351600000000001 -3.918 1.3574000000000002 232
-12.1875 -3.8672000000000004 1.6396000000000002 164
-3.1483999999999996 -0.9990000000000001 -0.0378 62
-12.0703 -3.8301 2.2266 205
-3.6875 -1.1562000000000001 -0.6738 42
-3.6836 -1.1553 -0.5825 236
-9.0859 -2.8495999999999997 0.3308 227
-3.7245999999999997 -1.168 -0.4966 179
-9.0859 -2.8476999999999997 0.5513 4
-3.8262 -1.2002 -0.4167 35
-15.031199999999998 -4.7148 1.2832 226
-3.8808999999999996 -1.2168 -0.3284 245
-12.343800000000002 -3.8711 1.3544999999999998 46
-12.1406 -3.8066000000000004 1.6309 63
-3.1289 -0.9814 -0.0374 81
-12.0625 -3.7812 2.2207 15
-3.6973000000000003 -1.1436 -0.6748000000000001 167
-9.0469 -2.7988 0.1099 187
-3.7089999999999996 -1.1475 -0.5854 228
-9.0859 -2.8105 0.33030000000000004 49
-3.7676 -1.165 -0.502 127
-9.0938 -2.8145 0.5513 253
-3.8125 -1.1797 -0.41479999999999995 166
-15.218800000000002 -4.707 1.2969 204
-3.8574 -1.1934 -0.3262 160
-12.351600000000001 -3.8223000000000003 1.3544999999999998 197
-12.1172 -3.75 1.626 127
-3.1719 -0.981 -0.0379 170
-12.0781 -3.7363 2.2227 6
-3.7089999999999996 -1.1328 -0.6762999999999999 36
-9.0391 -2.7617000000000003 0.1096 170
-3.7168 -1.1357 -0.5864 162
-9.0781 -2.7733999999999996 0.3296 79
-3.8066000000000004 -1.1631 -0.5068 152
-9.1016 -2.7812 0.5513 194
-3.8125 -1.165 -0.4143 88
-9.1094 -2.7832 0.7744 65
-3.8848000000000003 -1.1875 -0.3281 140
-12.3594 -3.7754000000000003 1.3535 119
-12.156199999999998 -3.7129000000000003 1.6288999999999998 225
-8.9141 -2.7226999999999997 1.4141 166
-3.1895 -0.9745999999999999 -0.0381 54
-12.0781 -3.6914 2.2207 232
-3.7129000000000003 -1.1211 -0.6762999999999999 42
-9.0312 -2.7285000000000004 0.1094 205
-3.7207 -1.123 -0.5864 95
-9.0938 -2.7461 0.3298 104
-3.8105 -1.1504 -0.5068 213
-9.1172 -2.7539 0.5518 44
-3.8242000000000003 -1.1543 -0.4153 231
-9.1094 -2.75 0.7734000000000001 28
-3.8202999999999996 -1.1533 -0.3223 50
-12.351600000000001 -3.7285000000000004 1.3516 119
-12.164100000000001 -3.6719 1.6288999999999998 185
-8.9141 -2.6895 1.4131 204
-3.1504000000000003 -0.9517 -0.037599999999999995 209
-12.093800000000002 -3.6504000000000003 2.2188 223
-3.7108999999999996 -1.1064 -0.6753 240
-9.0469 -2.6992000000000003 0.1096 30
-3.7617000000000003 -1.1220999999999999 -0.5918 140
-9.1328 -2.7245999999999997 0.3308 24
-3.8202999999999996 -1.1396 -0.5073 32
-9.1484 -2.7305 0.5527000000000001 254
-3.8242000000000003 -1.1406 -0.41479999999999995 206
-9.1328 -2.7245999999999997 0.7748999999999999 124
-3.8281 -1.1416 -0.3225 254
-9.0625 -2.7031 0.9893000000000001 70
-12.1797 -3.6327999999999996 1.6299000000000001 135
-11.8125 -3.5254000000000003 1.874 75
-3.1308999999999996 -0.9340999999999999 -0.0373 68
-12.0781 -3.6035000000000004 2.2148 62
-3.7108999999999996 -1.0918 -0.6748000000000001 154
-9.0547 -2.6641000000000004 0.10949999999999999 181
-3.7793 -1.1113 -0.5942000000000001 208
-15.4297 -4.5391 0.5596 12
-3.8242000000000003 -1.125 -0.5073 38
-15.4375 -4.5391 0.9336 120
-3.8202999999999996 -1.124 -0.4138 198
-9.1484 -2.6914 0.7754000000000001 218
-3.8281 -1.126 -0.3223 37
-9.0625 -2.6641000000000004 0.9878 131
-12.1719 -3.582 1.6269999999999998 135
-11.835899999999999 -3.4824 1.875 101
-3.1699 -0.9320999999999999 -0.0378 27
-12.0781 -3.5526999999999997 2.2129 251
-3.7344 -1.084 -0.6781999999999999 128
-9.1016 -2.6426 0.1099 39
-3.7676 -1.0937999999999999 -0.5918 140
-3.8672000000000004 -1.123 -0.5127 251
-3.8164 -1.1084 -0.4131 221
-9.1562 -2.6582 0.7754000000000001 15
-3.8594 -1.1201 -0.3245 216
-9.0781 -2.6367000000000003 0.9893000000000001 186
-12.1719 -3.5351999999999997 1.625 229
-11.8203 -3.4316000000000004 1.8700999999999999 69
-3.2226999999999997 -0.9355 -0.0383 120
-12.085899999999999 -3.5098000000000003 2.2129 61
-3.7363 -1.0713 -0.6777 67
-9.1562 -2.625 0.1105 117
-3.7832 -1.085 -0.5938 135
-3.8516000000000004 -1.1045 -0.5097999999999999 235
-3.8476999999999997 -1.1035 -0.41600000000000004 186
-15.4453 -4.4297 1.3086000000000002 221
-3.8398000000000003 -1.1016 -0.3225 161
-12.3672 -3.5449 1.3477000000000001 63
-8.9531 -2.5683999999999996 1.1934 88
-8.9062 -2.5547 1.4072 118
-3.2598000000000003 -0.9351 -0.0388 33
-12.085899999999999 -3.4668 2.209 172
-3.7558999999999996 -1.0635 -0.6812 236
-3.8026999999999997 -1.0771 -0.5962 165
-3.8555 -1.0918 -0.5097999999999999 61
-15.585899999999999 -4.4141 0.9399 219
-3.8574 -1.0928 -0.4167 117
-15.4453 -4.375 1.3075999999999999 27
-3.875 -1.0967 -0.32520000000000004 15
-9.2812 -2.627 1.0088 169
-8.9609 -2.5371 1.1924 106
-8.9219 -2.5273 1.4082 171
-3.2714999999999996 -0.9262999999999999 -0.0388 100
-12.093800000000002 -3.4238 2.209 198
-15.476600000000001 -4.3203 0.5596 3
-15.4922 -4.3242 0.9331 217
-3.8887 -1.0859 -0.41969999999999996 60
-15.4531 -4.3125 1.3066 147
-9.2812 -2.5918 1.0088 182
-8.9766 -2.5078 1.1934 176
-3.0391000000000004 -0.8486 -0.1084 164
-8.9375 -2.4941 1.4082 95
-3.2714999999999996 -0.9131 -0.0388 81
-12.0625 -3.3691000000000004 2.2012 84
-18.8438 -5.1914 0.6812 213
-4.0508 -1.1152 -0.5352 119
-21.9219 -6.0390999999999995 1.3203 35
-15.4531 -4.2578 1.3056999999999999 51
-9.2969 -2.5605 1.0088 26
-3.0312 -0.835 -0.18030000000000002 70
-12.1875 -3.3574 1.6211000000000002 176
-2.9805 -0.8212999999999999 -0.10619999999999999 99
-8.9297 -2.459 1.4053 191
-3.3007999999999997 -0.9092 -0.0391 194
-12.0703 -3.3262 2.2012 48
-2.6113 -0.7095 -0.4697 185
-18.8594 -5.1211 0.2275 210
-18.875 -5.1289 0.6812 148
-4.2969 -1.167 -0.5669 4
-15.4453 -4.1953 1.3037 45
-9.3047 -2.5273 1.0088 75
-12.2031 -3.3145 1.6211000000000002 156
-11.8281 -3.2129000000000003 1.8622999999999998 23
-3.3242000000000003 -0.9028 -0.0394 207
-12.0703 -3.2793 2.1973 129
-2.6816000000000004 -0.7188 -0.48219999999999996 67
-17.6094 -4.7188 0.21230000000000002 34
-19.2188 -5.1484000000000005 0.6929000000000001 133
-4.3672 -1.1709 -0.5761999999999999 176
-19.5469 -5.234400000000001 1.1748 140
-15.4375 -4.1367 1.3018 221
-9.3281 -2.5 1.0107 240
-12.1875 -3.2656 1.6172 40
-3.0839999999999996 -0.8262 -0.1097 225
-8.8438 -2.3711 1.3896000000000002 174
-3.3379000000000003 -0.8945000000000001 -0.0395 163
-12.0703 -3.2344 2.1953 198
-2.6855 -0.7095 -0.48219999999999996 197
-17.6719 -4.668 0.21289999999999998 205
-19.4844 -5.1484000000000005 0.7021 254
-4.3711 -1.1553 -0.5761999999999999 33
-19.5938 -5.1797 1.1768 140
-15.4219 -4.0742 1.2997999999999998 108
-9.3359 -2.4668 1.0107 68
-12.226600000000001 -3.2305 1.6221 183
-9.0391 -2.3887 1.4188999999999998 172
-3.3535000000000004 -0.8856999999999999 -0.039599999999999996 103
-12.0625 -3.1875 2.1914 53
-2.6191000000000004 -0.6820999999999999 -0.4697 145
-17.7031 -4.6133 0.213 112
-19.7344 -5.140599999999999 0.7104 21
-4.375 -1.1396 -0.5761999999999999 99
-19.875 -5.175800000000001 1.1924 221
-15.5078 -4.0391 1.3056999999999999 132
-9.3594 -2.4395 1.0127 221
-12.226600000000001 -3.1855 1.6200999999999999 11
-9.0938 -2.3672 1.4258000000000002 72
-3.3827999999999996 -0.8813 -0.04 91
-8.6797 -2.2598 1.5732 30
-2.5801 -0.6620999999999999 -0.4622 85
-12.4297 -3.1914 0.44630000000000003 53
-12.375 -3.1757999999999997 0.7402 71
-12.4531 -3.1973000000000003 1.0469 87
-9.3984 -2.4141 1.0156 90
-12.210899999999999 -3.1367000000000003 1.6162 110
-11.7969 -3.0293 1.8506 55
-3.4160000000000004 -0.8774 -0.0403 221
-12.0156 -3.0839999999999996 2.1797 54
-2.5898000000000003 -0.6553 -0.4636 229
-12.5156 -3.168 0.1501 78
-12.3828 -3.1327999999999996 0.44409999999999994 246
-12.3594 -3.1289 0.7393000000000001 112
-12.351600000000001 -3.125 1.0371 125
-9.4297 -2.3848 1.0176 123
-12.218800000000002 -3.0918 1.6152000000000002 56
-3.1914 -0.8076000000000001 -0.11320000000000001 198
-11.7969 -2.9863 1.8496000000000001 190
-3.4473000000000003 -0.8721 -0.0407 247
-11.9375 -3.0214999999999996 2.1641 82
-2.5918 -0.6459999999999999 -0.4636 150
-12.398399999999999 -3.0918 0.14859999999999998 74
-12.335899999999999 -3.0762 0.4421 212
-12.335899999999999 -3.0762 0.7373000000000001 87
-12.343800000000002 -3.0781 1.0352 230
-3.0526999999999997 -0.7606999999999999 -0.2532 101
-9.4688 -2.3613 1.0215 220
-12.226600000000001 -3.0469 1.6152000000000002 104
-3.1933999999999996 -0.7964 -0.11320000000000001 131
-11.781199999999998 -2.9375 1.8447 95
-3.5077999999999996 -0.8745 -0.0414 56
-11.8828 -2.9629000000000003 2.1523 195
-2.6035000000000004 -0.6396000000000001 -0.4653 236
-12.375 -3.0391000000000004 0.1481 75
-12.3203 -3.0254000000000003 0.4412 162
-12.351600000000001 -3.0351999999999997 0.7373000000000001 209
-12.375 -3.0391000000000004 1.0371 212
-2.9355 -0.7206999999999999 -0.2432 226
-9.5078 -2.3359 1.0244 227
-12.2344 -3.0058999999999996 1.6152000000000002 122
-11.7969 -2.8964999999999996 1.8457 208
-3.5351999999999997 -0.8682 -0.0417 19
-11.8203 -2.9043 2.1387 251
-2.6308999999999996 -0.6362 -0.4697 135
-12.3672 -2.9922000000000004 0.1479 79
-12.335899999999999 -2.9844 0.4412 231
-12.3672 -2.9901999999999997 0.7373000000000001 23
-12.3828 -2.9961 1.0371 70
-9.5547 -2.3125 1.0283 152
-12.226600000000001 -2.9589999999999996 1.6133000000000002 239
-11.843800000000002 -2.8651999999999997 1.8516 233
-3.5410000000000004 -0.8569 -0.0417 77
-9.1953 -2.2246 1.6611000000000002 101
-2.6816000000000004 -0.6392 -0.4788 3
-12.3906 -2.9512 0.1481 166
-12.3828 -2.9512 0.4429 167
-12.406199999999998 -2.9551 0.7393000000000001 217
-12.4453 -2.9648000000000003 1.042 7
-12.3828 -2.9492000000000003 1.3330000000000002 215
-9.6406 -2.2969 1.2695 3
-9.6719 -2.3027 1.5088 211
-3.5918 -0.8554999999999999 -0.042300000000000004 22
-9.1875 -2.1895 1.6582 42
-2.6348000000000003 -0.6182 -0.4697 141
-12.4375 -2.918 0.14859999999999998 150
-12.414100000000001 -2.9120999999999997 0.4436 224
-12.468800000000002 -2.9238 0.7422 108
-13.460899999999999 -3.1582 1.126 82
-12.4844 -2.9276999999999997 1.3428 48
-9.6406 -2.2617 1.2686 46
-9.6719 -2.2695 1.5088 117
-12.3906 -2.9062 -0.1478 115
-9.2031 -2.1602 1.6602000000000001 24
-12.4844 -2.8808999999999996 0.4456 135
-13.476600000000001 -3.1113 0.8018000000000001 65
-13.460899999999999 -3.1074 1.125 187
-13.468800000000002 -3.1094 1.4482 174
-9.6641 -2.2324 1.2705 76
-9.6641 -2.2305 1.5059 127
-12.468800000000002 -2.8789 -0.1487 94
-9.5859 -2.2129 1.7266 141
-13.4922 -3.0683999999999996 0.1609 203
-13.460899999999999 -3.0605 0.4802 131
-13.4922 -3.0664 0.8022 131
-2.9395 -0.6685 -0.3123 5
-13.476600000000001 -3.0645 1.125 59
-13.476600000000001 -3.0645 1.4482 114
-9.7031 -2.2051 1.2744 163
-9.7031 -2.2051 1.5107 129
-13.4531 -3.0586 -0.1605 197
-9.5938 -2.1816 1.7266 249
-13.5 -3.0214999999999996 0.1609 176
-13.468800000000002 -3.0156 0.4802 93
-13.476600000000001 -3.0176 0.8008 222
-2.8848000000000003 -0.6459999999999999 -0.3062 183
-13.4531 -3.0117000000000003 1.1220999999999999 167
-13.468800000000002 -3.0156 1.4463 247
-12.2422 -2.7422000000000004 1.6084 55
-9.8047 -2.1953 1.5253999999999999 210
-13.4453 -3.0098000000000003 -0.1602 59
-9.5859 -2.1465 1.7246000000000001 142
-13.5 -2.9707 0.16079999999999997 9
-13.468800000000002 -2.9629000000000003 0.4797 149
-13.460899999999999 -2.9629000000000003 0.7993000000000001 236
-13.476600000000001 -2.9648000000000003 1.124 83
-2.9589999999999996 -0.6514 -0.2438 55
-13.476600000000001 -2.9648000000000003 1.4453 131
-12.2422 -2.6933999999999996 1.6063999999999998 224
-9.875 -2.1719 1.5352000000000001 179
-13.4453 -2.9589999999999996 -0.1602 39
-9.5703 -2.1055 1.7207 204
-13.476600000000001 -2.9160000000000004 0.1603 96
-13.476600000000001 -2.9160000000000004 0.4797 73
-13.468800000000002 -2.9141000000000004 0.7988 230
-13.460899999999999 -2.9141000000000004 1.1220999999999999 131
-2.9766000000000004 -0.644 -0.2451 34
-13.476600000000001 -2.9160000000000004 1.4443000000000001 233
-12.2344 -2.6464999999999996 1.6044999999999998 3
-3.6035000000000004 -0.7798 -0.127 79
-12.0547 -2.6094 1.875 201
-13.460899999999999 -2.9120999999999997 -0.1602 242
-9.6797 -2.0957 1.7393 215
-13.460899999999999 -2.8632999999999997 0.16 71
-13.460899999999999 -2.8632999999999997 0.4788 202
-2.873 -0.6113000000000001 -0.37229999999999996 48
-13.476600000000001 -2.8672000000000004 0.7993000000000001 96
-13.460899999999999 -2.8632999999999997 1.1201 110
-13.4844 -2.8691000000000004 1.4443000000000001 133
-12.2344 -2.6016000000000004 1.6035 184
-12.0625 -2.5664 1.874 48
-13.460899999999999 -2.8632999999999997 -0.16 158
-9.8984 -2.1055 1.7772999999999999 174
-13.3828 -2.7988 0.1589 78
-13.460899999999999 -2.8145 0.4783 214
-2.8358999999999996 -0.5932999999999999 -0.36719999999999997 202
-13.476600000000001 -2.8183999999999996 0.7983 108
-13.460899999999999 -2.8145 1.1191 233
-13.4844 -2.8183999999999996 1.4434 81
-12.2422 -2.5605 1.6035 1
-12.0625 -2.5234 1.8730000000000002 113
-13.460899999999999 -2.8145 -0.15990000000000001 146
-9.8203 -2.0527 1.7607 93
-13.375 -2.75 0.1588 169
-13.476600000000001 -2.7714999999999996 0.47850000000000004 53
-2.8535000000000004 -0.5869 -0.36939999999999995 222
-13.5156 -2.7793 0.8003 106
-13.531199999999998 -2.7832 1.125 210
-13.468800000000002 -2.7695 1.4413999999999998 167
-12.2422 -2.5176 1.6016 177
-12.0781 -2.4844 1.874 108
-13.4531 -2.7676 -0.1598 82
-11.7578 -2.418 2.1094 175
-13.3672 -2.7012 0.1586 242
-13.539100000000001 -2.7382999999999997 0.4807 37
-2.8438 -0.5752 -0.3679 253
-13.539100000000001 -2.7382999999999997 0.8012999999999999 0
-13.5703 -2.7422000000000004 1.127 82
-13.460899999999999 -2.7226999999999997 1.4385 134
-12.25 -2.4766 1.6016 42
-3.6151999999999997 -0.731 -0.127 10
-12.101600000000001 -2.4453 1.876 227
-13.4453 -2.7188 -0.1595 52
-11.75 -2.377 2.1074 61
-13.351600000000001 -2.6464999999999996 0.1583 18
-13.585899999999999 -2.6933999999999996 0.4819 150
-2.8613 -0.5674 -0.3699 161
-13.585899999999999 -2.6914 0.8027 73
-3.0195 -0.5986 -0.3191 240
-13.5781 -2.6914 1.127 83
-6.3515999999999995 -1.2588 -0.5254 24
-13.468800000000002 -2.6699 1.4385 215
-12.2656 -2.4297 1.6025 117
-12.101600000000001 -2.3984 1.875 171
-13.4531 -2.6660000000000004 -0.1594 81
-11.7578 -2.3301 2.1055 117
-13.3594 -2.5995999999999997 0.1583 204
-13.5703 -2.6406 0.48100000000000004 159
-13.585899999999999 -2.6445 0.8027 227
-3.0214999999999996 -0.5879 -0.3191 160
-13.601600000000001 -2.6464999999999996 1.1279000000000001 49
-6.4102 -1.2470999999999999 -0.5297999999999999 42
-13.476600000000001 -2.6211 1.4385 9
-12.2344 -2.3809 1.5977000000000001 120
-12.101600000000001 -2.3535 1.8730000000000002 87
-13.460899999999999 -2.6191000000000004 -0.1595 56
-11.7656 -2.2891 2.1074 184
-13.375 -2.5566 0.1583 26
-13.5547 -2.5918 0.4802 157
-13.601600000000001 -2.5995999999999997 0.8027 116
-13.593800000000002 -2.5976999999999997 1.127 37
-6.4140999999999995 -1.2256 -0.5297999999999999 111
-13.460899999999999 -2.5723000000000003 1.4355000000000002 27
-12.2578 -2.3438 1.6006 201
-11.875 -2.2695 1.8369 90
-13.4375 -2.5683999999999996 -0.1591 94
-11.781199999999998 -2.252 2.1074 51
-13.3906 -2.5137 0.15839999999999999 188
-13.5703 -2.5469 0.4802 80
-13.5781 -2.5488 0.8012999999999999 247
-13.585899999999999 -2.5488 1.125 197
-6.3828 -1.1982 -0.5268999999999999 214
-13.4531 -2.5254 1.4346 179
-12.2344 -2.2949 1.5957 206
-3.8202999999999996 -0.7173 -0.13390000000000002 102
-11.8594 -2.2246 1.8330000000000002 146
-13.4453 -2.5234 -0.1591 2
-11.781199999999998 -2.2109 2.1055 120
-13.375 -2.457 0.1582 151
-2.8691000000000004 -0.5268999999999999 -0.4382 212
-13.5625 -2.4922 0.4797 111
-13.5781 -2.4941 0.8008 173
-13.601600000000001 -2.498 1.126 237
-6.3828 -1.1729 -0.5264 22
-13.468800000000002 -2.4746 1.4346 38
-12.25 -2.25 1.5957 163
-3.7695 -0.6923999999999999 -0.132 174
-11.8594 -2.1797 1.8319999999999999 100
-13.4375 -2.4688 -0.1589 235
-11.773399999999999 -2.1621 2.1035 170
-13.3906 -2.4121 0.1582 83
-2.832 -0.5097999999999999 -0.4321 3
-13.5703 -2.4434 0.47950000000000004 96
-13.585899999999999 -2.4473 0.8003 191
-13.585899999999999 -2.4473 1.124 32
-13.4922 -2.4297 1.4355000000000002 9
-12.25 -2.207 1.5957 205
-13.4922 -2.4297 -0.4771 233
-11.8828 -2.1406 1.834 90
-13.4453 -2.4219 -0.1588 100
-11.781199999999998 -2.1211 2.1035 216
-13.406199999999998 -2.3672 0.1583 181
-13.5547 -2.3926 0.479 92
-13.5781 -2.3965 0.7998000000000001 140
-13.5703 -2.3945 1.1220999999999999 38
-13.4922 -2.3809 1.4355000000000002 60
-12.25 -2.1621 1.5947 40
-13.460899999999999 -2.375 -0.4753 204
-12.0781 -2.1309 1.8633000000000002 11
-13.4531 -2.375 -0.1589 114
-11.773399999999999 -2.0781 2.0996 172
-2.8613 -0.4946 -0.5044 254
-13.4297 -2.3223 0.15839999999999999 205
-13.5547 -2.3438 0.47850000000000004 18
-2.9355 -0.5078 -0.37770000000000004 201
-13.585899999999999 -2.3496 0.7998000000000001 106
-13.5703 -2.3457 1.1211 126
-13.4844 -2.332 1.4336000000000002 227
-12.25 -2.1191 1.5937999999999999 60
-13.460899999999999 -2.3281 -0.4753 118
-12.1094 -2.0938 1.8681999999999999 232
-13.4375 -2.3242 -0.1586 239
-11.773399999999999 -2.0371 2.0996 150
-2.8047000000000004 -0.47490000000000004 -0.4941 184
-13.4375 -2.2754 0.15839999999999999 139
-13.5547 -2.2949 0.4783 209
-2.9375 -0.49729999999999996 -0.37770000000000004 239
-13.5703 -2.2988 0.7983 117
-13.5781 -2.2988 1.1211 2
-13.5 -2.2871 1.4346 46
-12.273399999999999 -2.0781 1.5957 147
-13.460899999999999 -2.2793 -0.47509999999999997 132
-12.101600000000001 -2.0488 1.8652000000000002 56
-13.4219 -2.2734 -0.1583 176
-11.75 -1.9893 2.0938 147
-2.8066000000000004 -0.46509999999999996 -0.4941 162
-13.4453 -2.2285 0.15839999999999999 95
-13.5625 -2.248 0.4783 1
-13.5625 -2.248 0.7974 247
-13.5781 -2.25 1.1201 126
-13.5 -2.2363 1.4336000000000002 158
-12.25 -2.0293 1.5918 143
-13.468800000000002 -2.2324 -0.47509999999999997 180
-12.1172 -2.0078 1.8662 71
-13.4375 -2.2266 -0.1583 180
-11.7656 -1.9502000000000002 2.0957 112
-2.9043 -0.47090000000000004 -0.5112 21
-13.4297 -2.1777 0.1582 203
-13.5625 -2.1992 0.478 195
-13.5469 -2.1953 0.7954000000000001 54
-6.375 -1.0332 -0.6738 165
-13.5625 -2.1992 1.1191 128
-13.5156 -2.1914 1.4346 225
-12.25 -1.9863 1.5908000000000002 67
-13.468800000000002 -2.1836 -0.4746 121
-12.125 -1.9658000000000002 1.8662 122
-13.4297 -2.1777 -0.1582 106
-11.7656 -1.9072 2.0938 29
-2.8281 -0.4485 -0.4976 168
-13.4219 -2.127 0.158 211
-13.5469 -2.1484 0.4771 236
-13.531199999999998 -2.1465 0.7944 167
-6.375 -1.0107 -0.6738 68
-13.5078 -2.1426 1.1133 52
-13.468800000000002 -2.1348 1.4287 209
-12.2656 -1.9443000000000001 1.5918 195
-13.4453 -2.1328 -0.4736 63
-12.1094 -1.9199000000000002 1.8622999999999998 149
-13.4375 -2.1309 -0.1582 95
-11.7656 -1.8662 2.0938 1
-2.8691000000000004 -0.4446 -0.5044 54
-13.4375 -2.082 0.15810000000000002 207
-13.468800000000002 -2.0859 0.47409999999999997 154
-13.460899999999999 -2.0859 0.7896 254
-6.3086 -0.978 -0.6665000000000001 153
-13.4453 -2.084 1.1074 16
-13.4531 -2.0859 1.4268 83
-12.2656 -1.9013999999999998 1.5918 125
-13.4453 -2.084 -0.47340000000000004 27
-12.1172 -1.8779 1.8622999999999998 57
-13.4297 -2.082 -0.15810000000000002 205
-11.7578 -1.8222999999999998 2.0898 114
-2.8711 -0.4346 -0.5044 81
-13.4531 -2.0371 0.1582 89
-13.4297 -2.0332 0.47240000000000004 205
-13.4453 -2.0352 0.7886 116
-13.4453 -2.0352 1.1064 149
-13.4297 -2.0332 1.4228999999999998 115
-12.289100000000001 -1.8603999999999998 1.5937999999999999 159
-13.4531 -2.0371 -0.47340000000000004 220
-12.1094 -1.834 1.8613 142
-13.4297 -2.0332 -0.158 231
-11.7578 -1.7803 2.0898 75
-2.8711 -0.42460000000000003 -0.5044 171
-13.4453 -1.9872999999999998 0.15810000000000002 169
-13.4375 -1.9863 0.47240000000000004 20
-13.4297 -1.9853999999999998 0.7870999999999999 101
-13.4531 -1.9893 1.1074 115
-13.4375 -1.9872999999999998 1.4238 162
-12.273399999999999 -1.8154 1.5908000000000002 46
-13.460899999999999 -1.9902000000000002 -0.47340000000000004 143
-12.1172 -1.7919999999999998 1.8613 103
-13.4297 -1.9853999999999998 -0.1578 16
-11.75 -1.7363 2.0859 186
-2.873 -0.4146 -0.5044 129
-13.4375 -1.9385 0.1578 146
-13.4375 -1.9385 0.4722 127
-13.4375 -1.9385 0.7870999999999999 9
-13.4375 -1.9385 1.1055 67
-13.4453 -1.9404 1.4238 203
-13.5781 -1.959 -0.7954000000000001 238
-12.2656 -1.7694999999999999 1.5888999999999998 6
-13.4531 -1.9413999999999998 -0.4729 177
-12.125 -1.749 1.8613 134
-13.4453 -1.9394999999999998 -0.158 211
-11.75 -1.6953 2.0859 161
-2.875 -0.405 -0.5044 254
-13.4297 -1.8925999999999998 0.1577 118
-13.4219 -1.8906 0.4714 129
-13.4375 -1.8936000000000002 0.7870999999999999 40
-6.394500000000001 -0.9009 -0.6738 61
-13.4297 -1.8925999999999998 1.1045 47
-13.4531 -1.8955000000000002 1.4228999999999998 102
-13.4375 -1.8936000000000002 -0.7870999999999999 142
-12.2656 -1.7275 1.5878999999999999 127
-12.101600000000001 -1.7050999999999998 1.8574000000000002 38
-13.4453 -1.8944999999999999 -0.1578 126
-11.7656 -1.6572 2.0879 218
-2.877 -0.39549999999999996 -0.5044 205
-13.4375 -1.8486000000000002 0.1577 222
-13.4219 -1.8457 0.4714 184
-13.4531 -1.8496000000000001 0.7876000000000001 221
-13.4297 -1.8477000000000001 1.1035 115
-13.4375 -1.8477000000000001 1.4209 125
-13.4375 -1.8477000000000001 -0.7866 233
-12.281199999999998 -1.6885 1.5888999999999998 124
-12.1094 -1.665 1.8574000000000002 15
-13.4375 -1.8477000000000001 -0.1577 212
-11.7578 -1.6172 2.0859 16
-2.8105 -0.376 -0.4927 136
-13.460899999999999 -1.8008000000000002 0.1578 91
-13.4297 -1.7959 0.47119999999999995 66
-13.4297 -1.7969 0.7856000000000001 132
-13.4297 -1.7969 1.1035 123
-12.5078 -1.6728999999999998 1.3213 148
-13.4219 -1.7959 -0.7852 216
-12.273399999999999 -1.6425999999999998 1.5878999999999999 39
-13.460899999999999 -1.8008000000000002 -0.47240000000000004 219
-12.1172 -1.6211000000000002 1.8574000000000002 123
-13.4297 -1.7969 -0.1576 176
-11.75 -1.5713 2.082 71
-13.4375 -1.75 0.1576 74
-13.4375 -1.75 0.4714 229
-12.4922 -1.6269999999999998 0.7304999999999999 185
-12.4922 -1.6269999999999998 1.0254 239
-12.5078 -1.6288999999999998 1.3213 27
-13.4219 -1.7480000000000002 -0.7847 178
-12.273399999999999 -1.5977000000000001 1.5859 120
-13.460899999999999 -1.7538999999999998 -0.47240000000000004 2
-12.1172 -1.5781 1.8574000000000002 157
-13.4375 -1.75 -0.1576 196
-11.7422 -1.5293 2.0801 180
-12.5078 -1.585 0.1466 127
-12.5078 -1.584 0.4385 238
-12.5 -1.5830000000000002 0.7304999999999999 75
-12.5 -1.5830000000000002 1.0254 221
-12.4297 -1.5741999999999998 1.3125 178
-13.4297 -1.7012 -0.7847 197
-12.2578 -1.5527000000000002 1.584 27
-12.5 -1.5830000000000002 -0.4382 119
-12.023399999999999 -1.5234 1.8418 40
-12.5 -1.584 -0.1465 62
-11.7656 -1.4902000000000002 2.084 163
-12.523399999999999 -1.5419999999999998 0.1466 184
-12.5078 -1.54 0.4382 199
-12.4531 -1.5332 0.7271 29
-12.4375 -1.5312000000000001 1.0195 138
-12.343800000000002 -1.5205000000000002 1.3027000000000002 75
-12.5 -1.5391 -0.73 187
-12.2656 -1.5107 1.584 31
-12.5156 -1.541 -0.4385 159
-11.875 -1.4619 1.8184 6
-12.4844 -1.5381 -0.1462 231
-11.7578 -1.4472999999999998 2.082 221
-12.3281 -1.4746000000000001 0.43189999999999995 91
-12.335899999999999 -1.4756 0.7202 178
-12.3203 -1.4736000000000002 1.0098 170
-12.3125 -1.4727000000000001 1.2988 230
-12.4844 -1.4931999999999999 -0.7284999999999999 18
-12.2656 -1.4678 1.584 203
-11.875 -1.4199000000000002 1.8163999999999998 120
-12.3203 -1.4736000000000002 -0.1442 226
-11.7578 -1.4062000000000001 2.082 30
-12.3828 -1.4375 0.1449 49
-12.3203 -1.4297 0.4314 161
-12.2969 -1.4268 0.7178 122
-12.281199999999998 -1.4247999999999998 1.0059 127
-12.2969 -1.4268 1.2959 7
-12.3281 -1.4306999999999999 -0.7197 158
-12.273399999999999 -1.4247999999999998 1.584 233
-12.3672 -1.4346 -0.4329 42
-11.875 -1.3779 1.8163999999999998 217
-12.273399999999999 -1.4247999999999998 -0.1437 129
-11.75 -1.3633000000000002 2.0781 35
-12.3594 -1.3916 0.1445 61
-12.289100000000001 -1.3828 0.4302 155
-12.273399999999999 -1.3809 0.7158 39
-12.3281 -1.3877000000000002 1.0098 85
-12.289100000000001 -1.3828 1.2959 9
-12.3047 -1.3847999999999998 -0.7178 167
-12.2578 -1.3788999999999998 1.5811000000000002 217
-12.3047 -1.3838 -0.4304 18
-12.0703 -1.3584 1.8457 158
-12.273399999999999 -1.3809 -0.1436 229
-11.7344 -1.3203 2.0742 72
-2.8867000000000003 -0.3145 -0.5044 74
-12.281199999999998 -1.3388999999999998 0.1436 120
-3.002 -0.3271 -0.4539 69
-12.289100000000001 -1.3388999999999998 0.4299 107
-12.3047 -1.3408000000000002 0.7173 4
-12.3047 -1.3408000000000002 1.0078 187
-7.2227 -0.7870999999999999 -0.5898 85
-12.335899999999999 -1.3447 1.2997999999999998 255
-12.2656 -1.3369 -0.7148 192
-12.2422 -1.334 1.5791 244
-12.3047 -1.3408000000000002 -0.4304 147
-12.125 -1.3213 1.8535 96
-12.273399999999999 -1.3378999999999999 -0.1436 186
-11.7422 -1.2803 2.0762 28
-2.9101999999999997 -0.3069 -0.5088 82
-12.3281 -1.2997999999999998 0.14400000000000002 175
-3.0566000000000004 -0.3225 -0.46240000000000003 101
-12.2969 -1.2969 0.4302 23
-12.3203 -1.2988 0.7178 162
-12.335899999999999 -1.3008000000000002 1.0098 196
-7.144500000000001 -0.7534000000000001 -0.583 164
-12.351600000000001 -1.3027000000000002 1.3008000000000002 121
-12.2969 -1.2969 -0.7168000000000001 217
-12.2578 -1.2930000000000001 1.5800999999999998 49
-12.281199999999998 -1.2949000000000002 -0.4294 46
-12.101600000000001 -1.2764 1.8496000000000001 41
-12.2969 -1.2969 -0.1437 107
-11.75 -1.2393 2.0762 49
-2.9160000000000004 -0.29710000000000003 -0.5093 87
-12.335899999999999 -1.2578 0.1442 53
-12.3281 -1.2559 0.43090000000000006 103
-12.343800000000002 -1.2578 0.7192000000000001 120
-12.406199999999998 -1.2646 1.0156 150
-7.171900000000001 -0.731 -0.585 198
-12.4375 -1.2676 1.3096 123
-12.2969 -1.2539 -0.7162999999999999 29
-12.273399999999999 -1.251 1.5819999999999999 23
-12.289100000000001 -1.2529000000000001 -0.42969999999999997 102
-12.101600000000001 -1.2334 1.8486000000000002 16
-12.3047 -1.2539 -0.1438 6
-11.7422 -1.1973 2.0742 251
-2.9082 -0.2874 -0.5078 89
-12.375 -1.2217 0.1445 92
-12.375 -1.2217 0.4324 107
-12.4375 -1.2285 0.7245999999999999 161
-12.4844 -1.2324 1.0205 39
-2.8574 -0.282 -0.23079999999999998 16
-12.4922 -1.2334 1.3154 247
-12.3125 -1.2158 -0.7173 154
-12.4531 -1.2295 1.6044999999999998 99
-12.3594 -1.2207 -0.43189999999999995 9
-12.1094 -1.1953 1.8486000000000002 8
-12.3203 -1.2168 -0.1439 163
-11.7422 -1.1602 2.0742 111
-2.8827999999999996 -0.2749 -0.5029 12
-12.4922 -1.1914 0.1458 4
-12.476600000000001 -1.1904000000000001 0.436 105
-12.4922 -1.1914 0.7275 123
-2.8418 -0.271 -0.2954 26
-12.5078 -1.1934 1.0225 122
-7.2734000000000005 -0.6938 -0.5932999999999999 185
-12.4844 -1.1914 1.3135 89
-12.3281 -1.1758 -0.7178 187
-12.3828 -1.1816 1.5947 94
-12.375 -1.1806999999999999 -0.4324 244
-12.1094 -1.1553 1.8486000000000002 165
-12.4453 -1.1875 -0.14529999999999998 49
-11.7422 -1.1201 2.0723 85
-2.9375 -0.2695 -0.5127 81
-12.5 -1.1465 0.1459 152
-12.4922 -1.1465 0.4363 36
-2.8281 -0.2595 -0.3599 81
-12.476600000000001 -1.1445 0.7265999999999999 30
-6.4297 -0.5898 -0.6738 245
-12.5 -1.1465 1.0215 10
-7.328099999999999 -0.6724 -0.5977 176
-12.5 -1.1465 1.3144999999999998 17
-12.468800000000002 -1.1436 -0.7256 194
-12.468800000000002 -1.1436 1.6044999999999998 138
-12.4922 -1.1465 -0.4363 112
-12.2969 -1.1279000000000001 1.8769999999999998 251
-12.4844 -1.1445 -0.1456 148
-11.7422 -1.0762 2.0703 104
-2.9355 -0.2588 -0.5122 57
-12.5 -1.1025 0.1459 137
-2.8418 -0.2507 -0.4285 147
-12.4922 -1.1016 0.4363 210
-12.5 -1.1025 0.7271 113
-6.3828 -0.563 -0.6689 207
-12.4844 -1.1016 1.0205 1
-7.3515999999999995 -0.6484000000000001 -0.5991 71
-12.5 -1.1025 1.3144999999999998 62
-12.468800000000002 -1.0996 -0.7256 187
-12.476600000000001 -1.1006 1.6055000000000001 183
-12.5078 -1.1035 -0.4368 111
-12.343800000000002 -1.0889 1.8828 144
-12.5 -1.1025 -0.1459 185
-11.7344 -1.0352 2.0703 112
-2.8379000000000003 -0.2404 -0.4949 4
-12.5078 -1.0595999999999999 0.1459 218
-12.4844 -1.0566 0.43579999999999997 30
-3.5176 -0.2979 -0.4487 237
-12.4922 -1.0586 0.7271 37
-6.390599999999999 -0.541 -0.6694 200
-12.5 -1.0586 1.0205 33
-7.375 -0.6245 -0.6011 87
-12.460899999999999 -1.0547 1.3096 173
-12.476600000000001 -1.0566 -0.7261 16
-12.468800000000002 -1.0556999999999999 1.6044999999999998 5
-12.5 -1.0586 -0.4363 40
-12.3281 -1.0439 1.8809 209
-12.4922 -1.0576 -0.1458 90
-11.75 -0.9945999999999999 2.0723 15
-12.5156 -1.0156 0.146 48
-12.468800000000002 -1.0117 0.4351 232
-3.5195 -0.28559999999999997 -0.4487 205
-12.4531 -1.0107 0.7241 219
-6.417999999999999 -0.521 -0.6724 14
-12.4531 -1.0107 1.0166 152
-12.5078 -1.0146 -1.0215 89
-12.4453 -1.0098 1.3075999999999999 58
-12.4844 -1.0137 -0.7261 96
-12.4297 -1.0088 1.5986000000000002 28
-12.5078 -1.0146 -0.4363 217
-12.3281 -1.001 1.8799000000000001 201
-12.4453 -1.0098 -0.1451 197
-11.7422 -0.9531000000000001 2.0703 21
-12.4531 -0.9648 0.1451 155
-3.2617000000000003 -0.2527 -0.4924 148
-12.4531 -0.9648 0.4343 21
-3.5918 -0.2783 -0.4578 171
-12.468800000000002 -0.9662999999999999 0.7251000000000001 58
-6.4375 -0.4988 -0.6743000000000001 237
-12.5 -0.9682999999999999 1.0205 87
-12.460899999999999 -0.9653 -1.0176 63
-12.476600000000001 -0.9662999999999999 1.3105000000000002 250
-12.4375 -0.9634 -0.7231000000000001 233
-12.476600000000001 -0.9662999999999999 1.6044999999999998 78
-12.4531 -0.9648 -0.4343 16
-12.335899999999999 -0.9556 1.8799000000000001 119
-12.4375 -0.9639 -0.145 95
-11.726600000000001 -0.9081999999999999 2.0664 86
-12.4922 -0.9238 0.14550000000000002 225
-3.2168 -0.2379 -0.4851 253
-12.4922 -0.9243000000000001 0.43579999999999997 49
-12.476600000000001 -0.9229 0.7256 37
-6.453099999999999 -0.47729999999999995 -0.6753 90
-12.5 -0.9243000000000001 1.0195 147
-12.4531 -0.9214 -1.0166 94
-12.476600000000001 -0.9229 1.3105000000000002 177
-12.460899999999999 -0.9218999999999999 -0.7245999999999999 76
-12.476600000000001 -0.9224 1.6035 214
-12.4922 -0.9243000000000001 -0.43579999999999997 226
-12.343800000000002 -0.9126000000000001 1.8809 40
-12.5 -0.9243000000000001 -0.1456 103
-11.7422 -0.8682 2.0684 106
-12.476600000000001 -0.8789 0.1454 39
-3.2324 -0.2278 -0.4875 101
-12.4922 -0.8804000000000001 0.4355 215
-12.4922 -0.8804000000000001 0.7261 182
-6.484400000000001 -0.457 -0.6787000000000001 176
-12.468800000000002 -0.8784000000000001 1.0176 132
-12.4844 -0.8798999999999999 -1.0186 24
-12.4922 -0.8804000000000001 1.3115 177
-12.4844 -0.8798999999999999 -0.7256 74
-12.476600000000001 -0.8789 1.6035 95
-12.4844 -0.8798999999999999 -0.4353 17
-12.351600000000001 -0.8701000000000001 1.8809 147
-12.5 -0.8809 -0.1456 109
-11.7344 -0.8271 2.0664 74
-12.5 -0.8369 0.1456 34
-3.2401999999999997 -0.217 -0.4888 156
-12.4844 -0.8354 0.4351 153
-3.6426 -0.2438 -0.46409999999999996 238
-12.4922 -0.8364 0.7256 152
-6.5273 -0.43700000000000006 -0.6831 185
-12.4844 -0.8354 1.0186 60
-12.468800000000002 -0.8345 -1.0176 27
-12.4922 -0.8359000000000001 1.3105000000000002 51
-12.4922 -0.8359000000000001 -0.7256 88
-12.476600000000001 -0.8354 1.6035 234
-12.4922 -0.8364 -0.4353 68
-12.4297 -0.8325 1.8936000000000002 226
-12.4844 -0.8359000000000001 -0.1454 162
-11.781199999999998 -0.7890999999999999 2.0742 166
-12.5078 -0.7959 0.1456 177
-3.2461 -0.2065 -0.48950000000000005 210
-12.4922 -0.7944 0.4353 156
-3.6348000000000003 -0.23120000000000002 -0.4629 183
-12.4844 -0.7944 0.7251000000000001 190
-6.5664 -0.4177 -0.6865000000000001 228
-12.4844 -0.7944 1.0186 20
-12.476600000000001 -0.7935 -1.0176 57
-12.4844 -0.7944 1.3105000000000002 234
-12.4844 -0.7939 -0.7251000000000001 241
-12.476600000000001 -0.7935 1.6025 145
-12.5 -0.7948999999999999 -0.4355 131
-12.414100000000001 -0.7896 1.8906 250
-12.476600000000001 -0.7939 -0.1454 233
-12.3125 -0.7831999999999999 2.168 68
-12.4922 -0.7529 0.1454 95
-3.2773000000000003 -0.19760000000000003 -0.49439999999999995 213
-12.4922 -0.7534000000000001 0.4353 222
-3.8672000000000004 -0.2332 -0.4929 68
-12.476600000000001 -0.752 0.7245999999999999 187
-6.578099999999999 -0.3967 -0.688 198
-12.4922 -0.7534000000000001 1.0186 42
-12.476600000000001 -0.752 -1.0176 39
-12.476600000000001 -0.7524 1.3096 43
-12.476600000000001 -0.7524 -0.7245999999999999 137
-12.468800000000002 -0.752 1.6016 114
-12.5 -0.7534000000000001 -0.4355 229
-12.4531 -0.7509999999999999 1.8965 243
-12.4922 -0.7529 -0.1454 106
-10.2031 -0.6152000000000001 1.7959 20
-12.4922 -0.7070000000000001 0.1454 250
-3.2714999999999996 -0.1852 -0.4932 178
-12.4922 -0.7070000000000001 0.4351 218
-3.9648000000000003 -0.2245 -0.5054 207
-12.476600000000001 -0.7061 0.7241 240
-6.5977 -0.3735 -0.6899 68
-12.4844 -0.7070000000000001 1.0176 6
-12.4844 -0.7065 -1.0176 45
-12.4922 -0.7070000000000001 1.3105000000000002 40
-12.476600000000001 -0.7065 -0.7245999999999999 77
-12.460899999999999 -0.7056 1.5996000000000001 165
-12.4844 -0.7065 -0.43479999999999996 176
-12.476600000000001 -0.7065 1.8994 241
-12.4922 -0.7070000000000001 -0.1454 239
-10.2109 -0.5781000000000001 1.7959 225
-12.4844 -0.6631 0.14529999999999998 209
-3.2676 -0.1736 -0.4924 241
-12.476600000000001 -0.6626000000000001 0.4346 41
-3.9785000000000004 -0.2112 -0.5068 52
-12.4844 -0.6631 0.7245999999999999 234
-6.6211 -0.3518 -0.6923999999999999 36
-12.476600000000001 -0.6626000000000001 1.0166 75
-12.468800000000002 -0.6620999999999999 -1.0166 104
-12.4922 -0.6631 1.3096 169
-12.4844 -0.6631 -0.7251000000000001 237
-12.468800000000002 -0.6620999999999999 1.6006 4
-12.4844 -0.6626000000000001 -0.4346 30
-12.460899999999999 -0.6616 1.8965 249
-12.468800000000002 -0.6620999999999999 -0.1451 90
-12.3828 -0.6572 2.1777 207
-2.998 -0.1493 -0.522 128
-12.4844 -0.6215999999999999 0.14529999999999998 232
-3.2754000000000003 -0.1631 -0.49369999999999997 178
-12.468800000000002 -0.6206 0.4343 241
-3.9745999999999997 -0.1979 -0.5063 118
-12.4922 -0.6221 0.7251000000000001 79
-6.675800000000001 -0.3323 -0.6978 61
-12.468800000000002 -0.6206 1.0166 102
-12.460899999999999 -0.6206 -1.0156 29
-12.476600000000001 -0.6211 1.3086000000000002 137
-12.4844 -0.6215999999999999 -0.7245999999999999 151
-12.468800000000002 -0.6206 1.6006 2
-12.476600000000001 -0.6211 -0.4346 67
-12.468800000000002 -0.6206 1.8975 201
-12.4844 -0.6215999999999999 -0.14529999999999998 28
-10.25 -0.5103 1.8027000000000002 31
-2.9668 -0.1378 -0.5161 20
-12.4922 -0.5801 0.14529999999999998 184
-3.2773000000000003 -0.1522 -0.49369999999999997 89
-12.476600000000001 -0.5796 0.4343 43
-3.9901999999999997 -0.18539999999999998 -0.5083 117
-12.4844 -0.5801 0.7245999999999999 232
-6.7109000000000005 -0.3118 -0.7017 207
-12.4844 -0.5801 1.0176 44
-12.476600000000001 -0.5796 -1.0166 238
-12.468800000000002 -0.5796 1.3075999999999999 229
-12.476600000000001 -0.5796 -0.7236 148
-12.476600000000001 -0.5796 1.6016 197
-12.4844 -0.5801 -0.43479999999999996 166
-12.460899999999999 -0.5791 1.8965 11
-12.476600000000001 -0.5796 -0.1451 69
-10.2578 -0.4768 1.8037 110
-2.9745999999999997 -0.1273 -0.5176 104
-12.476600000000001 -0.5342 0.1451 59
-3.3007999999999997 -0.1412 -0.49729999999999996 185
-12.4844 -0.5342 0.4346 145
-3.9844 -0.1704 -0.5073 69
-12.468800000000002 -0.5337 0.7236 20
-6.7422 -0.2883 -0.7045999999999999 192
-12.4922 -0.5347 1.0176 24
-12.4844 -0.5342 -1.0176 89
-12.4844 -0.5342 1.3086000000000002 174
-12.476600000000001 -0.5337 -0.7236 209
-12.468800000000002 -0.5337 1.5996000000000001 4
-12.4922 -0.5347 -0.43479999999999996 195
-12.4844 -0.5342 1.8984 195
-12.468800000000002 -0.5337 -0.145 51
-12.3672 -0.5293 2.1758 183
-3.0156 -0.1185 -0.5244 58
-12.476600000000001 -0.4902 0.1451 92
-3.3281 -0.1307 -0.5015 81
-12.4844 -0.4905 0.4343 27
-4.043 -0.1588 -0.5151 126
-12.476600000000001 -0.4902 0.7236 243
-6.765599999999999 -0.2659 -0.7070000000000001 182
-12.468800000000002 -0.49 1.0156 51
-12.4844 -0.4907 -1.0176 44
-12.4844 -0.4905 1.3086000000000002 153
-12.476600000000001 -0.4902 -0.7236 134
-12.460899999999999 -0.48950000000000005 1.5986000000000002 77
-12.4922 -0.4907 -0.43479999999999996 138
-12.476600000000001 -0.4902 1.8975 249
-12.4844 -0.4905 -0.1451 241
-12.3828 -0.4866 2.1777 166
-2.9492000000000003 -0.10550000000000001 -0.5127 183
-12.4922 -0.4473 0.14529999999999998 147
-12.476600000000001 -0.4465 0.4341 12
-4.125 -0.1476 -0.5254 28
-12.476600000000001 -0.4468 0.7236 75
-6.8515999999999995 -0.2452 -0.7158 81
-12.468800000000002 -0.44630000000000003 1.0156 162
-12.4844 -0.4468 -1.0166 100
-12.4922 -0.447 1.3096 158
-12.476600000000001 -0.4465 -0.7236 13
-12.468800000000002 -0.44630000000000003 1.5996000000000001 55
-12.468800000000002 -0.4465 -0.4341 58
-12.468800000000002 -0.44630000000000003 1.8955000000000002 11
-12.4844 -0.4468 -0.1451 211
-12.375 -0.4429 2.1758 27
-2.9531 -0.09539999999999998 -0.5136999999999999 128
-12.4844 -0.4031 0.1451 239
-3.3691000000000004 -0.10880000000000001 -0.5073 156
-12.468800000000002 -0.4028 0.4338 116
-6.359400000000001 -0.2054 -0.813 19
-12.476600000000001 -0.4031 0.7236 61
-6.9062 -0.223 -0.7217 197
-12.476600000000001 -0.4031 1.0156 255
-12.468800000000002 -0.40259999999999996 -1.0156 168
-12.4844 -0.4031 1.3075999999999999 228
-12.4844 -0.4031 -0.7241 157
-12.476600000000001 -0.4028 1.5996000000000001 106
-12.476600000000001 -0.4031 -0.4341 244
-12.460899999999999 -0.40259999999999996 1.8944999999999999 17
-12.468800000000002 -0.4028 -0.145 34
-12.3828 -0.40009999999999996 2.1777 68
-3.0273000000000003 -0.0872 -0.5268999999999999 157
-12.5 -0.3601 0.14529999999999998 208
-3.3691000000000004 -0.09699999999999999 -0.5073 196
-12.476600000000001 -0.3594 0.4338 20
-6.4414 -0.1855 -0.8231999999999999 46
-12.476600000000001 -0.3594 0.7236 255
-6.949199999999999 -0.2002 -0.7261 71
-12.4844 -0.35960000000000003 1.0166 55
-12.468800000000002 -0.3591 -1.0156 111
-12.460899999999999 -0.3589 1.3056999999999999 182
-12.468800000000002 -0.3594 -0.7231000000000001 158
-12.476600000000001 -0.3594 1.6006 76
-12.4922 -0.3599 -0.4346 35
-12.460899999999999 -0.3591 1.8944999999999999 8
-12.460899999999999 -0.3589 -0.1449 3
-10.0625 -0.2898 1.7675999999999998 150
-3.0370999999999997 -0.0768 -0.5283 57
-12.476600000000001 -0.3159 0.1451 216
-3.4648000000000003 -0.0877 -0.522 4
-12.476600000000001 -0.3159 0.4341 69
-6.453099999999999 -0.16329999999999997 -0.8251999999999999 224
-12.468800000000002 -0.3157 0.7231000000000001 61
-6.9765999999999995 -0.1765 -0.7290000000000001 81
-12.476600000000001 -0.3157 1.0156 107
-12.476600000000001 -0.3159 -1.0156 16
-12.476600000000001 -0.3159 1.3075999999999999 127
-12.460899999999999 -0.3154 -0.7227 232
-12.468800000000002 -0.3157 1.5986000000000002 201
-12.4844 -0.31620000000000004 -0.4343 70
-12.476600000000001 -0.3157 1.8965 187
-12.468800000000002 -0.3157 -0.1449 229
-12.3594 -0.313 2.1738 114
-2.9882999999999997 -0.0663 -0.52 129
-12.4844 -0.27690000000000003 0.1451 106
-3.3457 -0.0742 -0.5039 216
-12.476600000000001 -0.2766 0.4338 158
-6.4765999999999995 -0.1436 -0.8276 131
-12.468800000000002 -0.2766 0.7231000000000001 184
-7.0352 -0.156 -0.7349 125
-12.468800000000002 -0.2764 1.0146 104
-12.4844 -0.27690000000000003 -1.0166 82
-12.476600000000001 -0.2766 1.3066 63
-12.468800000000002 -0.2764 -0.7231000000000001 202
-12.4453 -0.2759 1.5957 254
-12.476600000000001 -0.2766 -0.4338 57
-12.476600000000001 -0.2766 1.8955000000000002 88
-12.476600000000001 -0.2766 -0.145 159
-12.3828 -0.27440000000000003 2.1758 99
-3.0293 -0.0571 -0.5268999999999999 133
-12.4531 -0.2349 0.1448 95
-3.2949 -0.0621 -0.4961 63
-12.460899999999999 -0.235 0.43329999999999996 44
-6.515599999999999 -0.12279999999999999 -0.8325 65
-12.4844 -0.2352 0.7236 133
-12.468800000000002 -0.235 -1.3056999999999999 165
-12.460899999999999 -0.2349 1.0146 108
-12.468800000000002 -0.2351 -1.0156 128
-12.4922 -0.23550000000000001 1.3086000000000002 15
-12.468800000000002 -0.235 -0.7227 131
-12.4453 -0.2346 1.5957 87
-12.476600000000001 -0.2351 -0.4338 240
-12.460899999999999 -0.235 1.8944999999999999 249
-12.4844 -0.2352 -0.1451 61
-12.375 -0.2334 2.1758 188
-3.0995999999999997 -0.0471 -0.5390999999999999 30
-12.468800000000002 -0.1893 0.145 236
-3.3983999999999996 -0.0516 -0.5117 133
-12.460899999999999 -0.1892 0.43329999999999996 149
-6.5547 -0.09949999999999999 -0.8373999999999999 241
-12.476600000000001 -0.1895 0.7236 71
-12.476600000000001 -0.1895 -1.3075999999999999 94
-12.468800000000002 -0.1893 1.0146 192
-12.460899999999999 -0.1892 -1.0146 97
-12.468800000000002 -0.1893 1.3066 102
-12.468800000000002 -0.1893 -0.7227 160
-12.460899999999999 -0.1892 1.5977000000000001 95
-12.4844 -0.18960000000000002 -0.4341 9
-12.4531 -0.1891 1.8925999999999998 86
-12.460899999999999 -0.1892 -0.1449 185
-12.3906 -0.1881 2.1777 28
-12.476600000000001 -0.1459 0.145 230
-3.3983999999999996 -0.0397 -0.5117 4
-12.468800000000002 -0.1458 0.4336 133
-6.5977 -0.0771 -0.8432999999999999 21
-12.4531 -0.1456 0.7222 133
-12.468800000000002 -0.1458 -1.3056999999999999 161
-12.476600000000001 -0.1459 1.0156 217
-12.468800000000002 -0.1459 -1.0146 92
-12.460899999999999 -0.1458 1.3047 22
-12.460899999999999 -0.1458 -0.7227 188
-12.4453 -0.14550000000000002 1.5957 17
-12.476600000000001 -0.146 -0.4341 71
-12.4531 -0.1456 1.8925999999999998 8
-12.460899999999999 -0.1458 -0.1449 22
-12.375 -0.1448 2.1758 101
-3.0995999999999997 -0.024900000000000002 -0.5390999999999999 225
-12.460899999999999 -0.1 0.1449 38
-3.3711 -0.0271 -0.5073 161
-12.476600000000001 -0.1002 0.4338 8
-6.640599999999999 -0.0533 -0.8486 22
-12.460899999999999 -0.1 0.7222 186
-12.460899999999999 -0.1 -1.3056999999999999 248
-12.476600000000001 -0.1002 1.0156 56
-12.468800000000002 -0.1001 -1.0146 29
-12.476600000000001 -0.1002 1.3066 157
-12.4531 -0.1 -0.7222 76
-12.460899999999999 -0.1 1.5977000000000001 167
-12.476600000000001 -0.1002 -0.4341 15
-12.460899999999999 -0.1 1.8936000000000002 169
-12.460899999999999 -0.1 -0.1448 197
-12.3594 -0.0992 2.1719 197
-3.0995999999999997 -0.0141 -0.5390999999999999 226
-12.468800000000002 -0.056600000000000004 0.1449 139
-3.3983999999999996 -0.0154 -0.5117 57
-12.468800000000002 -0.056600000000000004 0.4336 24
-6.6914 -0.0304 -0.8554999999999999 195
-12.460899999999999 -0.0565 0.7222 156
-12.460899999999999 -0.0565 -1.3047 101
-12.476600000000001 -0.056600000000000004 1.0156 243
-12.476600000000001 -0.056600000000000004 -1.0156 126
-12.468800000000002 -0.056600000000000004 1.3056999999999999 134
-12.4531 -0.0565 -0.7222 182
-12.4531 -0.0565 1.5957 141
-12.468800000000002 -0.056600000000000004 -0.4336 194
-12.468800000000002 -0.056600000000000004 1.8944999999999999 46
-12.468800000000002 -0.056600000000000004 -0.1449 188
-12.375 -0.0562 2.1738 20
-3.0293 -0.0042 -0.5268999999999999 245
-12.476600000000001 -0.0174 0.145 21
-3.3476999999999997 -0.004699999999999999 -0.5039 153
-12.460899999999999 -0.0174 0.43329999999999996 176
-6.7422 -0.009399999999999999 -0.8618000000000001 215
-12.460899999999999 -0.0174 0.7222 243
-12.460899999999999 -0.0174 -1.3047 116
-12.468800000000002 -0.0174 1.0146 193
-12.460899999999999 -0.0174 -1.0137 1
-12.539100000000001 -0.0175 1.3135 133
-12.468800000000002 -0.0174 -0.7227 10
-12.4531 -0.0174 1.5966999999999998 155
-12.3594 -0.0173 -0.42969999999999997 56
-12.4531 -0.0174 1.8925999999999998 81
-12.4531 -0.0174 -0.1448 5
-12.375 -0.0173 2.1758 227
-3.0449 0.0058 -0.5293 91
-12.4844 0.024 0.1451 197
-3.3476999999999997 0.0064 -0.5039 53
-12.4375 0.0239 0.4326 31
-6.792999999999999 0.013000000000000001 -0.8687 5
-12.523399999999999 0.024 0.7261 75
-12.468800000000002 0.0239 -1.3066 89
-12.5469 0.0241 1.0215 159
-12.4531 0.0239 -1.0137 117
-12.5625 0.0241 1.3154 61
-12.460899999999999 0.0239 -0.7222 236
-12.460899999999999 0.0239 1.5977000000000001 126
-12.3672 0.023700000000000002 -0.4299 216
-12.4531 0.0239 1.8925999999999998 203
-12.414100000000001 0.023799999999999998 -0.14429999999999998 253
-12.375 0.023799999999999998 2.1738 109
-3.0995999999999997 0.0173 -0.5390999999999999 228
-12.539100000000001 0.07 0.1458 62
-3.4062 0.019 -0.5132 12
-6.8672 0.0384 -0.8779 155
-12.5547 0.0701 0.728 212
-12.468800000000002 0.0696 -1.3056999999999999 244
-12.5703 0.0702 1.0234 144
-12.460899999999999 0.0696 -1.0146 188
-12.664100000000001 0.0707 1.3262 52
-12.4531 0.0696 -0.7222 164
-12.460899999999999 0.0696 1.5977000000000001 86
-12.3672 0.0691 -0.4299 50
-12.460899999999999 0.0696 1.8944999999999999 134
-12.4922 0.0698 -0.1451 175
-12.3672 0.0691 2.1738 96
-3.0995999999999997 0.0281 -0.5390999999999999 216
-12.5469 0.11380000000000001 0.1458 168
-3.4297000000000004 0.0311 -0.5166 36
-12.5703 0.11410000000000001 0.43729999999999997 162
-6.9609000000000005 0.0632 -0.8896 227
-12.6719 0.115 0.7349 29
-12.4531 0.113 -1.3047 32
-12.75 0.1157 1.0381 187
-12.460899999999999 0.1131 -1.0146 226
-12.7578 0.1158 1.3369 180
-12.4453 0.11289999999999999 -0.7212000000000001 220
-12.4531 0.113 1.5957 211
-12.3672 0.11220000000000001 -0.4299 178
-12.4531 0.113 1.8925999999999998 33
-12.5156 0.11359999999999999 -0.14550000000000002 134
-12.351600000000001 0.1121 2.1719 177
-3.0995999999999997 0.04 -0.5390999999999999 122
-12.6172 0.163 0.1466 190
-3.4141000000000004 0.0441 -0.5142 216
-12.664100000000001 0.1636 0.4404 28
-11.226600000000001 0.145 -1.4385 64
-12.656199999999998 0.1635 0.7339 130
-12.4531 0.1609 -1.3047 66
-12.7656 0.1649 1.0391 53
-12.460899999999999 0.161 -1.0146 145
-12.773399999999999 0.1649 1.3378999999999999 106
-12.4453 0.16079999999999997 -0.7217 11
-12.4453 0.16079999999999997 1.5947 98
-12.3594 0.1597 -0.4299 168
-12.468800000000002 0.161 1.8944999999999999 32
-12.4297 0.1605 -0.1445 11
-12.3672 0.1597 2.1738 86
-3.0995999999999997 0.051399999999999994 -0.5390999999999999 200
-12.6094 0.2091 0.1466 106
-3.4648000000000003 0.0575 -0.522 44
-12.6094 0.2091 0.4387 219
-11.1719 0.18530000000000002 -1.4316 211
-12.75 0.2114 0.7393000000000001 76
-12.4531 0.2065 -1.3047 128
-12.7578 0.2115 1.0391 233
-12.4531 0.2065 -1.0137 65
-12.773399999999999 0.2118 1.3388999999999998 87
-12.4531 0.2065 -0.7222 133
-12.4453 0.2064 1.5957 67
-12.3594 0.205 -0.42969999999999997 149
-12.4531 0.2065 1.8936000000000002 51
-12.3906 0.2054 -0.14400000000000002 63
-12.3672 0.2051 2.1738 3
-12.6719 0.2477 0.14730000000000001 214
-12.6719 0.2477 0.4407 226
-11.1719 0.21850000000000003 -1.4316 208
-12.75 0.2493 0.7393000000000001 42
-12.4531 0.24350000000000002 -1.3047 190
-12.7656 0.2495 1.0391 212
-12.4453 0.2433 -1.0127 112
-12.7656 0.2495 1.3369 78
-12.4531 0.24350000000000002 -0.7222 247
-12.4453 0.2434 1.5957 114
-12.3672 0.2418 -0.4302 134
-12.4453 0.2433 1.8906 55
-12.406199999999998 0.2426 -0.14429999999999998 110
-12.351600000000001 0.2416 2.1719 122
-3.0995999999999997 0.0709 -0.5390999999999999 187
-12.6406 0.2891 0.147 201
-3.4648000000000003 0.07919999999999999 -0.522 206
-12.664100000000001 0.2896 0.4404 65
-11.148399999999999 0.25489999999999996 -1.4297 210
-12.75 0.2915 0.7393000000000001 15
-12.460899999999999 0.2849 -1.3056999999999999 217
-12.7656 0.292 1.0391 249
-12.4453 0.2847 -1.0137 98
-12.7422 0.2915 1.335 235
-12.4531 0.2847 -0.7217 187
-12.460899999999999 0.2849 1.5977000000000001 117
-12.375 0.28300000000000003 -0.4304 12
-12.4453 0.2847 1.8916 104
-12.398399999999999 0.2834 -0.1442 171
-12.3594 0.2825 2.1719 174
-3.0995999999999997 0.08220000000000001 -0.5390999999999999 86
-12.6094 0.3345 0.1466 24
-3.5645 0.09449999999999999 -0.5371 4
-12.476600000000001 0.3311 0.4338 204
-11.1406 0.2957 -1.4287 182
-12.7422 0.3381 0.7393000000000001 215
-12.4453 0.33030000000000004 -1.3037 7
-12.773399999999999 0.33909999999999996 1.04 86
-12.4531 0.33030000000000004 -1.0137 73
-12.7578 0.3386 1.3369 128
-12.4375 0.3301 -0.7212000000000001 222
-12.4453 0.3301 1.5957 138
-12.3828 0.3286 -0.43090000000000006 99
-12.4453 0.33030000000000004 1.8925999999999998 238
-12.375 0.3284 -0.1439 70
-12.343800000000002 0.3276 2.1699 130
-3.0312 0.0911 -0.5273 234
-12.6406 0.3796 0.147 84
-3.3964999999999996 0.102 -0.5117 246
-12.664100000000001 0.3804 0.4407 35
-11.1172 0.33399999999999996 -1.4258000000000002 170
