# .PCD v0.7 - Point Cloud Data file format
VERSION 0.7
FIELDS x y z intensity
SIZE 4 4 4 4
TYPE F F F F
COUNT 1 1 1 1
WIDTH 1439
HEIGHT 1
VIEWPOINT 0 0 0 1 0 0 0
POINTS 1439
DATA ascii
15.8203 27.3125 0.3682 104
4.3984 7.5898 -1.3311000000000002 227
15.7969 27.2812 1.0986 221
5.0273 8.6797 -1.2852000000000001 216
15.8047 27.2812 1.8319999999999999 196
5.8984000000000005 10.1875 -1.2324 177
7.1484000000000005 12.343800000000002 -1.1611 47
21.7812 37.5938 4.5625 121
9.3359 16.125 -1.0811 194
15.601600000000001 26.9375 4.0 44
13.906199999999998 24.0156 -0.9673 25
13.7422 23.7188 4.1758 239
13.8828 23.9688 -0.32299999999999995 191
13.6719 23.5938 4.8008 78
3.9082 6.6914 -1.3594 217
4.418 7.5664 -1.3291 45
15.8906 27.2188 1.0986 29
5.0625 8.6719 -1.2861000000000002 244
15.914100000000001 27.25 1.8330000000000002 165
5.949199999999999 10.1875 -1.2354 141
7.1914 12.3203 -1.1611 10
14.5078 24.8438 3.0195 3
9.4219 16.1406 -1.085 83
15.6953 26.875 3.998 161
14.0469 24.0469 -0.9706999999999999 77
13.898399999999999 23.7969 4.1953 182
13.9844 23.9531 -0.3235 245
13.601600000000001 23.2969 4.75 49
3.9375 6.6914 -1.3613 10
4.457 7.574199999999999 -1.334 2
30.875 52.4688 2.123 19
5.0898 8.6484 -1.2861000000000002 18
16.0469 27.25 1.8369 12
5.9922 10.1797 -1.2363 241
7.238300000000001 12.2969 -1.1621 85
13.8047 23.4531 2.8555 214
9.4844 16.125 -1.0859 157
14.351600000000001 24.375 3.6327999999999996 92
14.6719 24.9219 -1.0078 163
13.8906 23.5938 4.168 132
16.0625 27.2969 -0.36939999999999995 191
13.6172 23.1406 4.7266 61
3.9608999999999996 6.675800000000001 -1.3613 16
4.4844 7.5586 -1.334 28
31.0781 52.375 2.125 95
5.1289 8.6406 -1.2871000000000001 126
16.1562 27.2344 1.8397999999999999 95
6.0352 10.1719 -1.2383 8
7.3164 12.3281 -1.167 22
13.8906 23.4062 2.8574 241
9.5312 16.0781 -1.085 148
14.3125 24.125 3.6035000000000004 29
14.2578 24.0312 -0.9741 53
13.960899999999999 23.5312 4.168 160
16.1875 27.2812 -0.3701 138
13.75 23.1875 4.7461 22
3.9844 6.6602 -1.3613 188
18.4844 30.9219 0.4204 107
4.5078 7.5352 -1.3319999999999999 244
5.167999999999999 8.6406 -1.29 138
16.2812 27.2344 1.8437999999999999 255
6.0625 10.1406 -1.2373 146
7.3672 12.3203 -1.1689 136
13.9531 23.3281 2.8516000000000004 222
9.6016 16.0625 -1.0859 10
13.9531 23.3281 3.4901999999999997 76
14.2969 23.9062 -0.9712000000000001 130
14.031199999999998 23.4531 4.1602 201
16.3125 27.2812 -0.37079999999999996 91
15.125 25.2969 5.1875 124
4.0117 6.6562 -1.3633000000000002 160
4.5469 7.5390999999999995 -1.3359 70
5.203099999999999 8.6328 -1.291 122
16.4219 27.2344 1.8477000000000001 151
6.109400000000001 10.1328 -1.2393 124
7.4140999999999995 12.3047 -1.1699 207
14.1094 23.4062 2.8672000000000004 16
9.6562 16.0156 -1.0859 231
14.031199999999998 23.2812 3.4922000000000004 65
14.210899999999999 23.5781 -0.9595 71
14.031199999999998 23.2812 4.1367 221
14.1719 23.5156 -0.3201 252
15.2578 25.3125 5.203099999999999 122
4.043 6.6523 -1.3652000000000002 192
14.3047 23.5469 0.32130000000000003 125
4.5664 7.519500000000001 -1.335 108
16.5469 27.2344 1.1113 14
5.238300000000001 8.625 -1.2919999999999998 53
16.5469 27.2344 1.8516 35
6.144500000000001 10.1172 -1.2393 72
7.457000000000001 12.273399999999999 -1.1689 80
14.1719 23.3281 2.8632999999999997 60
9.7266 16.0 -1.0869 56
14.218800000000002 23.4062 3.5176 48
14.4375 23.7656 -0.9692000000000001 4
14.1875 23.3438 4.1602 95
14.281199999999998 23.5156 -0.3208 81
14.226600000000001 23.4219 4.8242 221
4.0664 6.644500000000001 -1.3662 138
14.351600000000001 23.4375 0.3206 183
4.6055 7.5234000000000005 -1.3388999999999998 51
16.6562 27.2031 1.1123 11
5.265599999999999 8.6016 -1.2919999999999998 108
16.6719 27.25 1.8563999999999998 125
6.1914 10.1172 -1.2422 8
7.5078 12.2656 -1.1709 97
14.2344 23.25 2.8613 101
9.7812 15.9844 -1.0879 19
14.210899999999999 23.2188 3.4961 129
14.4844 23.6719 -0.9673 212
14.2578 23.2969 4.1562 57
14.3906 23.5156 -0.3215 183
14.2578 23.2969 4.8086 172
4.0938 6.636699999999999 -1.3672 82
14.468800000000002 23.4531 0.32130000000000003 188
4.6328 7.511699999999999 -1.3388999999999998 16
5.296900000000001 8.5938 -1.2930000000000001 177
16.8281 27.2812 1.8622999999999998 216
6.230499999999999 10.1016 -1.2422 121
7.5547 12.25 -1.1719 185
9.8203 15.9297 -1.0859 225
14.2344 23.0938 3.4844 34
14.3594 23.2969 4.1641 223
14.5156 23.5469 -0.3225 213
14.4375 23.4062 4.8438 38
4.1094 6.613300000000001 -1.3652000000000002 1
14.625 23.5312 0.32299999999999995 98
4.6758 7.519500000000001 -1.3437999999999999 140
5.3359000000000005 8.5781 -1.2938999999999998 208
17.0312 27.3906 1.874 186
6.269500000000001 10.0859 -1.2431999999999999 10
7.6172 12.25 -1.1748 186
15.5625 25.0312 3.0938 189
9.8828 15.8906 -1.0859 23
14.2578 22.9375 3.4688 82
14.0625 22.6094 4.0547 73
16.9531 27.2812 -0.37479999999999997 118
14.523399999999999 23.3594 4.8438 246
4.1406 6.609400000000001 -1.3672 98
4.6953 7.4922 -1.3418 232
5.375 8.5781 -1.2969 133
6.3125 10.0703 -1.2451 183
7.6797 12.2578 -1.1777 188
15.25 24.3438 3.0137 66
9.9453 15.8672 -1.0869 197
14.289100000000001 22.8125 3.457 160
14.4844 23.1094 4.1523 153
17.1094 27.2969 -0.3757 36
13.9375 22.25 4.6211 210
4.1719 6.605499999999999 -1.3700999999999999 72
4.7109 7.457000000000001 -1.3388999999999998 59
5.4062 8.5625 -1.2969 254
6.355499999999999 10.0625 -1.2461 149
7.7188 12.226600000000001 -1.1777 4
15.281199999999998 24.2031 3.0039 167
9.9766 15.8047 -1.085 246
14.3594 22.7344 3.4531 122
13.9219 22.0469 3.9707 242
17.2344 27.2969 -0.37670000000000003 140
13.8828 21.9844 4.5781 34
4.1992 6.6015999999999995 -1.3721 107
4.7461 7.4609000000000005 -1.3418 92
5.4375 8.5469 -1.2978999999999998 250
17.3438 27.2656 1.8779 188
6.394500000000001 10.0469 -1.2470999999999999 130
7.765599999999999 12.2031 -1.1777 236
15.273399999999999 24.0 2.9844 20
10.0625 15.8125 -1.0879 194
14.460899999999999 22.7344 3.4589999999999996 63
13.976600000000001 21.9688 3.9629000000000003 237
17.3594 27.2812 -0.3772 39
13.875 21.8125 4.5508 98
4.2227 6.578099999999999 -1.3711000000000002 242
17.4844 27.2656 0.3779 189
4.7812 7.449199999999999 -1.3428 36
17.4375 27.1875 1.126 89
5.4688 8.5234 -1.2978999999999998 24
17.4531 27.2031 1.8779 114
6.4453 10.0469 -1.25 178
7.832000000000001 12.210899999999999 -1.1806999999999999 122
15.3672 23.9531 2.9863 197
10.1016 15.75 -1.0859 196
14.781199999999998 23.0469 3.5156 22
16.2812 25.375 -1.0508 201
14.0703 21.9219 3.9668 173
17.4844 27.2656 -0.3779 189
14.023399999999999 21.8594 4.5703 50
4.2461 6.5703 -1.3721 56
4.8086 7.4375 -1.3437999999999999 16
32.875 50.8438 2.1133 255
5.5078 8.5156 -1.2988 120
6.4765999999999995 10.0234 -1.25 36
7.894500000000001 12.210899999999999 -1.1836 236
15.398399999999999 23.8281 2.9766000000000004 164
10.1719 15.726600000000001 -1.0869 95
14.875 23.0 3.5176 137
16.4531 25.4688 -1.0566 112
14.148399999999999 21.8906 3.9668 16
17.625 27.25 -0.3787 218
14.101600000000001 21.8125 4.5703 40
4.2656 6.550800000000001 -1.3711000000000002 238
4.8359 7.425800000000001 -1.3447 96
33.0625 50.7812 2.1152 173
5.542999999999999 8.5156 -1.3008000000000002 172
33.5625 51.5312 3.5762 19
6.511699999999999 10.0 -1.25 2
7.9453 12.2031 -1.1855 218
15.164100000000001 23.2969 2.9160000000000004 165
10.2266 15.7031 -1.0879 235
17.0156 26.125 4.0039 85
16.6094 25.5156 -1.0615 159
14.6328 22.4844 4.082 210
17.75 27.2656 -0.3796 78
14.210899999999999 21.8125 4.582 55
4.293 6.546900000000001 -1.3730000000000002 121
4.8555 7.4023 -1.3428 158
33.2812 50.75 2.1191 42
5.5859000000000005 8.5156 -1.3047 219
33.75 51.4375 3.5762 21
6.5625 10.0078 -1.2529000000000001 67
7.984400000000001 12.1719 -1.1855 187
15.164100000000001 23.125 2.9023000000000003 66
10.281199999999998 15.6719 -1.0879 122
15.5469 23.7031 3.6426 121
14.7422 22.4688 4.0898 176
17.8906 27.2812 -0.38060000000000005 64
14.093800000000002 21.4844 4.5234 85
4.3203 6.5390999999999995 -1.374 45
4.8906 7.394500000000001 -1.3457 109
33.5625 50.75 2.123 60
5.6172 8.4922 -1.3047 96
6.609400000000001 10.0 -1.2549 174
8.0391 12.164100000000001 -1.1875 129
15.218800000000002 23.0312 2.8964999999999996 41
10.343800000000002 15.648399999999999 -1.0889 216
15.718800000000002 23.7812 3.6620999999999997 214
14.7969 22.3906 4.0859 19
14.125 21.375 4.5078 217
4.3438 6.519500000000001 -1.374 60
4.9219 7.386699999999999 -1.3466999999999998 18
5.640599999999999 8.4688 -1.3037 168
18.1406 27.2188 1.9003999999999999 121
6.6484000000000005 9.9766 -1.2559 144
8.0859 12.1406 -1.1875 108
15.2656 22.9219 2.8906 60
10.414100000000001 15.625 -1.0898 236
15.7969 23.7188 3.6601999999999997 46
14.4219 21.6562 3.9608999999999996 81
14.273399999999999 21.4219 4.5312 241
4.3711 6.515599999999999 -1.376 73
18.25 27.2031 0.3823 158
4.9492 7.375 -1.3477000000000001 106
18.2188 27.1562 1.1406 117
5.6836 8.4688 -1.3066 223
18.2031 27.1406 1.8984 49
6.6875 9.9688 -1.2568000000000001 115
8.1406 12.1328 -1.1895 218
15.335899999999999 22.8594 2.8887 198
10.468800000000002 15.601600000000001 -1.0908 79
14.5547 21.6875 3.3555 220
14.468800000000002 21.5625 3.9531 237
14.5 21.6094 4.582 175
4.3906 6.5 -1.376 239
4.9727 7.355499999999999 -1.3477000000000001 243
18.3594 27.1719 1.1436 175
5.7148 8.4609 -1.3075999999999999 228
18.3438 27.1406 1.9033000000000002 72
6.7188 9.9453 -1.2568000000000001 217
8.1953 12.125 -1.1914 168
15.4453 22.8594 2.8945 65
10.5469 15.601600000000001 -1.0928 74
14.585899999999999 21.5938 3.3457 96
14.5469 21.5312 3.9551 155
13.085899999999999 19.3594 -0.2725 134
14.8047 21.9062 4.6562 210
4.418 6.488300000000001 -1.3769999999999998 81
5.0 7.3398 -1.3477000000000001 184
18.5156 27.1875 1.1475 32
5.7539 8.4453 -1.3086000000000002 92
18.4844 27.1406 1.9072 167
6.761699999999999 9.9297 -1.2578 194
8.25 12.1094 -1.1934 109
15.585899999999999 22.875 2.9043 70
10.593800000000002 15.5547 -1.0918 119
14.718800000000002 21.6094 3.3574 245
15.101600000000001 22.1719 4.0859 119
13.0156 19.1094 -0.2693 73
14.835899999999999 21.7812 4.6367 93
4.4492 6.484400000000001 -1.3788999999999998 44
5.0312 7.332000000000001 -1.3496000000000001 245
18.6562 27.1719 1.1494 0
5.7812 8.4219 -1.3086000000000002 120
18.6406 27.1562 1.9141 154
6.8125 9.9297 -1.2607 83
8.2891 12.085899999999999 -1.1934 171
15.773399999999999 22.9844 2.9238 24
10.6953 15.585899999999999 -1.0967 249
14.875 21.6719 3.377 190
15.125 22.0312 4.0703 44
13.0156 18.9688 -0.2681 135
14.875 21.6719 4.6289 99
4.4688 6.4648 -1.3779 194
5.0625 7.3203 -1.3506 94
18.8281 27.2188 1.1543 68
5.8164 8.4141 -1.3096 208
18.75 27.125 1.916 191
6.859400000000001 9.9219 -1.2637 177
8.3516 12.0781 -1.1953 6
15.8594 22.9375 2.9257999999999997 167
10.773399999999999 15.5781 -1.0996 10
17.4219 25.2031 3.9375 185
14.7656 21.3594 3.9531 161
13.085899999999999 18.9375 -0.2683 1
15.1094 21.8594 4.6758 77
4.4844 6.4375 -1.376 187
5.0977 7.3164 -1.3535 212
22.5 32.3125 1.3730000000000002 72
5.8477 8.3984 -1.3105000000000002 206
18.9375 27.1875 1.9258000000000002 92
6.9023 9.9062 -1.2646 18
8.4062 12.0703 -1.1973 245
15.906199999999998 22.8281 2.9199 38
10.8281 15.5469 -1.0996 205
17.4688 25.0781 3.9276999999999997 193
14.875 21.3594 3.9608999999999996 238
13.156199999999998 18.8906 -0.2683 110
15.1328 21.7344 4.6602 247
4.5156 6.4375 -1.3788999999999998 199
5.125 7.300800000000001 -1.3535 136
22.5 32.0625 1.3662 77
5.886699999999999 8.3828 -1.3125 79
19.0156 27.1094 1.9238 242
6.9336 9.875 -1.2637 29
8.4531 12.0469 -1.1982 127
16.75 23.8594 3.0586 60
10.898399999999999 15.531199999999998 -1.1016 46
17.9219 25.5469 4.0078 37
14.914100000000001 21.25 3.9531 122
13.1797 18.7812 -0.2673 47
15.414100000000001 21.9688 4.7227 234
4.5469 6.4336 -1.3818000000000001 80
5.1562 7.292999999999999 -1.3555000000000001 177
22.625 32.0 1.3672 96
5.921900000000001 8.375 -1.3144999999999998 194
19.0938 27.0 1.9219 149
6.984400000000001 9.875 -1.2666 57
16.6406 23.5469 2.3516 145
8.5234 12.0547 -1.2021 242
10.9844 15.539100000000001 -1.1045 106
18.0625 25.5625 4.0195 154
15.406199999999998 21.7969 4.0625 252
13.1797 18.6406 -0.2661 14
15.460899999999999 21.8594 4.7148 20
4.5742 6.421900000000001 -1.3828 197
5.175800000000001 7.269500000000001 -1.3544999999999998 178
17.2812 24.2656 1.0381 28
5.9609000000000005 8.3672 -1.3163999999999998 148
17.3125 24.3125 1.7334 193
7.0234000000000005 9.8594 -1.2686 109
16.7344 23.5 2.3516 114
8.5703 12.031199999999998 -1.2021 31
18.2656 25.6406 3.3026999999999997 233
11.031199999999998 15.4844 -1.1035 136
18.1719 25.5312 4.0234 153
15.4219 21.6562 4.0469 17
15.4375 21.6719 4.6836 179
4.5938 6.4023 -1.3818000000000001 231
5.2188 7.2734000000000005 -1.3584 254
16.9844 23.6719 1.0156 94
5.980499999999999 8.3359 -1.3144999999999998 234
16.9062 23.5625 1.6855000000000002 189
7.0703 9.8594 -1.2705 218
17.6719 24.625 2.4727 23
8.6016 11.9922 -1.2021 150
17.8438 24.875 3.2129000000000003 38
11.1172 15.4922 -1.1064 43
16.9844 23.6719 3.7422000000000004 120
15.1406 21.0938 3.9531 113
13.273399999999999 18.5 -0.26539999999999997 141
15.476600000000001 21.5625 4.6719 249
4.6094 6.375 -1.3799000000000001 240
17.2969 23.9375 0.34450000000000003 207
5.25 7.261699999999999 -1.3594 224
17.0938 23.6406 1.0166 136
6.0234000000000005 8.3359 -1.3174000000000001 172
17.0 23.5156 1.6865 227
7.109400000000001 9.8359 -1.2715 99
19.4531 26.9062 2.7089999999999996 186
8.6797 12.0156 -1.207 58
17.9375 24.8125 3.2129000000000003 141
11.1797 15.468800000000002 -1.1074 131
15.8672 21.9531 3.4785000000000004 191
13.5078 18.6875 -0.8031999999999999 50
15.2031 21.0312 3.9512 61
13.351600000000001 18.4688 -0.2656 133
15.5625 21.5312 4.6758 234
4.6445 6.375 -1.3838 199
17.3594 23.8281 0.344 146
5.2852 7.2578 -1.3633000000000002 11
17.2344 23.6719 1.0205 77
6.0625 8.3281 -1.3193000000000001 76
19.75 27.125 1.9491999999999998 68
7.1484000000000005 9.8203 -1.2715 73
19.5469 26.8438 2.7089999999999996 84
8.7266 11.976600000000001 -1.207 194
18.0 24.7188 3.2089999999999996 118
11.1797 15.351600000000001 -1.1025 157
15.9453 21.8906 3.4785000000000004 146
13.4531 18.4844 -0.7964 95
15.2656 20.9688 3.9492000000000003 90
13.4375 18.4531 -0.2659 114
15.8281 21.7344 4.7344 182
4.6758 6.375 -1.3866999999999998 212
17.5312 23.9219 0.34590000000000004 150
5.3047 7.234400000000001 -1.3613 167
19.875 27.1094 1.1719 129
6.0977 8.3203 -1.3213 65
19.875 27.1094 1.9541 201
7.1875 9.8047 -1.2725 47
8.7656 11.960899999999999 -1.208 166
11.3047 15.4219 -1.1104 234
16.0312 21.875 3.4844 68
13.5547 18.4844 -0.7988 130
15.3672 20.9531 3.9551 12
13.523399999999999 18.4375 -0.2666 107
15.7344 21.4531 4.6836 51
4.7031 6.3711 -1.3887 241
5.3398 7.234400000000001 -1.3643 111
20.0312 27.125 1.1758 236
6.1289 8.2969 -1.3213 83
20.0312 27.125 1.959 105
7.238300000000001 9.8047 -1.2764 246
19.8438 26.875 2.7245999999999997 240
8.8125 11.9375 -1.208 18
11.3594 15.3828 -1.1104 25
16.1719 21.9062 3.4961 68
13.6328 18.4688 -0.7998000000000001 98
15.468800000000002 20.9531 3.9648000000000003 199
13.601600000000001 18.4219 -0.2668 3
15.6094 21.1406 4.625 145
4.7227 6.3477 -1.3877000000000002 83
5.3711 7.2188 -1.3662 61
20.1719 27.1094 1.1787 171
6.1523 8.2656 -1.3203 244
20.1562 27.0781 1.9619 127
7.2852 9.7969 -1.2783 100
19.9844 26.8594 2.7305 67
8.875 11.9297 -1.2109 224
16.7656 22.5312 2.9473000000000003 181
11.406199999999998 15.3281 -1.1094 17
16.25 21.8281 3.4941000000000004 188
13.75 18.4844 -0.8027 226
15.8203 21.2656 4.0352 188
13.6875 18.3906 -0.2671 197
15.625 21.0 4.6094 239
4.7422 6.328099999999999 -1.3866999999999998 97
5.4023 7.207000000000001 -1.3672 95
20.4062 27.2188 1.1865 49
6.199199999999999 8.2734 -1.3241999999999998 136
20.3281 27.125 1.9697 224
7.3359000000000005 9.7891 -1.2812000000000001 186
20.1094 26.8438 2.7363 247
8.9219 11.906199999999998 -1.2119 3
16.8438 22.4844 2.9473000000000003 64
11.468800000000002 15.3047 -1.1104 130
15.8281 21.125 3.3906 46
13.7969 18.4062 -0.8018000000000001 9
15.8281 21.125 4.0195 122
13.773399999999999 18.375 -0.26780000000000004 117
15.6797 20.9219 4.6016 139
4.7734 6.324199999999999 -1.3896000000000002 10
5.425800000000001 7.1875 -1.3662 62
20.5781 27.25 1.1904000000000001 7
6.2461 8.2734 -1.3281 230
20.4688 27.125 1.9746000000000001 164
7.3711 9.7656 -1.2812000000000001 23
8.9922 11.914100000000001 -1.2158 10
16.5312 21.8906 2.8789 32
11.523399999999999 15.2656 -1.1104 123
15.8906 21.0469 3.3867000000000003 36
13.9375 18.4688 -0.8062 235
15.8672 21.0156 4.0078 49
13.8672 18.3594 -0.2683 102
15.7656 20.875 4.6055 77
4.8086 6.3203 -1.3925999999999998 216
5.449199999999999 7.1640999999999995 -1.3662 43
20.7031 27.2344 1.1924 103
6.269500000000001 8.25 -1.3271000000000002 178
20.625 27.1094 1.9794999999999998 225
7.417999999999999 9.7578 -1.2832 188
20.4062 26.8438 2.75 185
9.0312 11.875 -1.2148 89
16.5469 21.7656 2.8691000000000004 101
11.6172 15.273399999999999 -1.1143 161
15.898399999999999 20.9062 3.373 50
13.968800000000002 18.3594 -0.8042 130
15.976600000000001 21.0 4.0156 157
13.960899999999999 18.3594 -0.2688 244
15.851600000000001 20.8438 4.6094 242
4.8398 6.3203 -1.3965 187
5.488300000000001 7.1640999999999995 -1.3691 6
20.875 27.25 1.1973 114
6.296900000000001 8.2188 -1.3271000000000002 79
20.7656 27.125 1.9853999999999998 231
7.4609000000000005 9.7422 -1.2852000000000001 202
20.5625 26.8594 2.7598000000000003 68
9.0859 11.8594 -1.2168 178
16.5625 21.625 2.8594 38
11.656199999999998 15.218800000000002 -1.1133 101
15.9922 20.875 3.377 101
15.9922 20.875 4.0039 187
14.0469 18.3438 -0.2693 175
16.1562 21.0938 4.6758 136
4.8516 6.2890999999999995 -1.3936000000000002 58
5.5273 7.167999999999999 -1.374 38
21.0 27.2188 1.1982 50
6.3398 8.2188 -1.3291 160
20.9062 27.1094 1.9893 83
7.4922 9.7109 -1.2852000000000001 209
9.1406 11.851600000000001 -1.2187999999999999 41
16.6562 21.5781 2.8594 233
11.726600000000001 15.1953 -1.1143 136
16.0625 20.8281 3.3789 48
16.0781 20.8438 4.0078 45
14.1406 18.3281 -0.2698 28
16.2188 21.0156 4.6719 156
4.8867 6.2890999999999995 -1.3965 91
5.5586 7.1523 -1.375 56
21.1406 27.2031 1.2012 23
6.3711 8.1953 -1.3300999999999998 130
21.0625 27.0938 1.9941 91
7.5390999999999995 9.7031 -1.2871000000000001 168
20.8594 26.8438 2.7733999999999996 41
9.1875 11.8281 -1.2197 147
16.7812 21.6094 2.8711 62
11.7656 15.1406 -1.1133 18
16.2031 20.8438 3.3906 236
16.2812 20.9531 4.0391 204
14.2344 18.3125 -0.2703 17
16.2188 20.875 4.6523 148
4.9102 6.2734000000000005 -1.3975 152
14.4844 18.5 0.27390000000000003 255
5.5898 7.140599999999999 -1.376 212
21.3125 27.2188 1.2051 160
6.4140999999999995 8.1953 -1.3330000000000002 117
21.2031 27.0781 1.9980000000000002 90
7.582000000000001 9.6875 -1.2881 73
21.0 26.8281 2.7793 233
9.2422 11.8125 -1.2217 113
17.2344 22.0312 2.9355 214
11.851600000000001 15.1406 -1.1162 161
16.7344 21.3906 3.4882999999999997 75
16.5156 21.0938 4.0781 145
14.3281 18.2969 -0.271 23
16.2812 20.7969 4.6484 181
4.9414 6.269500000000001 -1.4003999999999999 158
14.585899999999999 18.5 0.2747 196
5.625 7.1328 -1.3788999999999998 147
21.4531 27.2188 1.208 125
6.4453 8.1719 -1.3330000000000002 146
21.3594 27.0781 2.0039 106
7.6211 9.6641 -1.2891 37
19.4844 24.7188 2.5664 153
9.2891 11.781199999999998 -1.2217 248
17.3438 22.0 2.9414 134
11.9531 15.164100000000001 -1.1211 42
16.8438 21.375 3.4961 136
16.5469 20.9844 4.0664 123
14.4219 18.2969 -0.27149999999999996 254
16.3281 20.7188 4.6445 211
4.9648 6.2539 -1.4013999999999998 92
5.644500000000001 7.109400000000001 -1.3779 200
21.6094 27.2031 1.2109 125
6.480499999999999 8.1641 -1.335 105
21.4844 27.0625 2.0078 19
7.671900000000001 9.6641 -1.2919999999999998 252
19.5156 24.5781 2.5605 159
9.3359 11.7578 -1.2227 61
17.4219 21.9375 2.9395 36
11.9844 15.093800000000002 -1.1181999999999999 169
16.9062 21.2969 3.4922000000000004 57
16.6406 20.9531 4.0742 247
14.5 18.2656 -0.2717 48
16.4062 20.6719 4.6445 124
4.9922 6.2422 -1.4022999999999999 251
5.6875 7.113300000000001 -1.3818000000000001 17
21.7344 27.1875 1.2139 116
6.511699999999999 8.1406 -1.3359 215
21.6406 27.0625 2.0137 36
7.7188 9.6562 -1.2949000000000002 99
19.625 24.5469 2.5645 41
9.3906 11.7422 -1.2246 30
17.5312 21.9375 2.9473000000000003 15
12.0703 15.101600000000001 -1.1220999999999999 175
17.0 21.2656 3.498 9
17.2188 21.5469 4.1992 24
14.593800000000002 18.25 -0.2725 22
16.4531 20.5781 4.6406 10
5.0156 6.230499999999999 -1.4033000000000002 224
5.7109000000000005 7.0938 -1.3818000000000001 181
21.9062 27.2188 1.2178 135
6.546900000000001 8.1328 -1.3378999999999999 120
21.7812 27.0469 2.0176 46
7.7578 9.6406 -1.2959 216
9.4219 11.7031 -1.2236 117
17.6094 21.875 2.9452999999999996 156
12.156199999999998 15.1094 -1.126 60
17.1094 21.25 3.5039 160
17.375 21.5938 4.2188 73
14.6719 18.2344 -0.2727 227
18.1875 22.5938 5.1055 194
5.043 6.2188 -1.4043 95
5.730499999999999 7.0664 -1.3809 54
22.0781 27.2344 1.2227 211
6.5938 8.1328 -1.3418 163
21.9062 27.0312 2.0215 60
7.8047 9.625 -1.2978999999999998 76
9.4922 11.710899999999999 -1.2275 56
17.7031 21.8281 2.9492000000000003 82
12.226600000000001 15.085899999999999 -1.127 5
17.1562 21.1719 3.5 233
17.5312 21.625 4.2383 128
14.781199999999998 18.2344 -0.2734 155
18.4062 22.7031 5.1484000000000005 212
5.0703 6.2109000000000005 -1.4062000000000001 188
5.761699999999999 7.0625 -1.3838 235
22.1719 27.1719 1.2227 50
6.6328 8.125 -1.3437999999999999 215
22.0625 27.0312 2.0273 72
7.8477 9.6172 -1.2997999999999998 40
9.5391 11.6875 -1.2285 55
17.75 21.75 2.9473000000000003 48
12.2578 15.023399999999999 -1.126 142
17.3281 21.2344 3.5195 12
17.5312 21.4844 4.2227 203
14.875 18.2188 -0.2742 58
18.7031 22.9219 5.207000000000001 63
5.1055 6.207000000000001 -1.4091999999999998 251
5.800800000000001 7.0547 -1.3866999999999998 52
22.2344 27.0312 1.2207 119
6.6640999999999995 8.1016 -1.3447 141
22.2188 27.0312 2.0332 8
7.8984000000000005 9.6016 -1.3018 255
9.6016 11.6797 -1.2314 90
17.8125 21.6562 2.9433999999999996 228
12.281199999999998 14.9375 -1.1220999999999999 23
17.3281 21.0625 3.5039 171
17.5625 21.3594 4.207 11
14.960899999999999 18.2031 -0.2747 106
18.8281 22.8906 5.2188 2
5.1211 6.1836 -1.4082 53
5.832000000000001 7.042999999999999 -1.3877000000000002 76
22.4062 27.0469 1.2246 235
6.6914 8.0781 -1.3447 249
22.375 27.0156 2.0391 140
7.949199999999999 9.6016 -1.3056999999999999 75
9.6484 11.656199999999998 -1.2324 94
17.9062 21.6094 2.9452999999999996 177
12.3281 14.8828 -1.1220999999999999 215
17.5781 21.2188 3.5391000000000004 189
17.625 21.2812 4.207 53
15.039100000000001 18.1719 -0.2749 19
20.4062 24.6406 5.6328 124
5.1484000000000005 6.175800000000001 -1.4102000000000001 250
5.8672 7.0352 -1.3906 165
22.5469 27.0469 1.2275 58
6.738300000000001 8.0781 -1.3477000000000001 113
22.5156 27.0 2.043 93
7.984400000000001 9.5703 -1.3056999999999999 97
22.3438 26.7969 2.8476999999999997 60
9.7031 11.6328 -1.2334 198
18.6406 22.3594 3.0547000000000004 200
12.375 14.843800000000002 -1.1220999999999999 230
17.6562 21.1562 3.5391000000000004 59
17.7188 21.25 4.2109 143
15.1406 18.1562 -0.2756 50
20.5312 24.625 5.644500000000001 25
5.1836 6.171900000000001 -1.4141 105
5.8984000000000005 7.0234000000000005 -1.3916 70
22.7031 27.0312 1.2305 125
6.7852 8.0781 -1.3516 75
22.6875 27.0 2.0488 38
8.0469 9.5781 -1.3096 234
20.4531 24.3438 2.5938 90
9.7578 11.6172 -1.2354 229
18.7656 22.3281 3.0605 18
12.4297 14.7969 -1.1220999999999999 201
18.1719 21.6406 3.6289 103
18.2344 21.7031 4.3164 12
15.2422 18.1562 -0.2764 146
5.203099999999999 6.1523 -1.4131 134
5.9140999999999995 6.9922 -1.3896000000000002 140
22.8906 27.0625 1.2363 201
6.828099999999999 8.0781 -1.3555000000000001 177
22.8281 27.0 2.0547 178
8.0781 9.5469 -1.3096 220
20.4531 24.1875 2.5839999999999996 179
9.7891 11.5703 -1.2344 9
18.4844 21.8594 3.0039 52
12.460899999999999 14.7344 -1.1201 201
18.3125 21.6562 3.6426 193
18.3125 21.6562 4.3164 208
15.335899999999999 18.1406 -0.27690000000000003 227
5.234400000000001 6.1484000000000005 -1.4169999999999998 232
5.9609000000000005 7.0039 -1.3965 160
23.0156 27.0469 1.2383 93
6.859400000000001 8.0547 -1.3555000000000001 84
23.0 27.0156 2.0605 220
8.1172 9.5391 -1.3115 206
18.9844 22.3125 2.3887 73
9.8359 11.5469 -1.2354 153
18.5312 21.7656 3.0 121
12.523399999999999 14.710899999999999 -1.1211 197
18.6406 21.8906 3.6933999999999996 16
18.4219 21.6406 4.3281 150
15.4219 18.1094 -0.2773 191
5.2539 6.1211 -1.415 43
5.9961 6.984400000000001 -1.3975 150
23.0156 26.8125 1.2324 134
6.8984000000000005 8.0391 -1.3574000000000002 34
23.1719 26.9844 2.0664 185
8.1719 9.5234 -1.3144999999999998 172
19.0938 22.25 2.3926 206
9.9062 11.539100000000001 -1.2383 67
19.7969 23.0625 3.1914 43
12.625 14.710899999999999 -1.125 165
19.8281 23.1094 3.9120999999999997 188
18.6719 21.75 4.3633 107
15.523399999999999 18.0938 -0.2778 173
5.2890999999999995 6.113300000000001 -1.4180000000000001 133
6.0352 6.980499999999999 -1.4003999999999999 183
23.1406 26.7656 1.2334 186
6.9453 8.0312 -1.3603999999999998 220
23.3281 26.9688 2.0723 230
8.2109 9.4922 -1.3144999999999998 221
19.1875 22.1875 2.3926 201
9.9453 11.5078 -1.2383 146
19.9688 23.0781 3.2031 8
12.7422 14.7344 -1.1309 157
20.2656 23.4375 3.9805 13
18.8594 21.8125 4.3906 8
15.6328 18.0781 -0.2786 241
20.6875 23.9375 5.5703 1
5.3125 6.1015999999999995 -1.4188999999999998 138
6.0586 6.9609000000000005 -1.4003999999999999 124
23.2969 26.7656 1.2373 146
6.988300000000001 8.0312 -1.3633000000000002 238
23.4844 26.9844 2.0781 188
8.2422 9.4688 -1.3144999999999998 130
19.2656 22.125 2.3926 64
10.0078 11.4922 -1.2412 158
19.3906 22.2812 3.0995999999999997 63
12.789100000000001 14.6875 -1.1309 130
18.625 21.3906 3.6426 92
18.875 21.6719 4.375 209
15.726600000000001 18.0625 -0.2793 254
20.8281 23.9219 5.5859000000000005 38
5.3438 6.0977 -1.4219 244
6.078099999999999 6.9297 -1.3994 227
23.4844 26.7812 1.2422 40
7.0234000000000005 8.0078 -1.3652000000000002 43
23.6562 26.9844 2.0859 121
8.2891 9.4609 -1.3174000000000001 107
19.4062 22.1406 2.4023 57
10.0469 11.460899999999999 -1.2412 200
19.4062 22.125 3.0879000000000003 122
12.8594 14.6719 -1.1328 162
18.7031 21.3438 3.6445 155
18.9062 21.5625 4.3672 90
15.8203 18.0469 -0.2798 249
5.375 6.0898 -1.4247999999999998 82
6.113300000000001 6.9297 -1.4022999999999999 30
23.8125 26.9844 1.2549 74
7.0586 8.0 -1.3672 212
23.8125 26.9844 2.0918 242
8.3438 9.4609 -1.3213 218
19.5781 22.1875 2.4141 104
10.1172 11.468800000000002 -1.2461 155
20.1719 22.875 3.2012 131
12.9219 14.648399999999999 -1.1338 206
18.7969 21.3125 3.6483999999999996 221
15.914100000000001 18.0469 -0.2805 250
5.3984000000000005 6.074199999999999 -1.4258000000000002 26
6.1484000000000005 6.921900000000001 -1.4053 232
23.9844 27.0 1.2588 40
7.0898 7.980499999999999 -1.3681999999999999 80
23.9688 26.9844 2.0977 136
8.3906 9.4453 -1.3232 238
19.5469 22.0 2.4004 168
10.1406 11.414100000000001 -1.2431999999999999 229
19.3906 21.8281 3.0645 252
12.968800000000002 14.601600000000001 -1.1338 171
19.1719 21.5938 3.7089999999999996 213
16.0 18.0156 -0.281 254
5.421900000000001 6.0586 -1.4258000000000002 131
6.1797 6.9062 -1.4072 32
24.1562 27.0 1.2637 178
7.1289 7.9648 -1.3691 118
24.125 26.9531 2.1016 141
8.4297 9.4219 -1.3241999999999998 112
19.6094 21.9219 2.3984 41
10.2344 11.4375 -1.25 203
19.5625 21.8594 3.0781 247
13.039100000000001 14.5703 -1.1348 116
16.1094 18.0 -0.2815 0
5.453099999999999 6.046900000000001 -1.4287 77
6.207000000000001 6.886699999999999 -1.4072 190
24.4531 27.1406 1.2734 172
7.1836 7.9688 -1.374 29
24.2969 26.9531 2.1094 79
8.4609 9.3906 -1.3241999999999998 32
19.7031 21.8438 2.3984 41
10.289100000000001 11.4219 -1.252 193
13.0781 14.5078 -1.1338 42
16.2031 17.9844 -0.2822 217
5.480499999999999 6.0390999999999995 -1.4306999999999999 109
16.4844 18.1719 0.2861 90
6.2227 6.859400000000001 -1.4053 19
24.625 27.1406 1.2773 206
7.2109000000000005 7.949199999999999 -1.375 160
24.4531 26.9531 2.1152 177
8.5078 9.375 -1.3262 139
19.8125 21.8281 2.4043 179
10.335899999999999 11.3906 -1.2529000000000001 114
13.148399999999999 14.4922 -1.1357 42
16.3125 17.9688 -0.28300000000000003 44
5.515599999999999 6.0352 -1.4346 109
16.5938 18.1562 0.2866 5
6.265599999999999 6.859400000000001 -1.4102000000000001 11
24.8281 27.1875 1.2841999999999998 253
7.25 7.9375 -1.3779 187
24.625 26.9688 2.123 51
8.5625 9.375 -1.3300999999999998 205
19.8125 21.6875 2.3965 236
10.3828 11.3672 -1.2539 79
13.210899999999999 14.468800000000002 -1.1377 120
16.4531 18.0 -0.8495999999999999 241
16.4062 17.9531 -0.2834 223
5.5312 6.015599999999999 -1.4336000000000002 228
16.7031 18.1719 0.2876 169
6.296900000000001 6.8438 -1.4121000000000001 62
25.0 27.1719 1.2871000000000001 254
7.292999999999999 7.925800000000001 -1.3799000000000001 68
24.7969 26.9688 2.1289 86
8.6094 9.3594 -1.3311000000000002 215
10.4531 11.3594 -1.2568000000000001 26
13.273399999999999 14.4297 -1.1377 173
16.5312 17.9688 -0.8506 57
16.5 17.9375 -0.2839 72
5.5625 6.0078 -1.4355000000000002 62
16.8438 18.1875 0.2888 55
6.3398 6.8438 -1.416 0
25.125 27.1406 1.29 137
7.332000000000001 7.917999999999999 -1.3828 254
24.9531 26.9531 2.1348 75
8.6562 9.3438 -1.334 156
10.5469 11.3906 -1.2646 119
13.3203 14.3906 -1.1387 73
16.6719 18.0 -0.8545 207
16.5938 17.9219 -0.2847 23
5.5859000000000005 5.988300000000001 -1.4365 114
6.363300000000001 6.8203 -1.416 152
7.3711 7.9023 -1.3847999999999998 214
22.0 23.5781 1.874 146
8.6953 9.3203 -1.335 135
10.601600000000001 11.3672 -1.2656 60
13.398399999999999 14.3672 -1.1406 134
16.7188 17.9219 -0.8545 186
16.7188 17.9219 -0.2859 53
5.6172 5.980499999999999 -1.4394999999999998 158
25.5156 27.1562 0.43479999999999996 170
6.390599999999999 6.800800000000001 -1.4169999999999998 230
25.5 27.1562 1.2988 10
7.4140999999999995 7.890599999999999 -1.3866999999999998 36
8.7344 9.2969 -1.3369 52
10.648399999999999 11.335899999999999 -1.2666 163
13.476600000000001 14.351600000000001 -1.1426 87
16.8281 17.9062 -0.2866 57
5.6484000000000005 5.9688 -1.4413999999999998 50
25.7188 27.1719 0.4365 41
6.4375 6.800800000000001 -1.4209 94
25.6719 27.125 1.3018 190
7.449199999999999 7.8711 -1.3887 10
25.5156 26.9531 2.1562 112
8.7812 9.2812 -1.3388999999999998 7
10.6953 11.2969 -1.2666 230
13.4922 14.2578 -1.1396 186
20.0 21.125 -1.0137 193
16.9531 17.9062 -0.2874 154
5.671900000000001 5.949199999999999 -1.4413999999999998 12
25.9219 27.2031 0.4385 5
6.480499999999999 6.796900000000001 -1.4258000000000002 229
25.8281 27.0938 1.3056999999999999 231
7.488300000000001 7.859400000000001 -1.3906 2
25.6562 26.9219 2.1602 117
8.8438 9.2812 -1.3428 13
10.7344 11.2656 -1.2676 76
13.5703 14.2422 -1.1416 138
17.0625 17.9062 -0.2883 169
5.6875 5.9297 -1.4413999999999998 244
26.0469 27.1562 0.43920000000000003 217
6.5078 6.7852 -1.4277000000000002 6
26.0 27.1094 1.3105000000000002 184
7.5273 7.8477 -1.3936000000000002 71
25.8438 26.9375 2.1699 194
8.875 9.25 -1.3428 54
10.7969 11.2578 -1.2705 156
13.648399999999999 14.226600000000001 -1.1445 31
5.7148 5.917999999999999 -1.4434 213
6.542999999999999 6.7773 -1.4297 158
26.1094 27.0469 1.3105000000000002 147
7.5859000000000005 7.855499999999999 -1.3994 238
26.0 26.9219 2.1758 201
8.9141 9.2266 -1.3437999999999999 96
10.851600000000001 11.2422 -1.2725 231
13.7344 14.226600000000001 -1.1484 131
20.3438 21.0625 -1.0205 88
5.75 5.9062 -1.4463 138
26.2812 27.0156 0.4399 231
6.5664 6.7461 -1.4287 137
26.2188 26.9375 1.3105000000000002 247
7.6211 7.832000000000001 -1.4003999999999999 230
26.1875 26.9062 2.1816 186
8.9688 9.2188 -1.3466999999999998 110
10.8906 11.1875 -1.2715 220
13.781199999999998 14.164100000000001 -1.1475 92
20.5312 21.1094 -1.0264 172
26.5156 27.0625 0.4421 166
6.605499999999999 6.738300000000001 -1.4325999999999999 251
26.375 26.9219 1.3144999999999998 82
7.6523 7.8086 -1.4013999999999998 104
26.3906 26.9219 2.1914 24
9.0156 9.2031 -1.3496000000000001 41
10.9531 11.1797 -1.2744 102
13.835899999999999 14.1172 -1.1475 12
20.6719 21.0938 -1.0293 52
6.6289 6.7188 -1.4325999999999999 180
26.5625 26.9219 1.3193000000000001 79
7.6953 7.796900000000001 -1.4033000000000002 16
26.5469 26.9062 2.1973 22
9.0781 9.1953 -1.3535 230
11.0156 11.164100000000001 -1.2773 225
13.8906 14.0703 -1.1475 42
20.8281 21.1094 -1.0332 158
26.8906 27.0625 0.4451 220
6.675800000000001 6.7148 -1.4375 193
26.7656 26.9375 1.3241999999999998 107
7.734400000000001 7.7852 -1.4062000000000001 148
26.7188 26.8906 2.2031 210
9.1094 9.1641 -1.3535 94
11.039100000000001 11.1094 -1.2754 255
13.9844 14.0781 -1.1523 65
21.0469 21.1719 -1.04 70
21.125 21.25 -0.3494 17
27.0781 27.0625 0.4468 141
6.7188 6.7148 -1.4413999999999998 155
26.8906 26.8906 1.3262 80
7.7773 7.7734000000000005 -1.4091999999999998 28
26.9219 26.9062 2.2109 249
9.1484 9.1484 -1.3544999999999998 205
11.1172 11.1172 -1.2803 119
14.031199999999998 14.031199999999998 -1.1523 70
21.2188 21.2188 -0.35009999999999997 117
6.730499999999999 6.6836 -1.4404 25
26.8125 26.625 1.3174000000000001 75
7.8164 7.761699999999999 -1.4121000000000001 193
27.0781 26.8906 2.2188 244
9.2031 9.1406 -1.3584 242
11.1797 11.101600000000001 -1.2832 131
14.1406 14.039100000000001 -1.1562000000000001 161
64.5625 64.125 11.6953 109
21.3281 21.1719 -1.0479 206
21.2656 21.1094 -0.3494 128
6.7734000000000005 6.675800000000001 -1.4434 29
26.9531 26.5625 1.3193000000000001 89
7.863300000000001 7.75 -1.415 120
27.2969 26.9062 2.2266 66
9.2422 9.1172 -1.3603999999999998 28
11.210899999999999 11.0469 -1.2822 85
14.2344 14.031199999999998 -1.1602 131
65.0625 64.125 11.75 7
21.2969 20.9844 -0.3489 37
27.6406 27.0625 0.4514 56
6.8125 6.667999999999999 -1.4472999999999998 59
27.1406 26.5625 1.3241999999999998 75
7.894500000000001 7.7265999999999995 -1.415 88
27.4688 26.8906 2.2344 15
9.3047 9.1094 -1.3633000000000002 234
11.273399999999999 11.039100000000001 -1.2852000000000001 67
14.2578 13.960899999999999 -1.1582 45
27.7656 27.0 0.4521 49
27.3281 26.5781 1.3291 8
7.9414 7.7227 -1.4188999999999998 100
27.625 26.875 2.2402 154
9.3281 9.0703 -1.3633000000000002 19
11.3203 11.0078 -1.2861000000000002 180
14.3203 13.9219 -1.1592 128
27.5156 26.5781 1.334 23
7.9727 7.699199999999999 -1.4199000000000002 40
27.8438 26.8906 2.25 6
9.3828 9.0625 -1.3662 33
11.3828 11.0 -1.2891 245
14.398399999999999 13.914100000000001 -1.1621 172
28.0469 26.8906 1.3555000000000001 104
8.0156 7.6875 -1.4238 212
28.0312 26.875 2.2559 216
9.4375 9.0469 -1.3691 192
11.4219 10.9531 -1.2891 222
14.4844 13.8828 -1.165 198
28.4531 27.0938 0.4585 175
30.375 28.9219 1.4628999999999999 1
8.0547 7.667999999999999 -1.4247999999999998 206
28.2344 26.875 2.2656 251
9.4922 9.0312 -1.3721 23
11.4922 10.9453 -1.2930000000000001 197
14.5625 13.8672 -1.167 181
28.5938 27.0469 0.4595 193
28.6094 27.0469 1.3730000000000002 176
8.0938 7.6562 -1.4277000000000002 177
28.4062 26.875 2.2734 18
9.5312 9.0156 -1.374 235
11.5469 10.914100000000001 -1.2938999999999998 119
14.6094 13.8125 -1.167 207
30.375 28.5469 0.4866 105
28.7812 27.0312 1.3769999999999998 88
8.1406 7.644500000000001 -1.4306999999999999 224
28.6094 26.875 2.2812 9
9.5703 8.9844 -1.375 137
11.601600000000001 10.898399999999999 -1.2959 201
14.6875 13.7969 -1.1699 190
30.3594 28.3125 0.48460000000000003 179
28.9688 27.0156 1.3818000000000001 202
8.1719 7.6211 -1.4316 174
28.7969 26.8594 2.2891 73
9.6172 8.9688 -1.3769999999999998 139
11.6719 10.8828 -1.2997999999999998 178
14.75 13.75 -1.1709 150
0.6313 0.585 -0.1444 60
30.3594 28.125 0.4832 113
29.1562 27.0 1.3857 10
8.2344 7.6211 -1.4375 176
28.9844 26.8438 2.2949 143
9.6562 8.9375 -1.3779 124
27.7344 25.6719 3.0839999999999996 104
11.6953 10.835899999999999 -1.2988 48
14.8125 13.718800000000002 -1.1719 218
22.9219 21.2344 -1.0898 236
22.9844 21.2812 -0.3655 223
0.5928 0.5454 -0.1346 67
30.3906 27.9375 0.4819 42
29.3438 26.9844 1.3906 152
8.2578 7.5938 -1.4375 214
29.2031 26.8438 2.3047 23
9.7031 8.9219 -1.3809 139
11.726600000000001 10.781199999999998 -1.2978999999999998 27
14.875 13.6797 -1.1729 86
58.2812 53.5938 10.1797 166
23.0156 21.1719 -1.0908 59
23.2031 21.3281 -0.3677 216
0.6182 0.5645 -0.14029999999999998 237
30.375 27.7344 0.48 96
29.5312 26.9688 1.3944999999999999 140
8.2969 7.574199999999999 -1.4394999999999998 244
29.375 26.8281 2.3125 223
9.7422 8.8984 -1.3828 119
27.7344 25.3281 3.0645 157
11.7969 10.773399999999999 -1.3018 220
14.9375 13.6406 -1.1748 146
58.5938 53.5 10.2031 179
23.1406 21.1406 -1.0928 220
0.5557 0.5044 -0.1249 244
29.75 26.9844 1.4013999999999998 196
8.3359 7.5586 -1.4413999999999998 17
27.7188 25.1406 2.1758 8
9.7812 8.875 -1.3838 241
27.8594 25.2812 3.0702999999999996 177
11.8594 10.7578 -1.3037 67
15.023399999999999 13.625 -1.1777 29
23.3438 21.1719 -1.0986 201
30.2656 27.4531 -0.4771 197
0.6015999999999999 0.542 -0.1354 82
0.667 0.6011 -0.1304 253
30.2969 27.2969 1.4228999999999998 48
8.3828 7.550800000000001 -1.4453 208
27.9219 25.1562 2.1855 38
9.8125 8.8438 -1.3838 55
28.0938 25.3125 3.0858999999999996 87
11.898399999999999 10.726600000000001 -1.3047 54
15.0781 13.585899999999999 -1.1777 70
0.5918 0.5293 -0.1326 221
30.1719 26.9844 0.47240000000000004 135
30.1562 26.9688 1.4111000000000002 175
27.5938 24.6719 2.1504 220
9.875 8.8281 -1.3877000000000002 143
28.1562 25.1719 3.082 66
11.9453 10.6797 -1.3047 244
15.1719 13.5625 -1.1816 106
30.1406 26.9531 -0.4719 44
0.5996 0.5322 -0.13390000000000002 188
0.6714 0.5962 -0.1304 65
30.2188 26.8281 1.4091999999999998 254
27.7188 24.6094 2.1543 162
9.9219 8.8125 -1.3906 72
12.0078 10.656199999999998 -1.3075999999999999 107
28.6875 25.4688 4.0273 27
15.2344 13.531199999999998 -1.1826 251
30.3438 26.9375 -0.4736 207
0.5893999999999999 0.52 -0.13119999999999998 248
30.4375 26.8438 1.415 225
27.7812 24.5156 2.1523 48
9.9609 8.7891 -1.3916 168
28.0938 24.7812 3.0566000000000004 148
12.0625 10.6406 -1.3096 29
15.281199999999998 13.4844 -1.1826 105
0.5645 0.4946 -0.1249 200
27.7344 24.3125 2.1426 33
9.9922 8.7578 -1.3925999999999998 172
28.2031 24.7188 3.0605 140
12.093800000000002 10.601600000000001 -1.3096 63
15.351600000000001 13.4531 -1.1855 70
0.6108 0.5312 -0.1354 248
29.3906 25.5625 1.3584 125
10.0391 8.7266 -1.3936000000000002 0
28.5938 24.8594 3.0918 45
12.1406 10.5547 -1.3105000000000002 223
15.4375 13.4219 -1.1875 113
31.6094 27.4844 -0.489 242
0.6006 0.5186 -0.1326 49
31.7344 27.4062 0.48950000000000005 83
29.4688 25.4531 1.3574000000000002 230
27.9844 24.1562 2.1484 75
10.0859 8.7031 -1.3955000000000002 141
28.8281 24.9062 3.1074 149
12.1797 10.5156 -1.3105000000000002 205
15.523399999999999 13.406199999999998 -1.1904000000000001 178
0.5996 0.5142 -0.1318 145
31.3125 26.8594 1.4385 185
27.7656 23.8125 2.125 187
10.1484 8.7031 -1.4003999999999999 29
27.2656 23.3906 2.9297000000000004 191
12.210899999999999 10.476600000000001 -1.3105000000000002 121
15.593800000000002 13.375 -1.1924 98
0.5893999999999999 0.502 -0.129 156
0.6831 0.5820000000000001 -0.1304 27
28.7188 24.4688 1.3154 204
27.7656 23.6562 2.1191 149
10.1797 8.6719 -1.4013999999999998 24
28.875 24.6094 3.0957 166
12.2578 10.4453 -1.3115 220
15.6406 13.3281 -1.1924 81
0.564 0.4768 -0.1229 197
31.8281 26.9062 0.4863 216
28.875 24.4062 1.3184 218
28.125 23.7656 2.1406 78
10.2266 8.6484 -1.4033000000000002 103
28.9844 24.5 3.0957 66
12.3203 10.414100000000001 -1.3135 155
15.718800000000002 13.289100000000001 -1.1943000000000001 45
0.6138 0.5156000000000001 -0.13390000000000002 224
29.0781 24.4062 1.3241999999999998 90
28.4531 23.8906 2.1582 152
10.289100000000001 8.6328 -1.4072 108
28.9688 24.3125 3.0858999999999996 164
12.3672 10.3828 -1.3154 226
15.789100000000001 13.2578 -1.1973 42
0.6187 0.5161 -0.1346 158
0.6895 0.5747 -0.1304 154
30.4531 25.3906 1.3828 71
27.7812 23.1719 2.1016 178
10.3281 8.6094 -1.4082 143
12.4375 10.375 -1.3193000000000001 74
28.6719 23.9219 3.9199 130
15.8672 13.2344 -1.1992 243
0.6235 0.5166 -0.1354 60
29.1875 24.1875 1.3222999999999998 129
27.75 23.0 2.0938 221
10.3906 8.6094 -1.4141 192
12.5078 10.3672 -1.3232 48
28.75 23.8125 3.918 35
15.9297 13.1953 -1.2012 47
25.6094 21.2188 -0.38789999999999997 223
0.5903 0.4851 -0.1273 154
0.6934 0.5698 -0.1304 189
29.0781 23.8906 1.3125 33
27.9688 22.9688 2.1035 227
10.4375 8.5781 -1.415 207
29.7969 24.4844 3.1464999999999996 214
12.5547 10.3203 -1.3232 65
29.125 23.9219 3.957 173
16.0312 13.1797 -1.2051 214
25.6562 21.0938 -0.3875 18
0.6167 0.5029 -0.1329 153
29.2344 23.8438 0.44020000000000004 142
0.6958 0.5674 -0.1304 102
30.8438 25.1562 1.3887 166
28.0781 22.8906 2.1055 167
10.476600000000001 8.5469 -1.416 231
28.4844 23.2344 3.0 118
12.6328 10.3047 -1.3281 99
28.8438 23.5312 3.9082 132
16.0938 13.125 -1.2061 139
25.7031 20.9688 -0.387 90
0.5908 0.47850000000000004 -0.1267 6
29.5469 23.9219 0.4436 83
0.6973 0.5649000000000001 -0.1304 9
28.1875 22.8281 2.1074 177
10.523399999999999 8.5234 -1.4180000000000001 121
28.5312 23.125 2.9961 64
12.6875 10.281199999999998 -1.3300999999999998 41
16.1562 13.085899999999999 -1.207 235
25.8125 20.9062 -0.3875 76
0.6323 0.5088 -0.13570000000000002 131
0.6992 0.5625 -0.1304 34
28.5156 22.9375 2.127 191
10.5625 8.5 -1.4209 235
28.4688 22.8906 2.9805 231
12.7422 10.25 -1.3319999999999999 253
30.0 24.125 4.043 210
16.2188 13.039100000000001 -1.208 31
25.9375 20.8594 -0.3884 113
0.6064 0.4844 -0.1294 171
0.7012 0.5600999999999999 -0.1304 76
28.7031 22.9219 2.1348 166
10.6172 8.4766 -1.4238 157
29.3125 23.4219 3.0605 245
12.789100000000001 10.2188 -1.3330000000000002 239
30.0156 23.9844 4.0352 18
16.3281 13.039100000000001 -1.2129 59
26.0938 20.8438 -0.3896 190
0.6108 0.4849 -0.1301 241
29.6562 23.5312 0.44189999999999996 243
0.7031000000000001 0.5581 -0.1304 231
28.7031 22.7656 2.1289 196
10.656199999999998 8.4609 -1.4258000000000002 84
29.2656 23.2188 3.0469 240
12.843800000000002 10.1875 -1.335 159
16.3906 13.0078 -1.2148 206
26.25 20.8281 -0.3909 248
0.6001 0.4729 -0.1273 238
0.7051000000000001 0.5557 -0.1304 12
29.8906 23.5469 1.3271000000000002 236
28.8594 22.7344 2.1348 87
10.7031 8.4297 -1.4268 105
29.4062 23.1719 3.0547000000000004 182
12.898399999999999 10.1562 -1.3369 19
16.4531 12.960899999999999 -1.2158 171
26.4219 20.8125 -0.3926 215
0.5957 0.4661 -0.126 91
0.7070000000000001 0.5532 -0.1304 189
29.7344 23.2656 1.3163999999999998 5
28.625 22.3906 2.1113 17
10.75 8.4141 -1.4297 64
29.3281 22.9531 3.0391000000000004 29
12.960899999999999 10.1406 -1.3397999999999999 101
29.6719 23.2188 3.9551 131
16.5312 12.9375 -1.2187999999999999 243
26.5938 20.8125 -0.39399999999999996 243
0.6347999999999999 0.4927 -0.1343 201
0.7090000000000001 0.5503 -0.1304 14
30.0938 23.3594 1.3281 145
28.9531 22.4688 2.1289 152
10.7969 8.3828 -1.4325999999999999 136
29.2188 22.6719 3.0176 120
13.0156 10.1094 -1.3428 242
29.7812 23.1094 3.957 242
16.625 12.906199999999998 -1.2217 164
26.7969 20.8125 -0.396 55
0.627 0.48340000000000005 -0.1322 44
0.7109000000000001 0.5478999999999999 -0.1304 51
31.2656 24.0938 1.3769999999999998 52
29.2188 22.5156 2.1426 61
10.8594 8.3672 -1.4355000000000002 177
29.5469 22.7656 3.043 22
13.0625 10.0703 -1.3437999999999999 54
29.7188 22.9062 3.9395 255
16.7344 12.898399999999999 -1.2266 74
26.9688 20.7812 -0.3972 20
0.6225999999999999 0.47659999999999997 -0.1309 9
0.7129000000000001 0.5454 -0.1304 207
31.25 23.9219 1.3721 148
29.1875 22.3438 2.1367 177
10.906199999999998 8.3438 -1.4385 3
29.6094 22.6719 3.043 21
13.1406 10.0547 -1.3477000000000001 252
29.5938 22.6562 3.9120999999999997 59
16.8125 12.8672 -1.2295 113
27.1406 20.7812 -0.39890000000000003 231
0.624 0.4744 -0.1309 205
0.7148 0.5429999999999999 -0.1304 251
31.2969 23.7969 1.3711000000000002 41
28.3281 21.5312 2.0684 39
10.9531 8.3203 -1.4413999999999998 3
29.9844 22.7969 3.0742000000000003 213
13.2031 10.0312 -1.3506 120
29.5781 22.4844 3.9004000000000003 206
16.875 12.8281 -1.2305 30
27.3438 20.7812 -0.4006 112
0.6133 0.46259999999999996 -0.1281 196
0.7168000000000001 0.5405 -0.1304 64
35.3438 26.6719 1.5449000000000002 151
29.5781 22.3125 2.1523 126
11.0 8.2969 -1.4434 1
30.0156 22.6406 3.0683999999999996 95
13.2656 10.0078 -1.3535 25
29.7656 22.4531 3.9141000000000004 148
16.9375 12.781199999999998 -1.2324 73
27.5156 20.7656 -0.4021 234
0.6147 0.4604 -0.1281 215
0.6709 0.5024000000000001 -0.1213 93
35.5938 26.6562 1.5518 168
29.4531 22.0625 2.1387 197
11.0469 8.2734 -1.4453 162
29.9688 22.4531 3.0547000000000004 26
13.2969 9.9609 -1.3535 248
29.7344 22.2656 3.8983999999999996 50
17.0781 12.7969 -1.2393 237
27.7031 20.75 -0.40380000000000005 87
0.6225999999999999 0.4631 -0.1294 254
0.6884999999999999 0.5122 -0.1243 60
35.8438 26.6562 1.5586000000000002 179
30.2031 22.4531 2.1875 144
13.351600000000001 9.9297 -1.3555000000000001 138
29.8594 22.2031 3.9062 84
17.1562 12.7578 -1.2412 244
27.9219 20.7656 -0.406 172
0.6211 0.4585 -0.1288 251
0.6840999999999999 0.5049 -0.1232 15
36.1562 26.6719 1.5663999999999998 99
30.3125 22.375 2.1895 120
13.414100000000001 9.8984 -1.3584 84
30.0156 22.1562 3.9160000000000004 186
17.2188 12.7031 -1.2422 164
28.0938 20.7344 -0.4075 218
0.6323 0.46340000000000003 -0.1309 250
0.6792 0.4978 -0.1219 251
36.4062 26.6875 1.5752000000000002 232
30.5156 22.3594 2.1992 255
29.2344 21.4219 2.957 111
13.4922 9.8906 -1.3633000000000002 241
29.9219 21.9375 3.8945 92
17.3125 12.6953 -1.2461 150
28.3125 20.75 -0.4094 231
0.6372 0.4636 -0.1315 43
0.6748000000000001 0.491 -0.1207 32
36.6562 26.6875 1.5819999999999999 180
30.3594 22.0938 2.1816 169
29.2969 21.3281 2.957 161
13.5469 9.8594 -1.3652000000000002 202
29.9844 21.8281 3.8945 161
17.375 12.648399999999999 -1.248 125
28.5156 20.75 -0.41159999999999997 94
0.6420999999999999 0.46340000000000003 -0.1322 201
0.6557999999999999 0.47340000000000004 -0.1168 32
36.875 26.625 1.5859 122
30.9375 22.3438 2.2188 191
29.4062 21.2344 2.9589999999999996 120
13.5703 9.7969 -1.3633000000000002 236
30.3906 21.9375 3.9355 243
17.4844 12.625 -1.252 250
28.7031 20.7188 -0.4131 196
0.6436 0.4612 -0.1322 176
0.6698999999999999 0.4802 -0.1192 254
37.125 26.6094 1.5937999999999999 178
31.25 22.3906 2.2344 52
29.4219 21.0938 2.9531 29
13.648399999999999 9.7812 -1.3681999999999999 208
30.4688 21.8438 3.9355 204
17.5781 12.601600000000001 -1.2559 226
28.9375 20.7344 -0.4153 125
0.6420999999999999 0.4568 -0.1315 109
0.6587000000000001 0.469 -0.1168 203
37.4062 26.625 1.6016 53
31.5312 22.4375 2.25 48
29.4844 20.9844 2.9531 229
13.7031 9.75 -1.3700999999999999 94
30.5625 21.75 3.9375 83
17.6406 12.5625 -1.2578 118
29.1094 20.7188 -0.41700000000000004 226
0.6338 0.44799999999999995 -0.1294 167
31.6562 22.375 2.252 16
30.8125 21.7812 3.0781 183
13.789100000000001 9.7422 -1.376 77
30.6406 21.6562 3.9395 85
17.7344 12.531199999999998 -1.2607 252
29.3594 20.75 -0.41969999999999996 128
0.6323 0.4434 -0.1288 161
38.0 26.6406 1.6191 19
31.7969 22.2969 2.2559 249
31.1406 21.8438 3.1035000000000004 70
13.8047 9.6797 -1.374 156
17.8281 12.5 -1.2646 141
29.5469 20.7188 -0.4211 82
0.6533 0.4546 -0.1329 112
38.25 26.625 1.625 95
43.3125 30.1406 3.0683999999999996 182
31.3281 21.8125 3.1151999999999997 96
13.8906 9.6641 -1.3788999999999998 58
17.8906 12.4531 -1.2656 114
29.8438 20.7656 -0.4243 100
0.6611 0.4568 -0.1343 93
38.5625 26.6406 1.6347999999999998 156
43.3438 29.9375 3.0625 219
31.25 21.5938 3.0976999999999997 207
13.960899999999999 9.6484 -1.3828 247
18.0156 12.4453 -1.2715 197
30.0312 20.75 -0.426 223
0.6401 0.439 -0.1294 55
38.8125 26.625 1.6425999999999998 105
43.3125 29.6875 3.0526999999999997 145
14.0156 9.6094 -1.3847999999999998 177
18.125 12.4297 -1.2764 107
30.25 20.7344 -0.428 172
39.0938 26.5938 1.6494 94
43.2812 29.4688 3.0449 243
14.0625 9.5703 -1.3866999999999998 62
18.1875 12.375 -1.2773 161
31.5938 21.5 -0.446 249
39.5 26.6875 0.5566 137
39.3438 26.5781 1.6562000000000001 1
43.2812 29.2344 3.0370999999999997 91
14.1328 9.5469 -1.3896000000000002 203
18.2812 12.343800000000002 -1.2803 152
31.6094 21.3438 -0.4451 225
39.6562 26.5938 1.666 120
43.25 29.0 3.0273000000000003 95
14.2031 9.5234 -1.3936000000000002 122
18.3906 12.3281 -1.2861000000000002 185
31.6094 21.1875 -0.44409999999999994 153
43.3125 28.8125 3.0233999999999996 233
14.2656 9.4922 -1.3965 242
18.5156 12.3203 -1.291 152
31.6094 21.0312 -0.44310000000000005 252
40.2812 26.6094 1.6836000000000002 6
43.25 28.5781 3.0137 83
14.3203 9.4609 -1.3984 103
18.5469 12.25 -1.29 133
31.5938 20.875 -0.44189999999999996 144
40.5312 26.5938 1.6913999999999998 200
43.25 28.375 3.0077999999999996 111
