# .PCD v0.7 - Point Cloud Data file format
VERSION 0.7
FIELDS x y z intensity
SIZE 4 4 4 4
TYPE F F F F
COUNT 1 1 1 1
WIDTH 1309
HEIGHT 1
VIEWPOINT 0 0 0 1 0 0 0
POINTS 1309
DATA ascii
13.9531 3.752 -0.8379000000000001 92
13.648399999999999 3.668 -0.4917 217
13.710899999999999 3.6875 -0.16519999999999999 252
14.125 3.7461 -0.8477 19
13.656199999999998 3.6211 -0.4917 46
13.7344 3.6406 -0.1653 225
13.7344 3.5898000000000003 -0.4939 83
13.8047 3.6074 -0.1659 42
13.8203 3.5605 -0.4966 108
25.3125 6.25 -0.9087000000000001 61
25.3125 6.25 -0.304 182
25.3281 6.1602 0.304 7
25.2969 6.1523 0.9072 254
25.3438 6.1640999999999995 1.5146000000000002 186
25.3125 6.1562 2.125 101
25.3281 6.1602 2.7344 115
25.3281 6.1602 3.3476999999999997 151
25.3125 6.1562 -0.9077 69
25.2969 6.1523 3.9629000000000003 27
25.2656 6.1484000000000005 -0.3032 214
25.2969 6.1523 4.5859 171
25.2969 6.0664 0.3035 81
25.2812 6.0625 0.9062 93
25.2812 6.0625 1.5097999999999998 37
25.2969 6.0664 2.1211 74
25.2812 6.0586 2.7285000000000004 114
25.2656 6.0586 3.3379000000000003 80
25.3594 6.078099999999999 -0.9087000000000001 201
25.2969 6.0625 3.9608999999999996 2
25.3125 6.0664 -0.3035 59
25.2812 6.0586 4.5781 106
25.375 5.984400000000001 0.304 101
25.3125 5.9727 0.9067000000000001 185
25.3125 5.9688 1.5107 90
12.6875 2.9922000000000004 -1.3652000000000002 213
25.3125 5.9727 2.1211 142
25.3281 5.9727 2.7305 219
25.2969 5.9648 3.3379000000000003 69
25.3281 5.9765999999999995 3.9629000000000003 98
25.4375 6.0 -0.30469999999999997 153
25.3438 5.9765999999999995 4.582 221
25.4375 5.9062 0.9102 46
25.4219 5.9023 1.5166 25
12.6797 2.9452999999999996 -1.3643 36
25.3906 5.894500000000001 2.127 109
12.6797 2.9452999999999996 -1.0595999999999999 143
12.6172 2.9276999999999997 1.3563999999999998 225
12.6797 2.9452999999999996 -0.7548999999999999 85
12.5703 2.918 1.6543 86
12.656199999999998 2.9395 -0.4521 128
12.6406 2.9355 -0.1509 61
12.6875 2.9004000000000003 0.1512 34
12.6875 2.9004000000000003 -1.3633000000000002 187
12.6719 2.8983999999999996 -1.0586 134
12.6094 2.8827999999999996 1.3555000000000001 214
12.6875 2.9023000000000003 -0.7544 138
12.585899999999999 2.877 1.6553 187
12.6875 2.9004000000000003 -0.4526 4
12.6719 2.8983999999999996 -0.15109999999999998 118
12.6953 2.8594 0.1512 105
12.6797 2.8535000000000004 0.45189999999999997 94
12.6797 2.8535000000000004 0.7534000000000001 6
12.6875 2.8574 -1.3622999999999998 130
12.6719 2.8535000000000004 1.0576 146
12.6719 2.8535000000000004 -1.0576 172
12.593800000000002 2.8358999999999996 1.3525 248
12.664100000000001 2.8516000000000004 -0.7524 125
12.585899999999999 2.8339999999999996 1.6543 143
12.6875 2.8574 -0.4524 216
12.656199999999998 2.8495999999999997 -0.1509 132
12.6797 2.8026999999999997 0.151 77
12.6797 2.8007999999999997 0.4517 80
12.6719 2.8007999999999997 0.7524 30
12.6797 2.8026999999999997 -1.3603999999999998 200
12.6875 2.8047000000000004 1.0576 247
12.6797 2.8007999999999997 -1.0566 84
12.6094 2.7851999999999997 1.3525 165
12.664100000000001 2.7969 -0.752 27
12.5781 2.7793 1.6513999999999998 9
12.6953 2.8047000000000004 -0.4521 14
12.6719 2.8007999999999997 1.9727000000000001 11
12.664100000000001 2.7969 -0.1508 230
12.656199999999998 2.7969 2.2773 228
12.664100000000001 2.75 0.1506 131
12.6797 2.7539 0.4514 200
12.6719 2.752 0.752 182
12.6797 2.7539 -1.3594 249
12.6797 2.7539 1.0566 91
12.6797 2.752 -1.0556999999999999 214
12.6172 2.7382999999999997 1.3525 231
12.656199999999998 2.748 -0.7509999999999999 185
12.5703 2.7285000000000004 1.6484 133
12.6797 2.7539 -0.4514 203
12.664100000000001 2.75 1.9697 21
12.664100000000001 2.75 -0.1506 152
12.648399999999999 2.7461 2.2754 232
12.664100000000001 2.707 0.1506 205
12.6797 2.7089999999999996 0.4509 248
12.6719 2.707 0.7515000000000001 80
12.6719 2.707 -1.3574000000000002 162
12.6719 2.707 1.0547 163
12.664100000000001 2.7051 -1.0547 110
12.6094 2.6952999999999996 1.3506 37
12.664100000000001 2.7051 -0.7509999999999999 125
12.5703 2.6855 1.6484 1
12.6719 2.707 -0.4507 79
12.656199999999998 2.7031 1.9668 81
12.6797 2.7089999999999996 -0.1506 184
12.664100000000001 2.7051 2.2754 46
12.6875 2.6641000000000004 0.1508 96
12.664100000000001 2.6601999999999997 0.45020000000000004 136
12.6875 2.6641000000000004 0.7515000000000001 228
12.6875 2.6641000000000004 -1.3584 114
12.6719 2.6601999999999997 1.0537 253
12.6406 2.6543 -1.0518 137
12.6094 2.6483999999999996 1.3496000000000001 174
12.664100000000001 2.6582 -0.75 166
12.5781 2.6406 1.6475 155
12.6719 2.6601999999999997 -0.45039999999999997 237
12.656199999999998 2.6562 1.9647999999999999 95
12.664100000000001 2.6601999999999997 -0.1505 140
12.664100000000001 2.6601999999999997 2.2754 130
12.6797 2.6211 0.1505 180
12.664100000000001 2.6172000000000004 0.4497 255
12.6719 2.6191000000000004 0.75 95
12.6875 2.623 -1.3574000000000002 156
12.6797 2.6211 1.0537 235
12.656199999999998 2.6172000000000004 -1.0527 137
12.593800000000002 2.6035000000000004 1.3466999999999998 141
12.664100000000001 2.6172000000000004 -0.7495 191
12.5781 2.5995999999999997 1.6465 197
12.6797 2.6211 -0.45039999999999997 141
12.648399999999999 2.6151999999999997 1.9638999999999998 243
12.656199999999998 2.6172000000000004 -0.1503 40
12.648399999999999 2.6151999999999997 2.2695 79
12.6719 2.5762 0.1503 14
12.6797 2.5781 0.45020000000000004 90
12.664100000000001 2.5742000000000003 0.7490000000000001 77
12.6797 2.5781 -1.3555000000000001 211
12.6797 2.5781 1.0537 42
12.664100000000001 2.5742000000000003 -1.0527 34
12.593800000000002 2.5605 1.3466999999999998 102
12.648399999999999 2.5702999999999996 -0.7484999999999999 221
12.5625 2.5547 1.6436000000000002 89
12.6875 2.5801 -0.45039999999999997 72
12.648399999999999 2.5723000000000003 1.9619 21
12.664100000000001 2.5742000000000003 -0.1501 140
12.6406 2.5683999999999996 2.2676 51
12.6719 2.5254 0.1501 122
12.6719 2.5254 0.4495 169
12.6719 2.5254 0.7490000000000001 91
12.6719 2.5254 -1.3535 196
12.6719 2.5254 1.0518 233
12.6719 2.5254 -1.0518 201
12.6094 2.5137 1.3466999999999998 174
12.656199999999998 2.5215 -0.748 240
12.5625 2.5039 1.6425999999999998 89
12.6719 2.5254 -0.4495 195
12.664100000000001 2.5234 1.9619 237
12.6719 2.5254 -0.1501 231
12.648399999999999 2.5195 2.2656 221
12.664100000000001 2.4785 0.15 227
12.664100000000001 2.4785 0.449 6
12.6719 2.4805 0.7484999999999999 70
12.6797 2.4805 -1.3535 198
12.656199999999998 2.4766 1.0498 71
12.664100000000001 2.4785 -1.0508 162
12.601600000000001 2.4648 1.3447 0
12.664100000000001 2.4785 -0.748 204
12.5625 2.457 1.6406 145
12.664100000000001 2.4785 -0.4487 203
12.656199999999998 2.4766 1.96 82
12.6797 2.4805 -0.1501 176
12.656199999999998 2.4746 2.2656 23
12.6797 2.4375 0.15 82
12.664100000000001 2.4336 0.4485 44
12.6719 2.4355 0.748 239
12.6797 2.4375 -1.3525 113
12.664100000000001 2.4336 1.0498 224
12.664100000000001 2.4336 -1.0498 206
12.593800000000002 2.4219 1.3437999999999999 102
12.664100000000001 2.4336 -0.7476 204
12.5703 2.416 1.6416 24
12.664100000000001 2.4336 -0.4485 143
12.6406 2.4297 1.9569999999999999 136
12.648399999999999 2.4316 -0.14980000000000002 138
12.648399999999999 2.4316 2.2637 43
12.6797 2.3926 0.15 228
12.656199999999998 2.3887 0.44799999999999995 237
12.6719 2.3926 0.7476 204
12.6719 2.3926 -1.3506 244
12.664100000000001 2.3906 1.0498 194
12.664100000000001 2.3906 -1.0498 105
12.593800000000002 2.3789 1.3428 190
12.664100000000001 2.3906 -0.7471 21
12.5625 2.3711 1.6396000000000002 153
12.6719 2.3906 -0.4485 120
12.648399999999999 2.3867 1.9561000000000002 140
12.648399999999999 2.3867 -0.1497 52
12.648399999999999 2.3867 2.2617 35
12.656199999999998 2.3398 0.1497 192
12.6719 2.3418 0.4482 134
12.656199999999998 2.3398 0.7465999999999999 134
12.6797 2.3418 -1.3506 39
12.6719 2.3418 1.0488 39
12.6719 2.3418 -1.0488 34
12.585899999999999 2.3262 1.3408000000000002 156
12.656199999999998 2.3379 -0.7461 172
12.5625 2.3223 1.6387 8
12.6797 2.3438 -0.4485 31
12.656199999999998 2.3379 1.9561000000000002 228
12.656199999999998 2.3379 -0.1495 141
12.6328 2.3359 2.2578 10
12.656199999999998 2.293 0.1495 206
12.6719 2.2949 0.44780000000000003 65
12.6719 2.2969 0.7465999999999999 225
12.664100000000001 2.2949 -1.3486000000000002 90
12.656199999999998 2.293 1.0469 159
12.6719 2.2969 -1.0488 237
12.593800000000002 2.2812 1.3397999999999999 11
12.656199999999998 2.293 -0.7456 153
12.5547 2.2754 1.6357 16
12.664100000000001 2.2949 -0.44780000000000003 83
12.656199999999998 2.293 1.9550999999999998 95
12.664100000000001 2.2949 -0.1495 89
12.6406 2.291 2.2578 29
12.664100000000001 2.252 0.1495 82
12.664100000000001 2.252 0.4473 175
12.664100000000001 2.252 0.7461 148
12.664100000000001 2.252 -1.3477000000000001 154
12.648399999999999 2.248 1.0459 61
12.664100000000001 2.252 -1.0469 77
12.593800000000002 2.2383 1.3397999999999999 254
12.664100000000001 2.25 -0.7456 12
12.5547 2.2324 1.6347999999999998 222
12.664100000000001 2.252 -0.4475 75
12.6406 2.248 1.9512 177
12.656199999999998 2.25 -0.1494 181
12.6406 2.2461 2.2559 162
12.6719 2.209 0.1495 133
12.648399999999999 2.2051 0.4465 87
12.6719 2.209 0.7456 129
12.6719 2.209 -1.3466999999999998 28
12.648399999999999 2.2051 1.0449 50
12.656199999999998 2.207 -1.0459 214
12.5781 2.1934 1.3378999999999999 37
12.664100000000001 2.209 -0.7456 191
12.5625 2.1895 1.6347999999999998 247
12.656199999999998 2.207 -0.4468 74
12.6406 2.2031 1.9491999999999998 128
12.6406 2.2051 -0.1492 82
12.656199999999998 2.207 2.2578 193
12.664100000000001 2.1582 0.1493 250
12.656199999999998 2.1562 0.4465 129
12.664100000000001 2.1582 0.7451000000000001 237
12.6719 2.1602 -1.3466999999999998 78
12.656199999999998 2.1562 1.0449 203
12.664100000000001 2.1582 -1.0459 146
12.593800000000002 2.1465 1.3378999999999999 33
12.656199999999998 2.1562 -0.7441 213
12.5625 2.1406 1.6338 132
12.6797 2.1602 -0.4473 213
12.648399999999999 2.1562 1.9502000000000002 189
12.6406 2.1523 -0.149 4
12.648399999999999 2.1543 2.2539 140
12.664100000000001 2.1133 0.1493 26
12.656199999999998 2.1113 0.44630000000000003 95
12.656199999999998 2.1113 0.7437 125
12.664100000000001 2.1133 -1.3447 26
12.664100000000001 2.1113 1.0449 202
12.664100000000001 2.1133 -1.0449 28
12.585899999999999 2.0996 1.3369 105
12.648399999999999 2.1094 -0.7437 30
12.5547 2.0938 1.6318000000000001 224
12.6719 2.1133 -0.4468 75
12.648399999999999 2.1094 1.9482 254
12.6406 2.1094 -0.1489 35
12.6328 2.1074 2.25 113
12.664100000000001 2.0703 0.1492 49
12.664100000000001 2.0684 0.44630000000000003 73
12.656199999999998 2.0684 0.7432 177
12.648399999999999 2.0664 -1.3428 192
12.656199999999998 2.0684 1.0439 229
12.664100000000001 2.0684 -1.0439 93
12.585899999999999 2.0566 1.3359 201
12.648399999999999 2.0664 -0.7432 179
12.539100000000001 2.0488 1.6288999999999998 51
12.664100000000001 2.0684 -0.44630000000000003 73
12.648399999999999 2.0664 1.9472999999999998 11
12.648399999999999 2.0664 -0.1489 227
12.6406 2.0645 2.25 84
12.656199999999998 2.0254 0.1489 80
12.656199999999998 2.0254 0.4458 245
12.664100000000001 2.0254 0.7432 106
12.656199999999998 2.0254 -1.3428 118
12.648399999999999 2.0234 1.043 149
12.664100000000001 2.0254 -1.0439 201
12.593800000000002 2.0156 1.3359 16
12.656199999999998 2.0254 -0.7432 255
12.5547 2.0098 1.6309 18
12.664100000000001 2.0254 -0.446 190
12.648399999999999 2.0234 1.9463 169
12.648399999999999 2.0234 -0.1489 152
12.625 2.0195 2.248 111
12.656199999999998 1.9794999999999998 0.1489 213
12.6406 1.9775 0.4451 136
12.664100000000001 1.9805000000000001 0.7426999999999999 241
12.664100000000001 1.9805000000000001 -1.3428 32
12.648399999999999 1.9785 1.042 225
12.648399999999999 1.9785 -1.042 189
12.585899999999999 1.9687999999999999 1.335 68
12.664100000000001 1.9813999999999998 -0.7432 77
12.5625 1.9647999999999999 1.6309 8
12.656199999999998 1.9794999999999998 -0.4456 232
12.625 1.9746000000000001 1.9424000000000001 154
12.6328 1.9766 -0.1487 248
12.648399999999999 1.9785 2.25 76
12.6719 1.9385 0.1489 21
12.6406 1.9346 0.4448 164
12.656199999999998 1.9375 0.7426999999999999 129
12.6719 1.9385 -1.3428 251
12.664100000000001 1.9375 1.043 4
12.656199999999998 1.9365 -1.042 82
12.5703 1.9228999999999998 1.3319999999999999 121
12.6328 1.9336000000000002 -0.7412000000000001 54
12.5547 1.9219 1.6288999999999998 23
12.664100000000001 1.9375 -0.4456 25
12.6406 1.9346 1.9434 212
12.6328 1.9325999999999999 -0.14859999999999998 161
12.625 1.9316 2.2441 184
12.656199999999998 1.8887 0.1487 75
12.6406 1.8877000000000002 0.4446 159
12.648399999999999 1.8877000000000002 0.7412000000000001 192
12.656199999999998 1.8896000000000002 -1.3408000000000002 206
12.664100000000001 1.8896000000000002 1.042 194
12.664100000000001 1.8896000000000002 -1.042 221
12.5781 1.8779 1.3319999999999999 11
12.648399999999999 1.8877000000000002 -0.7412000000000001 20
12.5547 1.874 1.6269999999999998 8
12.6797 1.8925999999999998 -0.4458 49
12.648399999999999 1.8877000000000002 1.9434 77
12.6406 1.8877000000000002 -0.14859999999999998 14
12.625 1.8847999999999998 2.2441 255
12.648399999999999 1.8428 0.14859999999999998 195
12.648399999999999 1.8428 0.4443 73
12.656199999999998 1.8437999999999999 0.7417 16
12.648399999999999 1.8437999999999999 -1.3388999999999998 102
12.656199999999998 1.8447 1.041 212
12.656199999999998 1.8447 -1.041 142
12.585899999999999 1.834 1.3319999999999999 202
12.6406 1.8408000000000002 -0.7402 206
12.5625 1.8300999999999998 1.6269999999999998 228
12.648399999999999 1.8437999999999999 -0.4446 239
12.648399999999999 1.8437999999999999 1.9434 124
12.648399999999999 1.8428 -0.14859999999999998 83
12.6172 1.8378999999999999 2.2402 186
12.648399999999999 1.7978999999999998 0.14859999999999998 237
12.6406 1.7969 0.44409999999999994 152
12.656199999999998 1.7988 0.7406999999999999 94
12.648399999999999 1.7978999999999998 -1.3388999999999998 147
12.648399999999999 1.7978999999999998 1.04 156
12.648399999999999 1.7988 -1.04 153
12.585899999999999 1.7891 1.3319999999999999 14
12.6406 1.7969 -0.7402 56
12.5547 1.7841999999999998 1.626 86
12.6719 1.8008000000000002 -0.4451 133
12.625 1.7949000000000002 1.9385 15
12.648399999999999 1.7988 -0.14859999999999998 22
12.6328 1.7959 2.2422 254
12.648399999999999 1.7529 0.1484 187
12.6406 1.751 0.44380000000000003 41
12.656199999999998 1.7538999999999998 0.7406999999999999 147
12.664100000000001 1.7549000000000001 -1.3397999999999999 78
12.656199999999998 1.7538999999999998 1.04 128
12.6406 1.7519999999999998 -1.0391 109
12.5625 1.7412 1.3281 182
12.648399999999999 1.7529 -0.7402 5
12.5625 1.7412 1.626 129
12.664100000000001 1.7549000000000001 -0.4446 10
12.625 1.749 1.9365 184
12.6406 1.7519999999999998 -0.1483 181
12.625 1.75 2.2402 58
12.656199999999998 1.7119 0.1484 29
12.6406 1.709 0.44380000000000003 192
12.648399999999999 1.71 0.7402 146
12.664100000000001 1.7119 -1.3388999999999998 91
12.656199999999998 1.7109 1.0391 234
12.648399999999999 1.71 -1.0391 122
12.5625 1.6991999999999998 1.3281 9
12.6328 1.7080000000000002 -0.7387999999999999 18
12.5625 1.6982 1.625 170
12.664100000000001 1.7119 -0.4443 63
12.625 1.7069999999999999 1.9365 68
12.6406 1.709 -0.1482 196
12.6328 1.7080000000000002 2.2402 84
12.648399999999999 1.6680000000000001 0.1483 151
12.648399999999999 1.6669999999999998 0.4436 137
12.6406 1.666 0.7393000000000001 31
12.648399999999999 1.6680000000000001 -1.3369 64
12.664100000000001 1.6688999999999998 1.04 18
12.648399999999999 1.6680000000000001 -1.0391 215
12.5625 1.6562000000000001 1.3271000000000002 2
12.625 1.6641 -0.7383 150
12.5547 1.6553 1.6230000000000002 116
12.648399999999999 1.6680000000000001 -0.44380000000000003 202
12.625 1.665 1.9355000000000002 44
12.6328 1.666 -0.1482 37
12.6328 1.665 2.2383 163
12.6406 1.6172 0.1482 232
12.648399999999999 1.6181999999999999 0.4436 160
12.6406 1.6172 0.7387999999999999 173
12.648399999999999 1.6181999999999999 -1.3359 108
12.648399999999999 1.6181999999999999 1.0381 106
12.648399999999999 1.6181999999999999 -1.0381 77
12.5781 1.6094 1.3281 255
12.6328 1.6152000000000002 -0.7383 20
12.539100000000001 1.6035 1.6200999999999999 72
12.664100000000001 1.6200999999999999 -0.44409999999999994 145
12.6406 1.6162 1.9365 199
12.648399999999999 1.6181999999999999 -0.1482 16
12.625 1.6152000000000002 2.2383 223
12.648399999999999 1.5732 0.1481 32
12.648399999999999 1.5732 0.4434 190
12.656199999999998 1.5741999999999998 0.7393000000000001 156
12.656199999999998 1.5741999999999998 -1.3359 58
12.6406 1.5722999999999998 1.0371 205
12.6406 1.5722999999999998 -1.0371 147
12.5625 1.5625 1.3262 214
12.6406 1.5722999999999998 -0.7383 252
12.5547 1.5615 1.6221 221
12.6406 1.5713 -0.4429 73
12.6328 1.5713 1.9346 236
12.6406 1.5722999999999998 -0.1481 222
12.6172 1.5693000000000001 2.2344 13
12.656199999999998 1.5322 0.1482 2
12.6406 1.5293 0.4429 82
12.648399999999999 1.5312000000000001 0.7387999999999999 199
12.656199999999998 1.5322 -1.3359 155
12.6406 1.5303 1.0371 192
12.6406 1.5293 -1.0361 155
12.5625 1.5194999999999999 1.3252000000000002 100
12.6406 1.5303 -0.7383 231
12.5547 1.5194999999999999 1.6211000000000002 183
12.648399999999999 1.5303 -0.44310000000000005 147
12.6094 1.5263999999999998 1.9306999999999999 238
12.6328 1.5293 -0.1479 77
12.625 1.5272999999999999 2.2344 28
12.656199999999998 1.4883000000000002 0.1481 74
12.6406 1.4872999999999998 0.4429 60
12.648399999999999 1.4883000000000002 0.7383 78
12.664100000000001 1.4893 -1.3359 188
12.6406 1.4872999999999998 1.0361 95
12.6328 1.4863 -1.0352 167
12.5469 1.4766 1.3232 166
12.6406 1.4872999999999998 -0.7378 246
12.5547 1.4775 1.6211000000000002 224
12.648399999999999 1.4883000000000002 -0.44310000000000005 53
12.6328 1.4863 1.9325999999999999 39
12.6328 1.4863 -0.1478 152
12.6328 1.4863 2.2363 84
12.6406 1.4404 0.1478 160
12.648399999999999 1.4404 0.4426 90
12.625 1.4385 0.7368000000000001 253
12.648399999999999 1.4413999999999998 -1.334 46
12.648399999999999 1.4413999999999998 1.0361 229
12.6328 1.4394999999999998 -1.0352 139
12.5547 1.4306999999999999 1.3232 24
12.6328 1.4394999999999998 -0.7373000000000001 44
12.5469 1.4297 1.6191 119
12.664100000000001 1.4424000000000001 -0.44310000000000005 139
12.625 1.4385 1.9306999999999999 125
12.6328 1.4394999999999998 -0.1478 10
12.6172 1.4375 2.2324 126
12.6328 1.3955000000000002 0.1478 63
12.656199999999998 1.3965 0.4429 81
12.6406 1.3955000000000002 0.7373000000000001 238
12.656199999999998 1.3975 -1.334 85
12.648399999999999 1.3965 1.0361 103
12.6406 1.3955000000000002 -1.0352 48
12.5547 1.3866999999999998 1.3232 202
12.6328 1.3944999999999999 -0.7368000000000001 87
12.539100000000001 1.3838 1.6172 198
12.656199999999998 1.3965 -0.4429 107
12.625 1.3944999999999999 1.9306999999999999 255
12.6406 1.3955000000000002 -0.1478 253
12.6406 1.3506 0.1478 57
12.6328 1.3506 0.44189999999999996 206
12.6406 1.3516 0.7373000000000001 129
12.6406 1.3506 -1.3311000000000002 86
12.625 1.3496000000000001 1.0342 47
12.6328 1.3496000000000001 -1.0342 223
12.5625 1.3418 1.3232 195
12.6406 1.3506 -0.7368000000000001 70
12.5469 1.3408000000000002 1.6181999999999999 39
12.6328 1.3506 -0.44189999999999996 138
12.6328 1.3496000000000001 1.9306999999999999 165
12.6406 1.3516 -0.1478 104
8.3359 0.8906000000000001 1.4707 21
12.648399999999999 1.3066 0.1478 117
12.625 1.3047 0.4414 240
12.648399999999999 1.3066 0.7373000000000001 44
12.664100000000001 1.3086000000000002 -1.334 94
12.6328 1.3056999999999999 1.0342 243
12.6328 1.3056999999999999 -1.0342 240
12.5547 1.2978999999999998 1.3222999999999998 188
12.6328 1.3056999999999999 -0.7363 72
12.5469 1.2969 1.6172 0
12.6406 1.3056999999999999 -0.44189999999999996 198
12.6328 1.3056999999999999 1.9306999999999999 72
12.6328 1.3056999999999999 -0.1476 28
8.0781 0.835 1.4247999999999998 119
12.648399999999999 1.2627 0.1477 34
12.6328 1.2607 0.4414 163
12.6406 1.2617 0.7363 1
12.664100000000001 1.2637 -1.3330000000000002 20
12.648399999999999 1.2617 1.0342 46
12.6328 1.2607 -1.0332 28
12.5469 1.2529000000000001 1.3213 12
12.6328 1.2607 -0.7358 22
12.5547 1.2529000000000001 1.6172 215
12.6406 1.2617 -0.44189999999999996 113
12.625 1.2607 1.9287 4
12.625 1.2598 -0.1475 32
8.1094 0.8090999999999999 1.4297 160
12.6328 1.2158 0.1475 31
12.6328 1.2168 0.4414 230
12.625 1.2158 0.7354 198
12.648399999999999 1.2178 -1.3311000000000002 159
12.6406 1.2178 1.0342 31
12.6328 1.2168 -1.0332 16
12.5469 1.208 1.3203 127
12.6172 1.2148 -0.7349 210
12.5469 1.208 1.6162 47
12.6406 1.2178 -0.44189999999999996 113
12.625 1.2158 -0.1475 180
8.1719 0.7870999999999999 1.4404 219
12.6406 1.1719 0.1475 100
12.6406 1.1729 0.44170000000000004 167
12.6328 1.1719 0.7354 35
12.6406 1.1729 -1.3300999999999998 215
12.6328 1.1719 1.0322 231
12.6406 1.1729 -1.0332 122
12.5547 1.1641 1.3203 95
12.6328 1.1719 -0.7354 224
12.5469 1.1641 1.6152000000000002 166
12.6406 1.1729 -0.4414 29
9.0547 0.8403 1.3799000000000001 232
12.6328 1.1719 -0.1475 130
8.1953 0.7603 1.4443000000000001 54
12.6328 1.1279000000000001 0.1475 34
12.6328 1.1279000000000001 0.4412 234
12.6406 1.1289 0.7358 8
12.6406 1.1289 -1.3300999999999998 243
12.625 1.127 1.0322 16
12.6328 1.127 -1.0322 16
12.5547 1.1211 1.3203 79
12.6328 1.1279000000000001 -0.7354 193
12.5469 1.1191 1.6143 162
12.6328 1.127 -0.4412 173
9.0469 0.8070999999999999 1.3779 74
12.6172 1.126 -0.1472 169
8.0 0.7139 1.4091999999999998 29
12.648399999999999 1.085 0.1476 78
12.625 1.083 0.4407 50
12.6328 1.083 0.7354 205
12.648399999999999 1.084 -1.3291 130
12.6328 1.083 1.0322 235
12.6328 1.083 -1.0322 132
12.5547 1.0762 1.3203 165
12.648399999999999 1.084 -0.7358 195
12.5625 1.0771 1.6162 22
12.6406 1.084 -0.4414 102
8.0703 0.6919 1.2285 187
12.625 1.082 -0.1472 179
7.9727 0.6836 1.4033000000000002 108
12.648399999999999 1.04 0.1475 203
12.6328 1.0391 0.4409 73
12.625 1.0381 0.7343999999999999 110
12.648399999999999 1.04 -1.3300999999999998 187
12.6328 1.0391 1.0322 208
12.6328 1.0381 -1.0312000000000001 53
12.5469 1.0312000000000001 1.3184 155
12.625 1.0381 -0.7343999999999999 219
9.0234 0.7422 1.1592 222
12.6406 1.0391 -0.4412 50
8.0625 0.6626000000000001 1.2266 13
12.6094 1.0371 -0.1471 73
7.957000000000001 0.6543000000000001 1.4003999999999999 139
12.6406 0.9951000000000001 0.14730000000000001 6
12.6406 0.9945999999999999 0.4409 211
12.6172 0.9932 0.7339 146
12.6328 0.9941 -1.3271000000000002 15
12.6328 0.9941 1.0312000000000001 219
12.6406 0.9945999999999999 -1.0322 135
12.5547 0.9878 1.3184 80
12.625 0.9932 -0.7339 6
9.0234 0.71 1.1592 46
12.656199999999998 0.9961 -0.4414 166
8.0703 0.6347999999999999 1.2275 94
12.6172 0.9932 -0.1471 209
7.9727 0.6274000000000001 1.4022999999999999 146
12.6328 0.9497 0.1472 174
12.648399999999999 0.9506999999999999 0.4412 104
12.625 0.9492 0.7339 171
12.625 0.9492 -1.3262 27
12.625 0.9492 1.0303 73
12.6406 0.9506999999999999 -1.0322 217
9.0234 0.6781999999999999 0.9462999999999999 54
12.625 0.9492 -0.7339 210
9.0078 0.6772 1.1562000000000001 179
12.6406 0.9506999999999999 -0.4409 227
12.7344 0.9575 1.9404 192
12.6172 0.9487000000000001 -0.1471 151
8.1172 0.6103999999999999 1.4277000000000002 7
12.625 0.9092 0.1471 201
12.6328 0.9097 0.4404 101
12.6406 0.9106000000000001 0.7349 220
12.6328 0.9097 -1.3262 252
12.6172 0.9087000000000001 1.0293 102
12.6328 0.9102 -1.0312000000000001 79
9.0078 0.6489 0.9448000000000001 106
12.6328 0.9097 -0.7343999999999999 215
8.9922 0.6479 1.1543 188
12.6328 0.9097 -0.4404 74
12.710899999999999 0.9159999999999999 1.9375 3
12.625 0.9092 -0.1471 246
8.0234 0.5781000000000001 1.4121000000000001 21
12.648399999999999 0.8687 0.14730000000000001 50
12.6172 0.8667 0.4399 104
12.6406 0.8682 0.7343999999999999 0
12.6328 0.8682 -1.3271000000000002 47
12.625 0.8672 1.0303 18
12.6172 0.8672 -1.0293 194
8.9922 0.6182 0.9429000000000001 85
12.6328 0.8676999999999999 -0.7339 20
9.0234 0.6201 1.1582 150
12.6328 0.8682 -0.4404 63
9.1328 0.6274000000000001 1.3896000000000002 173
12.6172 0.8667 -0.147 235
7.9297 0.5449 1.3936000000000002 24
12.6406 0.8223 0.14730000000000001 67
12.625 0.8208 0.4399 77
12.6328 0.8218000000000001 0.7339 60
12.6406 0.8218000000000001 -1.3262 148
8.9609 0.5825 0.7295 158
12.6328 0.8212999999999999 -1.0303 150
8.9688 0.5835 0.9404 1
12.6172 0.8203 -0.7329000000000001 156
12.6953 0.8251999999999999 1.6309 126
12.6406 0.8223 -0.4407 24
12.7422 0.8286 1.9413999999999998 151
12.6094 0.8198000000000001 -0.1469 165
7.9023 0.5136999999999999 1.3887 130
12.6328 0.7773 0.1471 63
12.6328 0.7768999999999999 0.44020000000000004 240
12.625 0.7764 0.7329000000000001 221
12.6328 0.7773 -1.3262 198
8.9375 0.5498 0.7275 9
12.625 0.7768999999999999 -1.0293 80
9.0 0.5537 0.9434 208
12.6094 0.7759 -0.7323999999999999 188
12.6953 0.7807999999999999 1.6309 111
12.6406 0.7773 -0.4404 255
12.718800000000002 0.7822 1.9365 203
12.601600000000001 0.7754000000000001 -0.1467 205
7.894500000000001 0.48560000000000003 1.3877000000000002 81
12.6172 0.7295 0.1469 248
12.6328 0.7304999999999999 0.4399 109
12.6328 0.7304999999999999 0.7334 223
12.6172 0.73 -1.3241999999999998 25
8.9141 0.5156000000000001 0.7261 25
12.6406 0.731 -1.0303 176
12.5547 0.7261 1.3174000000000001 137
12.625 0.73 -0.7329000000000001 202
12.6875 0.7339 1.6288999999999998 202
12.6328 0.7304999999999999 -0.4399 95
9.2109 0.5327000000000001 1.4003999999999999 91
12.6172 0.73 -0.1469 157
8.3594 0.4836 1.4697 77
12.625 0.6859999999999999 0.147 209
12.6172 0.6855 0.4395 85
12.6328 0.6865000000000001 0.7334 170
12.6172 0.6855 -1.3232 236
8.9062 0.4839 0.7245999999999999 209
12.6328 0.6865000000000001 -1.0293 26
12.5547 0.6820999999999999 1.3174000000000001 101
12.625 0.6859999999999999 -0.7329000000000001 145
12.6875 0.6895 1.6288999999999998 221
12.6172 0.6855 -0.4395 124
12.710899999999999 0.6909000000000001 1.9355000000000002 7
12.6172 0.6855 -0.1469 152
8.5625 0.4653 1.5049000000000001 21
12.6172 0.6436 0.1469 103
12.6094 0.6431 0.439 190
12.6328 0.644 0.7329000000000001 183
12.625 0.644 -1.3241999999999998 14
8.9219 0.4548 0.7256 29
12.625 0.6436 -1.0283 29
12.5547 0.6401 1.3163999999999998 39
12.625 0.644 -0.7329000000000001 78
12.6953 0.6475 1.6299000000000001 215
12.6328 0.6445000000000001 -0.4399 186
12.7031 0.6479 1.9336000000000002 212
12.601600000000001 0.6431 -0.1467 217
8.6172 0.4395 1.5137 74
12.625 0.6021 0.147 159
12.6172 0.6015999999999999 0.4395 180
12.625 0.6021 0.7329000000000001 104
12.6328 0.6025 -1.3252000000000002 61
12.6328 0.6025 1.0293 223
12.625 0.6021 -1.0283 221
12.539100000000001 0.5977 1.3144999999999998 225
12.6094 0.6011 -0.7319 177
12.6953 0.6054999999999999 1.6299000000000001 171
12.6328 0.6025 -0.4399 126
8.8125 0.4202 1.3388999999999998 49
12.601600000000001 0.6011 -0.1467 164
8.6094 0.4104 1.5116999999999998 143
12.625 0.5557 0.1469 194
12.6172 0.5552 0.43920000000000003 166
12.6172 0.5557 0.7323999999999999 22
12.6172 0.5552 -1.3232 21
12.625 0.5557 1.0293 75
12.6328 0.5562 -1.0293 206
12.5469 0.5522 1.3154 165
12.601600000000001 0.5547 -0.7314 67
12.6875 0.5586 1.6279 43
12.6328 0.5562 -0.4397 38
8.8047 0.38770000000000004 1.3378999999999999 54
12.601600000000001 0.5547 -0.1466 101
8.6484 0.38060000000000005 1.5186000000000002 123
12.6172 0.5112 0.1467 238
12.625 0.5117 0.4395 194
8.9062 0.3608 0.5161 213
12.6172 0.5112 -1.3222999999999998 152
12.6172 0.5112 1.0273 71
12.6328 0.5117 -1.0293 224
12.5469 0.5083 1.3154 17
12.6094 0.5107 -0.7314 170
12.6875 0.5142 1.6279 170
12.625 0.5117 -0.4395 129
8.8203 0.3574 1.3397999999999999 89
12.601600000000001 0.5107 -0.1466 162
8.6719 0.35159999999999997 1.5234 117
12.6094 0.4668 0.1466 12
12.6094 0.4668 0.4387 224
8.9062 0.3296 0.5161 35
12.6172 0.467 -1.3222999999999998 55
12.6172 0.4668 1.0273 160
12.625 0.4673 -1.0283 200
12.5547 0.4648 1.3163999999999998 54
12.6172 0.4673 -0.7319 78
12.6953 0.47 1.6279 220
12.6172 0.467 -0.43920000000000003 228
8.8281 0.32689999999999997 1.3408000000000002 166
12.601600000000001 0.46659999999999996 -0.1466 187
8.9219 0.3301 1.5663999999999998 170
12.625 0.42310000000000003 0.1467 114
12.601600000000001 0.4224 0.4385 58
8.8984 0.2983 0.5156000000000001 192
12.625 0.42310000000000003 -1.3222999999999998 9
12.6172 0.42310000000000003 1.0283 159
12.6094 0.4229 -1.0273 146
12.539100000000001 0.4204 1.3144999999999998 16
12.625 0.42310000000000003 -0.7319 171
12.6953 0.4255 1.6279 207
12.625 0.42310000000000003 -0.43920000000000003 227
8.8516 0.2969 1.3437999999999999 5
12.601600000000001 0.4224 -0.1465 107
8.8438 0.2966 1.5537 53
12.625 0.38130000000000003 0.1469 155
12.601600000000001 0.38060000000000005 0.4385 4
8.8984 0.2686 0.5151 244
12.625 0.38130000000000003 -1.3222999999999998 80
12.6172 0.3811 1.0273 150
12.625 0.38130000000000003 -1.0283 122
12.531199999999998 0.3787 1.3135 109
12.6094 0.3809 -0.7314 122
8.9688 0.271 1.1494 180
12.6328 0.38159999999999994 -0.4395 254
8.9219 0.2695 1.3544999999999998 100
12.585899999999999 0.3801 -0.1464 101
8.8281 0.2668 1.5508000000000002 245
12.6172 0.3394 0.1467 137
12.6172 0.33909999999999996 0.4387 36
8.875 0.2386 0.5142 158
12.6172 0.33909999999999996 -1.3222999999999998 52
12.625 0.3396 1.0283 105
12.6094 0.33909999999999996 -1.0264 249
12.531199999999998 0.3369 1.3135 241
12.593800000000002 0.3386 -0.7304999999999999 14
8.9375 0.2402 1.1445 143
12.625 0.3394 -0.43920000000000003 185
8.9922 0.2418 1.3652000000000002 124
12.593800000000002 0.3386 -0.1464 107
8.8203 0.2372 1.5488 3
12.6172 0.293 0.1467 110
12.6094 0.2927 0.4387 211
8.8828 0.20620000000000002 0.5142 213
12.601600000000001 0.2927 -1.3203 18
12.6172 0.293 1.0273 166
12.6172 0.293 -1.0273 92
12.5469 0.2913 1.3144999999999998 18
12.6094 0.2927 -0.731 78
8.9219 0.2072 1.1426 102
12.6172 0.293 -0.439 97
9.3516 0.217 1.4199000000000002 227
12.601600000000001 0.2925 -0.1465 148
9.6484 0.22399999999999998 1.6943000000000001 205
12.601600000000001 0.2487 0.1465 23
12.6094 0.2487 0.4385 151
8.8984 0.1754 0.5151 205
12.6094 0.2488 -1.3213 253
12.6094 0.2488 1.0264 127
12.6094 0.2487 -1.0264 234
12.539100000000001 0.2473 1.3135 125
12.6172 0.2489 -0.7314 253
8.9141 0.17579999999999998 1.1416 219
12.6094 0.2488 -0.4387 160
9.4766 0.187 1.4394999999999998 85
12.601600000000001 0.24850000000000003 -0.1465 240
9.2266 0.182 1.6200999999999999 225
12.6328 0.205 0.1469 9
12.601600000000001 0.2046 0.4382 93
8.9141 0.1448 0.5161 1
12.6094 0.2047 -1.3213 194
12.6094 0.2047 1.0264 171
12.601600000000001 0.2046 -1.0264 253
8.9609 0.14550000000000002 0.9375 234
12.601600000000001 0.2046 -0.731 66
8.9375 0.145 1.1436 185
12.6094 0.2047 -0.4387 175
9.4922 0.15410000000000001 1.4404 153
12.593800000000002 0.2043 -0.1464 208
9.1875 0.1492 1.6133000000000002 82
12.6172 0.16079999999999997 0.1466 223
12.601600000000001 0.1606 0.4382 254
8.9062 0.11349999999999999 0.5156000000000001 248
12.6172 0.16079999999999997 -1.3213 138
12.6094 0.1606 -1.0264 207
8.9219 0.11359999999999999 0.9331 228
12.601600000000001 0.1606 -0.7304999999999999 30
8.9531 0.114 1.1455 103
12.625 0.1609 -0.43920000000000003 172
9.4453 0.1204 1.4336000000000002 13
12.585899999999999 0.1604 -0.1462 23
9.3203 0.11869999999999999 1.6357 253
12.6094 0.1166 0.1466 172
8.9297 0.08259999999999999 0.3098 106
8.8906 0.0823 0.5146000000000001 228
12.6094 0.1166 -1.3203 30
8.9453 0.0827 0.7265999999999999 89
12.6172 0.1167 -1.0264 234
8.9141 0.0825 0.9326000000000001 195
12.585899999999999 0.1165 -0.73 110
8.9297 0.08259999999999999 1.1436 113
12.6328 0.1168 -0.43920000000000003 74
9.4453 0.0874 1.4346 40
12.601600000000001 0.1166 -0.1465 147
9.1328 0.08449999999999999 1.6025 187
8.9531 0.0516 0.1038 4
8.8672 0.051100000000000007 -1.3457 247
8.9062 0.0513 0.3091 224
8.8828 0.0512 -1.1377 199
8.8906 0.0512 0.5146000000000001 117
8.8984 0.0512 -0.9301999999999999 67
8.9219 0.051399999999999994 0.7251000000000001 93
8.9297 0.051500000000000004 -0.7261 103
8.8984 0.0513 0.9312 172
8.9297 0.051399999999999994 -0.5166 125
8.9375 0.051500000000000004 1.1436 100
8.9297 0.051399999999999994 -0.3098 30
9.0234 0.052000000000000005 1.3700999999999999 248
8.9141 0.0513 -0.1033 188
8.8203 0.0508 1.5478999999999998 216
8.9219 0.0202 0.10339999999999999 145
8.8281 0.02 -1.3397999999999999 22
8.8828 0.0202 0.30829999999999996 69
8.875 0.020099999999999996 -1.1357 187
8.9062 0.0202 0.5156000000000001 23
8.875 0.020099999999999996 -0.9281999999999999 216
8.9219 0.0202 0.7251000000000001 108
8.9141 0.0202 -0.7241 176
8.9062 0.0202 0.9316 42
8.9062 0.0202 -0.5151 69
8.9219 0.0202 1.1416 148
8.8906 0.0202 -0.3086 195
8.9844 0.0204 1.3633000000000002 46
8.8984 0.0202 -0.10310000000000001 118
8.7734 0.0199 1.5391 70
8.9062 -0.0109 0.1033 254
8.7969 -0.010700000000000001 -1.335 130
8.8594 -0.0108 0.30760000000000004 26
8.8359 -0.0108 -1.1309 151
8.9219 -0.0109 0.5166 212
8.8594 -0.0108 -0.9268000000000001 62
8.9141 -0.0109 0.7245999999999999 222
8.8828 -0.0108 -0.7217 15
8.9297 -0.0109 0.9340999999999999 157
8.8906 -0.0109 -0.5146000000000001 31
8.9141 -0.0109 1.1416 82
8.8828 -0.0109 -0.30829999999999996 119
8.9297 -0.0109 1.3555000000000001 57
8.8984 -0.0109 -0.10310000000000001 216
8.7656 -0.010700000000000001 1.5391 22
8.9219 -0.0421 0.1035 42
8.7891 -0.0414 -1.334 72
8.8906 -0.04190000000000001 0.3086 223
8.8125 -0.0415 -1.1279000000000001 45
8.9219 -0.042 0.5161 182
8.8438 -0.0417 -0.9253 195
8.9375 -0.0421 0.7261 202
8.8672 -0.0418 -0.7206999999999999 171
8.9375 -0.0421 0.9346 16
8.8672 -0.0418 -0.5136999999999999 248
8.9297 -0.0421 1.1426 4
8.8984 -0.04190000000000001 -0.30879999999999996 46
8.9297 -0.0421 1.3555000000000001 33
8.8828 -0.04190000000000001 -0.10300000000000001 14
8.9531 -0.042199999999999994 1.5713 166
8.9219 -0.0732 0.1035 239
8.7969 -0.0721 -1.335 41
8.9141 -0.0731 0.3093 168
8.8125 -0.0723 -1.1279000000000001 226
8.9297 -0.0733 0.5171 237
8.8359 -0.0725 -0.9243000000000001 105
8.9688 -0.0735 0.7284999999999999 130
8.875 -0.0728 -0.7212000000000001 163
12.531199999999998 -0.10279999999999999 1.3125 44
8.8594 -0.0727 -0.5127 169
8.9219 -0.0732 1.1416 245
8.8984 -0.073 -0.3091 30
8.9531 -0.07339999999999999 1.3584 123
8.8906 -0.0729 -0.10310000000000001 54
8.9922 -0.0738 1.5781 146
8.9062 -0.1026 0.1033 157
8.7734 -0.1011 -1.3319999999999999 170
8.9375 -0.10300000000000001 0.3103 169
8.8047 -0.1014 -1.127 70
12.6094 -0.14529999999999998 0.731 125
8.8203 -0.1016 -0.9229 117
12.6094 -0.14529999999999998 1.0264 251
8.8594 -0.10210000000000001 -0.7202 117
12.531199999999998 -0.1444 1.3125 47
8.875 -0.10220000000000001 -0.5136999999999999 151
12.6797 -0.1461 1.626 23
8.8906 -0.1025 -0.30879999999999996 230
8.9766 -0.10339999999999999 1.3622999999999998 106
8.9062 -0.1026 -0.1033 20
8.9375 -0.10289999999999999 1.5684 194
8.9297 -0.1324 0.1035 217
8.7812 -0.13019999999999998 -1.3330000000000002 244
12.710899999999999 -0.1886 0.4421 132
8.8203 -0.1309 -1.1289 171
12.6094 -0.18710000000000002 0.731 178
8.8281 -0.131 -0.9229 43
12.601600000000001 -0.1869 1.0254 250
8.8594 -0.1315 -0.7202 229
12.5469 -0.1862 1.3144999999999998 213
8.8672 -0.1316 -0.5136999999999999 128
12.6719 -0.188 1.624 42
8.9219 -0.1324 -0.3098 243
12.710899999999999 -0.1885 1.9316 239
8.9219 -0.1323 -0.10339999999999999 159
8.9922 -0.1333 1.5781 8
12.9453 -0.2395 0.1505 57
8.8047 -0.1628 -1.3359 243
12.7969 -0.2368 0.44530000000000003 103
8.8047 -0.163 -1.1279000000000001 151
12.6172 -0.2335 0.7319 7
8.8516 -0.1638 -0.9258 123
12.6094 -0.23329999999999998 1.0264 112
8.875 -0.1642 -0.7212000000000001 146
12.531199999999998 -0.23190000000000002 1.3135 246
8.9141 -0.1649 -0.5161 12
12.6875 -0.2347 1.6269999999999998 27
8.9531 -0.16579999999999998 -0.311 119
12.6875 -0.2347 1.9287 207
12.8906 -0.23850000000000002 -0.1499 60
9.0078 -0.1666 1.5811000000000002 12
12.906199999999998 -0.2839 0.1501 99
8.8438 -0.1945 -1.3418 46
12.8203 -0.282 0.446 106
8.8359 -0.1943 -1.1309 107
12.601600000000001 -0.2771 0.7304999999999999 118
12.6094 -0.2773 -1.3213 11
12.6172 -0.2773 1.0273 231
8.9297 -0.19640000000000002 -0.7261 153
12.523399999999999 -0.2754 1.3115 84
12.6875 -0.2791 1.6269999999999998 119
12.773399999999999 -0.281 -0.4446 204
12.7031 -0.2793 1.9306999999999999 228
12.8672 -0.28300000000000003 -0.1495 109
9.0156 -0.19820000000000002 1.5819999999999999 79
12.6875 -0.3235 0.1476 14
12.6719 -0.32299999999999995 0.4407 159
12.593800000000002 -0.3208 0.73 222
12.601600000000001 -0.32130000000000003 -1.3203 198
12.6094 -0.3215 1.0273 125
12.773399999999999 -0.32539999999999997 -1.04 159
12.531199999999998 -0.3193 1.3125 37
12.781199999999998 -0.3259 -0.7412000000000001 4
12.6875 -0.3232 1.6269999999999998 25
12.851600000000001 -0.3276 -0.4473 62
12.6953 -0.3237 1.9306999999999999 120
12.9219 -0.3293 -0.1503 95
9.1094 -0.2321 1.5986000000000002 193
12.9219 -0.37450000000000006 0.1503 224
12.851600000000001 -0.3726 0.4473 106
12.593800000000002 -0.365 0.7304999999999999 135
12.593800000000002 -0.365 -1.3193000000000001 34
12.6094 -0.3652 1.0264 13
12.7422 -0.36939999999999995 -1.0381 212
12.531199999999998 -0.36329999999999996 1.3135 106
12.6797 -0.3674 -0.7354 40
12.6719 -0.36719999999999997 1.625 125
12.664100000000001 -0.36719999999999997 -0.4407 127
12.6953 -0.3679 1.9306999999999999 72
12.8906 -0.3735 -0.1499 137
8.8828 -0.25730000000000003 1.5586000000000002 242
12.6875 -0.4121 0.1476 51
12.7969 -0.4155 0.44530000000000003 159
12.601600000000001 -0.4094 0.731 177
12.593800000000002 -0.4089 -1.3193000000000001 48
12.593800000000002 -0.4089 1.0254 57
12.7969 -0.4155 -1.042 95
12.531199999999998 -0.40700000000000003 1.3135 217
12.7969 -0.4155 -0.7422 68
12.6797 -0.41159999999999997 1.626 141
12.835899999999999 -0.4167 -0.4465 252
12.710899999999999 -0.41259999999999997 1.9325999999999999 179
12.875 -0.4182 -0.14980000000000002 191
8.9219 -0.2898 1.5663999999999998 5
12.843800000000002 -0.4619 0.1494 59
12.6797 -0.4561 0.4412 16
12.6094 -0.4534 0.7314 35
12.601600000000001 -0.4534 -1.3213 188
12.601600000000001 -0.4531 1.0264 77
12.7344 -0.45799999999999996 -1.0371 202
12.531199999999998 -0.4507 1.3135 149
12.75 -0.4585 -0.7397 32
12.6875 -0.45630000000000004 1.6279 64
12.835899999999999 -0.4617 -0.4468 22
12.6797 -0.45630000000000004 1.9287 145
12.8828 -0.46340000000000003 -0.1499 240
8.9922 -0.3235 1.5791 17
12.9375 -0.5103 0.1505 106
12.8281 -0.5063 0.4465 174
12.585899999999999 -0.4968 0.7304999999999999 215
12.601600000000001 -0.4976 -1.3213 176
12.6094 -0.4976 1.0273 91
12.8125 -0.5059 -1.0439 142
12.5078 -0.49369999999999997 1.3115 198
12.781199999999998 -0.5044 -0.7417 73
12.664100000000001 -0.5 1.625 166
12.6875 -0.501 -0.44170000000000004 197
12.6797 -0.5005 1.9287 3
12.648399999999999 -0.499 -0.1471 150
8.9766 -0.3542 1.5771000000000002 115
12.7656 -0.5483 0.14859999999999998 205
12.6719 -0.5444 0.4412 187
12.593800000000002 -0.541 0.7304999999999999 75
12.593800000000002 -0.541 -1.3203 117
12.601600000000001 -0.5415 1.0264 209
12.7969 -0.5498 -1.042 151
12.5078 -0.5376 1.3115 169
12.789100000000001 -0.5493 -0.7422 74
12.664100000000001 -0.5439 1.625 65
12.8281 -0.5508 -0.4465 195
12.6953 -0.5454 1.9306999999999999 1
12.8281 -0.5513 -0.1493 161
12.906199999999998 -0.5542 2.2695 253
12.898399999999999 -0.5991 0.1501 236
12.8125 -0.5952000000000001 0.44630000000000003 184
12.593800000000002 -0.585 0.731 203
12.585899999999999 -0.5845 -1.3193000000000001 61
12.601600000000001 -0.5854 1.0264 108
12.7031 -0.5898 -1.0352 209
12.531199999999998 -0.5820000000000001 1.3135 70
12.6953 -0.5898 -0.7368000000000001 22
12.656199999999998 -0.5879 1.625 244
12.710899999999999 -0.5908 -0.4426 21
12.6953 -0.5898 1.9306999999999999 20
12.8203 -0.5957 -0.1492 153
9.7109 -0.4512 1.7069999999999999 2
12.7656 -0.6377 0.14859999999999998 88
12.8281 -0.6406000000000001 0.4468 105
12.601600000000001 -0.6294 0.7314 71
12.585899999999999 -0.6289 -1.3203 197
12.593800000000002 -0.6289 1.0264 236
12.8047 -0.6396000000000001 -1.043 46
12.531199999999998 -0.626 1.3135 29
12.789100000000001 -0.6392 -0.7426999999999999 14
12.656199999999998 -0.6323 1.625 178
12.75 -0.6367 -0.44380000000000003 98
12.6797 -0.6333 1.9297 251
12.6719 -0.6333 -0.1475 89
9.7188 -0.48560000000000003 1.7080000000000002 46
12.718800000000002 -0.6797 0.1479 52
12.6406 -0.6758 0.44020000000000004 14
12.601600000000001 -0.6738 0.7314 209
12.593800000000002 -0.6733 -1.3213 4
12.585899999999999 -0.6729 1.0264 245
12.7578 -0.6816 -1.04 203
12.5156 -0.6694 1.3135 143
12.789100000000001 -0.6836 -0.7426999999999999 161
12.664100000000001 -0.6768000000000001 1.626 190
12.8203 -0.6855 -0.4465 122
12.6719 -0.6777 1.9287 87
12.7969 -0.6840999999999999 -0.1489 239
13.101600000000001 -0.7001999999999999 2.3047 218
12.9297 -0.7368000000000001 0.1506 224
12.8281 -0.731 0.447 100
12.601600000000001 -0.7178 0.7314 5
12.6094 -0.7182999999999999 -1.3222999999999998 127
12.601600000000001 -0.7178 1.0273 200
12.781199999999998 -0.728 -1.042 51
12.5078 -0.7123999999999999 1.3115 222
12.718800000000002 -0.7245999999999999 -0.7387999999999999 209
12.664100000000001 -0.7217 1.6269999999999998 242
12.656199999999998 -0.7212000000000001 -0.4409 69
12.6797 -0.7222 1.9306999999999999 249
12.6094 -0.7182999999999999 -0.1469 1
13.0781 -0.7445999999999999 2.3027 40
12.7031 -0.7656000000000001 0.1479 211
12.6875 -0.7646 0.4421 73
12.585899999999999 -0.7587999999999999 0.731 146
12.593800000000002 -0.7593000000000001 -1.3222999999999998 85
12.593800000000002 -0.7593000000000001 1.0273 38
12.7969 -0.7715000000000001 -1.043 190
12.5156 -0.7548999999999999 1.3135 108
12.8281 -0.7729 -0.7451000000000001 49
12.656199999999998 -0.7626999999999999 1.625 215
12.8203 -0.7729 -0.4468 206
12.6875 -0.7651 1.9316 143
12.781199999999998 -0.7705 -0.14880000000000002 131
12.9922 -0.7831999999999999 2.2871 44
12.9297 -0.8223 0.1506 176
12.773399999999999 -0.8125 0.4451 203
12.585899999999999 -0.8008 0.7314 70
12.593800000000002 -0.8012999999999999 -1.3222999999999998 3
12.585899999999999 -0.8008 1.0264 145
12.710899999999999 -0.8086 -1.0371 9
12.523399999999999 -0.7964 1.3135 180
12.726600000000001 -0.8096 -0.7393000000000001 60
12.6406 -0.8042 1.624 161
12.8281 -0.8164 -0.4473 89
12.6875 -0.8070999999999999 1.9316 187
12.8047 -0.8145 -0.1492 30
12.9219 -0.8223 2.2754 151
12.8828 -0.8672 0.1501 59
12.8203 -0.8628 0.447 96
12.593800000000002 -0.8472 0.7314 37
12.593800000000002 -0.8477 -1.3222999999999998 255
12.5781 -0.8462000000000001 1.0264 57
12.7969 -0.8613 -1.0439 67
12.5078 -0.8418000000000001 1.3135 162
12.781199999999998 -0.8599 -0.7426999999999999 22
12.656199999999998 -0.8515999999999999 1.626 189
12.7344 -0.8569 -0.44380000000000003 27
12.6797 -0.853 1.9316 55
12.718800000000002 -0.856 -0.1482 25
12.9297 -0.8701000000000001 2.2773 94
12.718800000000002 -0.9009 0.1482 161
12.6797 -0.8975 0.44189999999999996 237
12.593800000000002 -0.8916 0.7319 146
12.6094 -0.8926000000000001 -1.3241999999999998 213
12.585899999999999 -0.8911 1.0273 211
12.7656 -0.9037999999999999 -1.042 165
12.5156 -0.8862000000000001 1.3135 108
12.781199999999998 -0.9053 -0.7432 188
12.656199999999998 -0.8965000000000001 1.6269999999999998 193
12.8047 -0.9067000000000001 -0.4465 238
12.6719 -0.8975 1.9306999999999999 103
12.789100000000001 -0.9053 -0.149 106
12.906199999999998 -0.9140999999999999 2.2754 144
12.875 -0.9570000000000001 0.1501 91
12.773399999999999 -0.9492 0.4456 41
12.585899999999999 -0.9355 0.7319 33
12.6172 -0.9375 -1.3252000000000002 122
12.593800000000002 -0.9359999999999999 1.0283 223
12.710899999999999 -0.9448000000000001 -1.0381 32
12.5078 -0.9292 1.3135 189
12.6953 -0.9434 -0.7378 229
12.6719 -0.9414 1.6288999999999998 6
12.6797 -0.9423999999999999 -0.4421 90
12.6797 -0.9419 1.9316 191
12.710899999999999 -0.9448000000000001 -0.1482 42
12.906199999999998 -0.9595 2.2754 211
12.6875 -0.9873000000000001 0.1479 180
12.789100000000001 -0.9956 0.44630000000000003 15
12.5781 -0.9790000000000001 0.7314 13
12.601600000000001 -0.9804999999999999 -1.3241999999999998 75
12.593800000000002 -0.98 1.0283 172
12.781199999999998 -0.9945999999999999 -1.043 57
12.5078 -0.9736 1.3144999999999998 48
12.781199999999998 -0.9945999999999999 -0.7432 68
12.656199999999998 -0.9849 1.6269999999999998 5
12.8125 -0.9971 -0.4468 65
12.6719 -0.9858 1.9316 89
12.6953 -0.9883 -0.1481 57
12.898399999999999 -1.0039 2.2734 71
12.8672 -1.0469 0.1501 168
12.6719 -1.0312000000000001 0.4424 222
12.5781 -1.0234 0.7319 59
12.601600000000001 -1.0244 -1.3241999999999998 157
12.5781 -1.0234 1.0273 62
12.718800000000002 -1.0342 -1.0391 234
12.523399999999999 -1.0186 1.3154 4
12.7422 -1.0361 -0.7406999999999999 175
12.6406 -1.0283 1.626 98
12.8203 -1.043 -0.4473 149
12.6797 -1.0312000000000001 1.9336000000000002 224
12.789100000000001 -1.04 -0.1492 70
12.906199999999998 -1.0498 2.2754 231
12.8672 -1.0918 0.1501 129
12.781199999999998 -1.085 0.44630000000000003 117
12.585899999999999 -1.0684 0.7323999999999999 246
12.6094 -1.0693000000000001 -1.3252000000000002 206
12.5703 -1.0664 1.0273 51
12.7656 -1.083 -1.043 201
12.523399999999999 -1.0625 1.3163999999999998 18
12.789100000000001 -1.085 -0.7441 166
12.648399999999999 -1.0732 1.6269999999999998 174
12.648399999999999 -1.0732 -0.44170000000000004 8
12.6719 -1.0752 1.9325999999999999 69
12.625 -1.0713 -0.14730000000000001 167
12.906199999999998 -1.0947 2.2754 106
12.7344 -1.125 0.14859999999999998 64
12.625 -1.1162 0.4409 177
12.585899999999999 -1.1123 0.7323999999999999 101
12.6094 -1.1143 -1.3262 238
12.5781 -1.1113 1.0283 146
12.8125 -1.1318000000000001 -1.0469 242
12.5078 -1.1055 1.3154 12
12.8203 -1.1328 -0.7461 80
12.656199999999998 -1.1181999999999999 1.6288999999999998 1
12.8125 -1.1328 -0.4475 109
12.664100000000001 -1.1191 1.9325999999999999 204
12.781199999999998 -1.1299 -0.1492 83
12.906199999999998 -1.1406 2.2773 183
12.773399999999999 -1.1738 0.44630000000000003 67
12.5781 -1.1562000000000001 0.7323999999999999 24
12.6172 -1.1592 -1.3271000000000002 68
12.585899999999999 -1.1562000000000001 1.0293 186
12.7031 -1.167 -1.0381 40
12.5 -1.1484 1.3154 0
12.710899999999999 -1.168 -0.7402 18
12.656199999999998 -1.1631 1.6299000000000001 169
12.7969 -1.1758 -0.447 6
12.6719 -1.1641 1.9336000000000002 147
12.8281 -1.1787 -0.14980000000000002 220
12.898399999999999 -1.1855 2.2773 90
12.851600000000001 -1.2266 0.1501 50
12.781199999999998 -1.2197 0.4468 209
12.5781 -1.2002 0.7323999999999999 128
12.601600000000001 -1.2021 -1.3262 78
12.585899999999999 -1.2002 1.0293 207
12.718800000000002 -1.2139 -1.04 56
12.5078 -1.1934 1.3154 103
12.710899999999999 -1.2129 -0.7402 62
12.6406 -1.2061 1.6279 138
12.75 -1.2168 -0.4456 239
12.6719 -1.209 1.9346 233
12.726600000000001 -1.2148 -0.1487 51
12.8828 -1.2285 2.2734 63
12.718800000000002 -1.2588 0.14859999999999998 193
12.6953 -1.2559 0.4436 165
12.5781 -1.2451 0.7329000000000001 72
12.5781 -1.2441 -1.3241999999999998 159
12.5781 -1.2441 1.0293 95
12.601600000000001 -1.2470999999999999 -1.0312000000000001 23
12.5078 -1.2383 1.3163999999999998 128
12.6172 -1.248 -0.7354 12
12.6328 -1.25 1.6269999999999998 169
12.710899999999999 -1.2578 -0.4443 215
12.6719 -1.2539 1.9355000000000002 98
12.7031 -1.2568000000000001 -0.1484 139
12.8906 -1.2754 2.2754 152
12.6953 -1.3008000000000002 0.1483 95
12.6953 -1.3008000000000002 0.44380000000000003 11
12.5703 -1.2881 0.7329000000000001 37
12.5703 -1.2881 -1.3232 241
12.5703 -1.2881 1.0283 28
12.5703 -1.2881 -1.0283 201
12.5156 -1.2822 1.3184 224
12.5703 -1.2881 -0.7323999999999999 77
12.648399999999999 -1.2959 1.6299000000000001 47
12.5781 -1.2881 -0.4397 120
12.664100000000001 -1.2978999999999998 1.9355000000000002 206
12.5703 -1.2881 -0.1469 117
12.851600000000001 -1.3174000000000001 2.2715 79
12.585899999999999 -1.334 0.1471 63
12.593800000000002 -1.335 0.4404 58
12.5781 -1.3330000000000002 0.7329000000000001 182
12.5781 -1.3330000000000002 -1.3252000000000002 120
12.5703 -1.3319999999999999 1.0283 162
12.5625 -1.3319999999999999 -1.0283 208
12.5078 -1.3252000000000002 1.3174000000000001 179
12.585899999999999 -1.334 -0.7339 158
12.648399999999999 -1.3408000000000002 1.6309 208
12.5781 -1.334 -0.4399 192
12.656199999999998 -1.3418 1.9346 77
12.5625 -1.3319999999999999 -0.1469 109
12.7969 -1.3563999999999998 2.2617 86
12.5781 -1.3779 0.1471 139
12.5703 -1.3769999999999998 0.4399 52
12.5781 -1.3769999999999998 0.7334 163
12.5781 -1.3769999999999998 -1.3252000000000002 16
