# .PCD v0.7 - Point Cloud Data file format
VERSION 0.7
FIELDS x y z intensity
SIZE 4 4 4 4
TYPE F F F F
COUNT 1 1 1 1
WIDTH 1242
HEIGHT 1
VIEWPOINT 0 0 0 1 0 0 0
POINTS 1242
DATA ascii
2.0879 -6.1797 -0.8334999999999999 227
1.8457 -5.4609000000000005 0.3328 27
1.8516 -5.480499999999999 0.46880000000000005 47
1.8397999999999999 -5.4453 -0.4658 162
1.8584 -5.5 0.6054999999999999 121
1.8311000000000002 -5.417999999999999 -0.3301 58
1.8535 -5.484400000000001 0.7393000000000001 254
1.8378999999999999 -5.4375 -0.1986 179
1.875 -5.550800000000001 0.8867 98
1.835 -5.4336 -0.0662 93
1.8769999999999998 -5.5547 1.0264 126
1.9902000000000002 -5.957000000000001 -1.1006 2
1.8300999999999998 -5.480499999999999 0.0667 198
2.0371 -6.1015999999999995 -0.9741 62
1.834 -5.4922 0.2004 93
2.0742 -6.207000000000001 -0.8364 48
1.8418 -5.515599999999999 0.3357 91
1.8486000000000002 -5.5352 0.4731 113
1.8300999999999998 -5.480499999999999 -0.4683 215
1.8603999999999998 -5.5703 0.6128 26
1.8271000000000002 -5.4727 -0.33299999999999996 128
1.8574000000000002 -5.5625 0.7484999999999999 48
1.8281 -5.4727 -0.1997 127
1.8769999999999998 -5.6211 0.897 44
1.8378999999999999 -5.5039 -0.067 99
1.8818000000000001 -5.6328 1.04 157
1.9707 -5.9688 -1.1006 225
1.8359 -5.5586 0.0676 5
1.999 -6.0547 -0.9658 246
1.8330000000000002 -5.550800000000001 0.2024 14
2.0293 -6.1484000000000005 -0.8271 108
1.8506 -5.605499999999999 0.3408 62
1.8516 -5.609400000000001 0.4788 177
1.8271000000000002 -5.5352 -0.47240000000000004 68
1.8584 -5.6289 0.6182 33
1.8271000000000002 -5.5352 -0.33640000000000003 39
1.8603999999999998 -5.6328 0.7578 42
1.8311000000000002 -5.546900000000001 -0.2021 170
1.8672 -5.6562 0.9018999999999999 97
1.8378999999999999 -5.5664 -0.0677 152
1.875 -5.6797 1.0469 79
1.9434 -5.957000000000001 -1.0977 80
1.8319999999999999 -5.613300000000001 0.0682 128
1.9853999999999998 -6.0859000000000005 -0.9692000000000001 22
1.8330000000000002 -5.6172 0.2045 57
2.0137 -6.175800000000001 -0.8301000000000001 194
1.8388999999999998 -5.636699999999999 0.3423 40
1.8447 -5.6523 0.4819 179
1.8222999999999998 -5.5859000000000005 -0.4763 28
1.8535 -5.6836 0.6235 215
1.8262 -5.5977 -0.3398 231
1.8574000000000002 -5.6914 0.7646 217
1.834 -5.6211 -0.2047 117
1.8681999999999999 -5.7265999999999995 0.9116 51
1.8300999999999998 -5.609400000000001 -0.0681 72
1.8788999999999998 -5.7578 1.0605 162
1.9188999999999998 -5.949199999999999 -1.0947 110
1.8300999999999998 -5.671900000000001 0.0688 12
1.9550999999999998 -6.0625 -0.9643999999999999 32
1.834 -5.6836 0.20679999999999998 185
1.9853999999999998 -6.1562 -0.8262 38
1.8397999999999999 -5.703099999999999 0.34590000000000004 228
1.8516 -5.738300000000001 0.4888 253
1.8311000000000002 -5.675800000000001 -0.48340000000000005 99
1.8544999999999998 -5.7461 0.6299 251
1.8222999999999998 -5.6484000000000005 -0.3428 199
1.8584 -5.761699999999999 0.7729 145
1.8311000000000002 -5.675800000000001 -0.2064 138
1.8711000000000002 -5.800800000000001 0.9229 83
1.8291 -5.667999999999999 -0.0688 131
1.8769999999999998 -5.8203 1.0703 68
1.9003999999999999 -5.957000000000001 -1.0957 197
1.8271000000000002 -5.730499999999999 0.0694 2
1.9306999999999999 -6.050800000000001 -0.9623999999999999 13
1.8378999999999999 -5.761699999999999 0.2095 86
1.9609 -6.1484000000000005 -0.8247 150
1.8408000000000002 -5.769500000000001 0.34990000000000004 112
1.8506 -5.8047 0.4939 175
1.8281 -5.730499999999999 -0.4878 248
1.8584 -5.828099999999999 0.6382 30
1.8203 -5.707000000000001 -0.34590000000000004 159
1.8594 -5.828099999999999 0.7812 121
1.835 -5.7539 -0.2091 192
1.874 -5.875 0.9336 105
1.8319999999999999 -5.7461 -0.0696 15
1.876 -5.8828 1.0811 142
1.8799000000000001 -5.9688 -1.0957 80
1.8271000000000002 -5.800800000000001 0.0703 67
1.9121000000000001 -6.0703 -0.9639 28
1.8311000000000002 -5.8164 0.21109999999999998 136
1.9306999999999999 -6.1289 -0.8212999999999999 212
1.8428 -5.8515999999999995 0.3542 138
1.8428 -5.8515999999999995 0.4976 225
1.8311000000000002 -5.8125 -0.4941 153
1.8563999999999998 -5.894500000000001 0.645 248
1.8203 -5.7812 -0.35009999999999997 40
1.8535 -5.886699999999999 0.7881 94
1.8262 -5.796900000000001 -0.2104 11
1.8691 -5.9336 0.9423999999999999 204
1.834 -5.824199999999999 -0.0705 123
1.8779 -5.9609000000000005 1.0947 104
1.8633000000000002 -5.988300000000001 -1.0986 23
1.8281 -5.8789 0.0711 237
1.8906 -6.078099999999999 -0.9639 206
1.8271000000000002 -5.875 0.213 72
1.9082 -6.1328 -0.8208 25
1.8397999999999999 -5.9140999999999995 0.3577 42
1.8418 -5.917999999999999 0.5029 206
1.8319999999999999 -5.890599999999999 -0.5 155
1.8574000000000002 -5.9688 0.6523 228
1.8213 -5.855499999999999 -0.354 182
1.8544999999999998 -5.9609000000000005 0.7974 152
1.8252000000000002 -5.8672 -0.21280000000000002 187
1.8643 -5.9922 0.9506999999999999 186
1.8330000000000002 -5.894500000000001 -0.0713 232
1.8788999999999998 -6.0390999999999995 1.1074 100
1.8486000000000002 -6.015599999999999 -1.1025 134
1.8271000000000002 -5.9453 0.0718 215
1.8887 -6.1484000000000005 -0.9741 206
1.8291 -5.953099999999999 0.21559999999999999 39
1.8916 -6.1562 -0.8228 185
1.8369 -5.980499999999999 0.3613 96
1.8437999999999999 -6.0039 0.5093 95
1.8477000000000001 -6.011699999999999 -0.5103 193
1.8506 -6.0234000000000005 0.6577 168
1.8105000000000002 -5.894500000000001 -0.35600000000000004 13
1.8584 -6.046900000000001 0.8086 23
1.8241999999999998 -5.9375 -0.2151 85
1.8662 -6.074199999999999 0.9623999999999999 78
1.8252000000000002 -5.9414 -0.0718 150
1.8721 -6.0938 1.1162 61
1.8369 -6.0547 -1.1084 224
1.8213 -6.0 0.0724 55
1.8643 -6.144500000000001 -0.9727 200
1.8291 -6.0273 0.2181 186
1.874 -6.175800000000001 -0.8247 211
1.8311000000000002 -6.0352 0.3643 134
1.8466999999999998 -6.0859000000000005 0.5156000000000001 146
1.8496000000000001 -6.0938 0.665 255
1.8096 -5.9648 -0.3601 112
1.8525 -6.105499999999999 0.8154 97
1.8203 -6.0 -0.217 38
1.8662 -6.1523 0.9736 119
1.8241999999999998 -6.011699999999999 -0.0726 118
1.8721 -6.171900000000001 1.1299 6
1.8174000000000001 -6.0625 0.0731 20
1.8555000000000001 -6.1875 -0.9784999999999999 251
1.8252000000000002 -6.0898 0.2202 222
1.8711000000000002 -6.238300000000001 -0.8325 180
1.8311000000000002 -6.109400000000001 0.36840000000000006 2
1.8378999999999999 -6.1289 0.519 87
1.8535 -6.1797 0.6733 194
1.8115 -6.042999999999999 -0.3643 132
1.8574000000000002 -6.1953 0.8267 244
1.8174000000000001 -6.0625 -0.2192 191
1.8672 -6.230499999999999 0.9849 149
1.8281 -6.0977 -0.0735 255
1.874 -6.25 1.1436 85
1.9883000000000002 -6.7148 -1.2275 45
1.8163999999999998 -6.1328 0.0739 149
1.9394999999999998 -6.546900000000001 -1.0342 81
1.8241999999999998 -6.1602 0.2225 252
1.8613 -6.2852 -0.8373999999999999 150
1.8369 -6.199199999999999 0.3735 133
1.8397999999999999 -6.2109000000000005 0.5254 67
1.8555000000000001 -6.265599999999999 0.6820999999999999 20
1.8096 -6.109400000000001 -0.3679 130
1.8466999999999998 -6.234400000000001 0.8311 31
1.8174000000000001 -6.136699999999999 -0.2217 183
1.8652000000000002 -6.296900000000001 0.9945999999999999 141
1.8213 -6.1484000000000005 -0.0741 30
1.874 -6.328099999999999 1.1562000000000001 70
1.9569999999999999 -6.699199999999999 -1.2227 159
1.8184 -6.2227 0.07490000000000001 18
1.9336000000000002 -6.6172 -1.0449 74
1.8203 -6.230499999999999 0.2249 156
1.8437999999999999 -6.3086 -0.8403 86
1.8319999999999999 -6.269500000000001 0.3774 212
1.8369 -6.2890999999999995 0.5312 143
1.8447 -6.3125 0.6865000000000001 64
1.8096 -6.1914 -0.3726 175
1.8330000000000002 -6.2734000000000005 0.835 20
1.8144999999999998 -6.2109000000000005 -0.2241 130
1.8584 -6.359400000000001 1.0039 89
1.8193000000000001 -6.2265999999999995 -0.075 214
1.876 -6.417999999999999 1.1719 127
1.9297 -6.6914 -1.2207 235
1.8174000000000001 -6.300800000000001 0.0758 31
1.916 -6.640599999999999 -1.0479 72
1.8184 -6.3047 0.2273 2
1.8388999999999998 -6.375 -0.8481000000000001 22
1.8262 -6.332000000000001 0.38060000000000005 35
1.835 -6.363300000000001 0.5371 177
1.8447 -6.394500000000001 0.6948000000000001 2
1.8047 -6.2578 -0.3762 25
1.8486000000000002 -6.4102 0.8525 212
1.8144999999999998 -6.292999999999999 -0.2268 45
1.8574000000000002 -6.4375 1.0156 186
1.8174000000000001 -6.300800000000001 -0.0758 138
1.8672 -6.4727 1.1806999999999999 95
1.9022999999999999 -6.6836 -1.2178 111
1.8144999999999998 -6.3711 0.0766 63
1.8975 -6.667999999999999 -1.0508 9
1.8193000000000001 -6.390599999999999 0.2302 85
1.8447 -6.480499999999999 -0.8608 74
1.8232 -6.4062 0.3848 174
1.8418 -6.4688 0.5459 217
1.8408000000000002 -6.4688 0.7021 85
1.7978999999999998 -6.3164 -0.37939999999999996 131
1.8496000000000001 -6.4961 0.8633 23
1.8125 -6.3672 -0.22940000000000002 47
1.8613 -6.5390999999999995 1.0303 154
1.8144999999999998 -6.3711 -0.0766 137
1.8681999999999999 -6.5625 1.1963 104
1.8809 -6.6953 -1.2187999999999999 86
1.8056999999999999 -6.4297 0.07719999999999999 54
1.8721 -6.6640999999999995 -1.0488 136
1.8184 -6.4727 0.233 168
1.8388999999999998 -6.546900000000001 -0.8691 225
1.8262 -6.5 0.3901 30
1.8319999999999999 -6.519500000000001 0.5498 65
1.8457 -6.5703 0.7129000000000001 53
1.8008000000000002 -6.4102 -0.3848 176
1.8418 -6.5547 0.8706 251
1.8066 -6.4336 -0.2316 133
1.8594 -6.6211 1.042 79
1.8144999999999998 -6.4609000000000005 -0.0776 41
1.8681999999999999 -6.6523 1.2109 17
1.8603999999999998 -6.7148 -1.2217 221
1.8047 -6.515599999999999 0.0782 150
1.8506 -6.6797 -1.0508 21
1.8105000000000002 -6.5390999999999995 0.2351 167
1.8262 -6.5938 -0.875 79
1.8213 -6.578099999999999 0.3943 35
1.8281 -6.6015999999999995 0.5557 148
1.8447 -6.6602 0.7217 103
1.7969 -6.488300000000001 -0.3889 86
1.8428 -6.6562 0.8828 67
1.8027000000000002 -6.5078 -0.23399999999999999 144
1.8525 -6.6875 1.0518 241
1.8096 -6.5352 -0.0784 184
1.8681999999999999 -6.7461 1.2266 111
1.8388999999999998 -6.730499999999999 -1.2227 147
1.8047 -6.605499999999999 0.07919999999999999 121
1.834 -6.7109000000000005 -1.0547 133
1.8066 -6.613300000000001 0.2377 249
1.8369 -6.7227 -0.8911 152
1.8203 -6.6640999999999995 0.3992 23
1.8281 -6.6914 0.563 4
3.7226999999999997 -13.6328 -1.1504 103
1.835 -6.7188 0.7275 197
1.7959 -6.574199999999999 -0.39380000000000004 131
1.8418 -6.7422 0.8936 114
1.7997999999999998 -6.5898 -0.23670000000000002 136
1.8525 -6.7812 1.0654000000000001 214
1.8047 -6.605499999999999 -0.07919999999999999 216
1.8672 -6.8359000000000005 1.2422 129
1.8163999999999998 -6.734400000000001 -1.2227 182
1.8075999999999999 -6.703099999999999 0.0803 71
1.8359 -6.8086 -1.0693000000000001 69
1.8086000000000002 -6.707000000000001 0.2408 203
1.8154 -6.734400000000001 0.4031 204
1.8281 -6.7773 0.5698 8
3.6601999999999997 -13.5703 -1.1445 140
1.8359 -6.8086 0.7363 166
1.7919999999999998 -6.644500000000001 -0.39770000000000005 95
1.8397999999999999 -6.824199999999999 0.9037999999999999 0
1.7988 -6.671900000000001 -0.2395 91
1.8496000000000001 -6.859400000000001 1.0771 103
1.8047 -6.6914 -0.0801 101
1.8622999999999998 -6.9062 1.2539 251
1.8086000000000002 -6.800800000000001 -1.2334 5
1.7988 -6.761699999999999 0.0809 216
1.9111000000000002 -7.1836 -1.127 237
1.8075999999999999 -6.792999999999999 0.2437 147
1.8135 -6.8164 0.4077 182
2.3418 -8.7969 -0.9526 175
1.8252000000000002 -6.859400000000001 0.5761999999999999 54
3.625 -13.625 -1.1475 76
1.835 -6.8984000000000005 0.7456 105
1.7881 -6.7188 -0.4019 133
1.8378999999999999 -6.9062 0.9140999999999999 47
1.7997999999999998 -6.761699999999999 -0.2426 215
1.8477000000000001 -6.9453 1.0898 231
1.8008000000000002 -6.765599999999999 -0.081 163
1.8535 -6.9648 1.2637 78
1.8925999999999998 -7.2188 -1.3086000000000002 17
1.791 -6.832000000000001 0.0817 173
1.9013999999999998 -7.2539 -1.1367 240
1.8037 -6.8828 0.2466 17
1.8096 -6.9023 0.41240000000000004 100
2.3105 -8.8125 -0.9526 147
1.8135 -6.917999999999999 0.5806 40
1.8300999999999998 -6.980499999999999 0.7539 121
1.7841999999999998 -6.8047 -0.4065 42
1.834 -6.9922 0.9248000000000001 68
1.7930000000000001 -6.8398 -0.2451 226
1.8486000000000002 -7.0547 1.1055 177
1.8027000000000002 -6.8789 -0.08220000000000001 161
1.8584 -7.0898 1.2852000000000001 254
1.875 -7.2578 -1.3144999999999998 80
1.7871000000000001 -6.9140999999999995 0.08259999999999999 67
1.7969 -6.953099999999999 0.2489 40
1.8125 -7.015599999999999 0.4189 40
2.2793 -8.8203 -0.9526 84
1.8213 -7.046900000000001 0.5908 53
3.6719 -14.210899999999999 -1.1953 237
1.8300999999999998 -7.082000000000001 0.7642 125
1.7861000000000002 -6.9102 -0.41259999999999997 204
1.835 -7.1015999999999995 0.938 154
1.7871000000000001 -6.9140999999999995 -0.24760000000000001 46
1.8486000000000002 -7.1523 1.1201 98
1.7978999999999998 -6.957000000000001 -0.08310000000000001 219
1.8584 -7.1914 1.3027000000000002 33
1.8496000000000001 -7.261699999999999 -1.3144999999999998 5
1.7938999999999998 -7.042999999999999 0.08410000000000001 21
2.2285 -8.75 -1.3700999999999999 142
1.7969 -7.0547 0.25239999999999996 172
2.2051 -8.6562 -1.1436 174
1.8105000000000002 -7.105499999999999 0.4241 241
2.1445 -8.4219 -0.9092 99
1.8184 -7.140599999999999 0.5981000000000001 220
2.123 -8.3359 -0.6987000000000001 3
1.8222999999999998 -7.1523 0.7709999999999999 87
1.7793 -6.988300000000001 -0.4167 15
1.8359 -7.207000000000001 0.9512 212
1.7881 -7.019500000000001 -0.25120000000000003 61
1.8447 -7.2422 1.1328 74
1.7938999999999998 -7.042999999999999 -0.08410000000000001 150
1.8574000000000002 -7.292999999999999 1.3193000000000001 96
1.8008000000000002 -7.175800000000001 0.08560000000000001 33
2.1719 -8.6484 -1.3535 216
1.7969 -7.1602 0.2559 50
2.1543 -8.5859 -1.1328 223
1.8056999999999999 -7.1953 0.429 47
2.1113 -8.4141 -0.9067000000000001 28
1.8203 -7.2539 0.6074 3
2.0781 -8.2812 -0.6938 217
1.8262 -7.2773 0.7842 78
1.7763999999999998 -7.078099999999999 -0.4219 221
1.8319999999999999 -7.300800000000001 0.9623999999999999 128
1.7919999999999998 -7.140599999999999 -0.2554 31
1.8477000000000001 -7.359400000000001 1.1504 118
1.791 -7.136699999999999 -0.0851 239
1.8555000000000001 -7.390599999999999 1.3359 88
1.79 -7.238300000000001 0.0863 196
2.1367 -8.6406 -1.3516 97
1.7959 -7.261699999999999 0.2595 175
2.0918 -8.4609 -1.1152 90
1.8027000000000002 -7.292999999999999 0.4343 54
2.1113 -8.5391 -0.9198999999999999 252
1.8163999999999998 -7.3438 0.6143 112
2.0742 -8.3906 -0.7021 218
1.8222999999999998 -7.3711 0.7935 25
1.7753999999999999 -7.1797 -0.4277 57
1.8281 -7.394500000000001 0.9741 222
1.7881 -7.230499999999999 -0.2583 159
1.8466999999999998 -7.4688 1.167 114
1.7881 -7.230499999999999 -0.0862 139
1.8516 -7.488300000000001 1.3525 52
1.7832 -7.3203 0.0872 28
2.1016 -8.6328 -1.3477000000000001 102
1.7938999999999998 -7.3672 0.26289999999999997 50
2.0781 -8.5312 -1.124 127
1.8008000000000002 -7.390599999999999 0.4399 137
2.0879 -8.5703 -0.9224 53
1.8096 -7.4297 0.6211 41
2.0723 -8.5078 -0.7119 168
1.8241999999999998 -7.4922 0.8057 152
1.7715 -7.2734000000000005 -0.4329 125
1.8232 -7.484400000000001 0.9854 177
1.7812000000000001 -7.3125 -0.261 228
1.8408000000000002 -7.5586 1.1797 147
1.7919999999999998 -7.355499999999999 -0.0876 15
1.8477000000000001 -7.5859000000000005 1.3691 78
1.7803 -7.425800000000001 0.08839999999999999 6
2.0742 -8.6562 -1.3506 36
1.7852000000000001 -7.449199999999999 0.2656 200
2.0742 -8.6562 -1.1396 2
1.7978999999999998 -7.5 0.446 81
2.043 -8.5234 -0.9165000000000001 41
1.8037 -7.5234000000000005 0.6284000000000001 55
2.0723 -8.6406 -0.7222 161
1.8174000000000001 -7.582000000000001 0.8145 132
1.7686000000000002 -7.375 -0.4387 128
1.8222999999999998 -7.6015999999999995 1.0 204
1.7734 -7.3984000000000005 -0.2639 225
1.8388999999999998 -7.667999999999999 1.1963 210
1.7871000000000001 -7.453099999999999 -0.08869999999999999 98
1.8496000000000001 -7.7148 1.3916 104
1.7783000000000002 -7.5352 0.0897 141
2.0664 -8.7578 -1.3652000000000002 57
1.7841999999999998 -7.5586 0.2695 89
2.0586 -8.7188 -1.1475 154
1.7988 -7.6211 0.45289999999999997 92
2.0508 -8.6953 -0.9340999999999999 202
1.8105000000000002 -7.671900000000001 0.6401 197
2.0664 -8.7578 -0.7314 38
1.8144999999999998 -7.6875 0.8256999999999999 4
1.7646000000000002 -7.4765999999999995 -0.4443 64
1.8213 -7.7148 1.0137 164
1.7744 -7.519500000000001 -0.2681 209
1.8359 -7.7812 1.2129 144
1.7822 -7.550800000000001 -0.0898 166
1.8466999999999998 -7.824199999999999 1.4102000000000001 0
1.7783000000000002 -7.6484000000000005 0.0909 14
1.7832 -7.671900000000001 0.2732 216
2.0859 -8.9766 -1.1797 236
1.7930000000000001 -7.7109000000000005 0.45799999999999996 101
2.0332 -8.7422 -0.9390000000000001 236
1.8075999999999999 -7.7734000000000005 0.6479 120
2.0645 -8.875 -0.7406999999999999 74
1.8135 -7.796900000000001 0.8369 52
1.7637 -7.5859000000000005 -0.45039999999999997 128
1.8203 -7.828099999999999 1.0283 91
1.7763999999999998 -7.636699999999999 -0.272 181
1.8330000000000002 -7.8828 1.2275 74
1.7763999999999998 -7.640599999999999 -0.0908 145
1.8457 -7.9375 1.4297 128
1.7772999999999999 -7.761699999999999 0.0922 204
1.7852000000000001 -7.792999999999999 0.2773 127
2.0469 -8.9375 -1.1738 7
1.79 -7.8164 0.4639 222
2.0996 -9.1719 -0.9843999999999999 240
1.8075999999999999 -7.894500000000001 0.6577 14
2.0645 -9.0156 -0.7515000000000001 164
1.8125 -7.9140999999999995 0.8486 28
1.7549000000000001 -7.6640999999999995 -0.4548 100
1.8184 -7.9375 1.042 202
1.7744 -7.75 -0.2759 102
1.8359 -8.0156 1.2470999999999999 159
1.7793 -7.769500000000001 -0.09230000000000001 228
1.8428 -8.0469 1.4482 38
1.7753999999999999 -7.8828 0.09359999999999999 226
1.7822 -7.9140999999999995 0.2815 138
1.7861000000000002 -7.9336 0.4705 30
2.0781 -9.2266 -0.9893000000000001 44
1.7969 -7.980499999999999 0.6646 237
2.0625 -9.1562 -0.7626999999999999 102
1.8096 -8.0391 0.8613 192
1.7597999999999998 -7.8164 -0.46340000000000003 10
1.8154 -8.0625 1.0576 79
1.7694999999999999 -7.859400000000001 -0.27949999999999997 26
1.8291 -8.125 1.2627 132
1.7725 -7.8711 -0.0934 99
1.8388999999999998 -8.1719 1.4687999999999999 129
1.7675999999999998 -7.980499999999999 0.0947 30
1.7753999999999999 -8.0156 0.2849 196
1.7881 -8.0703 0.4783 72
1.7930000000000001 -8.0938 0.6733 49
2.0527 -9.2656 -0.7715000000000001 161
1.8056999999999999 -8.1562 0.873 12
1.7538999999999998 -7.917999999999999 -0.4692 160
1.8105000000000002 -8.1719 1.0713 66
1.7627000000000002 -7.957000000000001 -0.2827 48
1.8213 -8.2266 1.2783 179
1.7725 -8.0 -0.095 8
1.8311000000000002 -8.2656 1.4853999999999998 131
1.7646000000000002 -8.1016 0.096 142
1.7675999999999998 -8.1094 0.28809999999999997 219
1.7803 -8.1719 0.4841 69
1.7891 -8.2109 0.6826000000000001 49
2.0469 -9.3984 -0.7817000000000001 5
1.7938999999999998 -8.2344 0.8813 3
1.75 -8.0312 -0.4756 17
1.8075999999999999 -8.2969 1.0869 140
1.7616999999999998 -8.0859 -0.2874 236
1.8125 -8.3203 1.2919999999999998 76
1.7686000000000002 -8.1172 -0.09630000000000001 154
1.8319999999999999 -8.4062 1.5107 247
1.7568000000000001 -8.2031 0.09720000000000001 149
1.7627000000000002 -8.2266 0.292 37
1.7744 -8.2812 0.4902 4
1.7891 -8.3516 0.6938 27
3.2266000000000004 -15.0625 -1.2549 49
1.7988 -8.3984 0.8979 76
1.749 -8.1641 -0.4832 234
1.8075999999999999 -8.4375 1.1045 222
1.7597999999999998 -8.2109 -0.2915 200
1.8174000000000001 -8.4844 1.3163999999999998 249
1.7578 -8.2109 -0.09720000000000001 225
1.8300999999999998 -8.5469 1.5332 252
1.7578 -8.3438 0.09880000000000001 200
1.7666 -8.3828 0.2974 89
1.7744 -8.4219 0.498 181
1.79 -8.4922 0.7051000000000001 38
3.1719 -15.0547 -1.2529000000000001 88
1.7969 -8.5234 0.9111 33
1.7412 -8.2656 -0.4888 192
1.8027000000000002 -8.5547 1.1191 14
1.7559 -8.3281 -0.2954 39
1.8193000000000001 -8.6328 1.3388999999999998 220
1.7616999999999998 -8.3594 -0.099 108
1.8271000000000002 -8.6719 1.5547 6
1.7538999999999998 -8.4609 0.1002 225
1.7656 -8.5234 0.302 164
1.7705000000000002 -8.5469 0.5049 119
1.7812000000000001 -8.5938 0.7129000000000001 75
3.0312 -14.625 -1.2158 65
1.8027000000000002 -8.6953 0.9287000000000001 116
1.7441 -8.4141 -0.49729999999999996 92
1.8027000000000002 -8.6953 1.1367 244
1.751 -8.4453 -0.29960000000000003 78
1.8222999999999998 -8.7969 1.3633000000000002 1
1.7597999999999998 -8.4922 -0.1005 207
1.8271000000000002 -8.8125 1.5800999999999998 187
1.7480000000000002 -8.6016 0.1017 229
1.7538999999999998 -8.6328 0.3057 143
1.7666 -8.6875 0.5132 34
1.7793 -8.75 0.7256 166
3.002 -14.7656 -1.2266 14
1.7949000000000002 -8.8281 0.9429000000000001 242
1.7372999999999998 -8.5469 -0.5049 1
1.7969 -8.8438 1.1553 53
1.7431999999999999 -8.5781 -0.304 25
1.8135 -8.9219 1.3818000000000001 143
1.7549000000000001 -8.6328 -0.10210000000000001 49
1.8241999999999998 -8.9766 1.6074000000000002 225
1.751 -8.7656 0.1036 113
1.75 -8.7656 0.3103 176
1.7656 -8.8438 0.522 81
1.7588 -8.8125 0.7304999999999999 60
2.9726999999999997 -14.8906 -1.2363 220
1.7852000000000001 -8.9453 0.9541 39
1.7353999999999998 -8.6953 -0.5132 7
1.7969 -9.0 1.1748 190
1.7422 -8.7266 -0.30879999999999996 137
1.8096 -9.0625 1.4033000000000002 141
1.749 -8.7656 -0.1036 147
1.8262 -9.1484 1.6377000000000002 117
1.7431999999999999 -8.8828 0.105 147
1.7471 -8.9062 0.3152 48
1.7607 -8.9766 0.5293 29
1.7734 -9.0391 0.7490000000000001 249
2.9141000000000004 -14.851600000000001 -1.2324 60
1.7841999999999998 -9.0938 0.9692000000000001 184
1.7334 -8.8359 -0.521 184
1.7969 -9.1562 1.1943000000000001 91
1.7402000000000002 -8.875 -0.314 243
1.8096 -9.2266 1.4268 250
1.7450999999999999 -8.8984 -0.1051 214
1.8213 -9.2812 1.6611000000000002 71
1.7402000000000002 -9.0234 0.1066 248
1.7461000000000002 -9.0625 0.32030000000000003 91
1.7549000000000001 -9.1016 0.5366 136
1.7694999999999999 -9.1797 0.7598 155
2.8183999999999996 -14.625 -1.2129 6
1.7861000000000002 -9.2656 0.9873000000000001 109
1.7216999999999998 -8.9375 -0.5268999999999999 131
1.791 -9.2891 1.2119 124
1.7393 -9.0234 -0.3191 118
1.8115 -9.3984 1.4531 131
1.7402000000000002 -9.0312 -0.1066 63
1.8203 -9.4453 1.6885 193
1.7363 -9.1875 0.1085 227
1.7431999999999999 -9.2266 0.3259 253
1.75 -9.2656 0.5459 108
1.7694999999999999 -9.3594 0.7744 101
2.7577999999999996 -14.593800000000002 -1.209 185
1.7871000000000001 -9.4609 1.0068000000000001 102
1.7197 -9.1016 -0.5361 207
1.7852000000000001 -9.4531 1.2314 168
1.7266 -9.1406 -0.32299999999999995 33
1.8008000000000002 -9.5312 1.4727000000000001 170
1.7363 -9.1875 -0.1085 188
1.8135 -9.5938 1.7147999999999999 37
1.7324000000000002 -9.3438 0.11019999999999999 164
1.7363 -9.3672 0.3308 173
1.75 -9.4375 0.5562 99
1.7559 -9.4766 0.7831999999999999 190
2.7012 -14.5781 -1.207 106
1.7734 -9.5703 1.0186 111
1.7187999999999999 -9.2734 -0.5459 176
1.7841999999999998 -9.625 1.2539 134
1.7236000000000002 -9.3047 -0.3286 65
1.7988 -9.7031 1.4980000000000002 147
1.7344 -9.3594 -0.1104 61
1.8115 -9.7734 1.7450999999999999 105
1.7197 -9.4688 0.1116 170
1.7236000000000002 -9.4922 0.33520000000000005 210
1.7461000000000002 -9.6172 0.5659000000000001 93
1.7568000000000001 -9.6797 0.7998000000000001 57
2.6582 -14.6406 -1.2119 81
1.7772999999999999 -9.7891 1.041 170
1.7138999999999998 -9.4375 -0.5557 199
1.7822 -9.8125 1.2773 3
1.7178 -9.4609 -0.33399999999999996 172
1.7988 -9.9062 1.5283000000000002 56
1.7246000000000001 -9.5 -0.11199999999999999 100
1.8105000000000002 -9.9688 1.7803 230
1.7197 -9.6641 0.1139 150
1.7246000000000001 -9.6875 0.3418 157
1.7393 -9.7734 0.5747 133
1.7559 -9.8672 0.8149 151
2.6582 -14.9375 -1.2354 163
1.7686000000000002 -9.9375 1.0566 238
1.709 -9.6016 -0.5649000000000001 218
1.7803 -10.0078 1.3018 138
1.7168 -9.6484 -0.3403 227
1.7938999999999998 -10.0859 1.5556999999999999 11
1.7227000000000001 -9.6797 -0.11410000000000001 173
1.8037 -10.1406 1.8086000000000002 48
1.7227000000000001 -9.8672 0.11630000000000001 78
1.7216999999999998 -9.8672 0.3479 34
1.7372999999999998 -9.9531 0.5854 90
1.7529 -10.0469 0.8295999999999999 42
2.5995999999999997 -14.898399999999999 -1.2314 60
1.7666 -10.1172 1.0752 245
1.7061000000000002 -9.7734 -0.5747 141
1.7744 -10.1641 1.3222999999999998 248
1.7147999999999999 -9.8281 -0.3467 10
1.7959 -10.289100000000001 1.5859 93
1.7178 -9.8438 -0.11599999999999999 13
1.7997999999999998 -10.3125 1.8378999999999999 105
1.7187999999999999 -10.0469 0.1183 60
1.7227000000000001 -10.0625 0.3547 42
1.7324000000000002 -10.125 0.5952000000000001 202
1.7450999999999999 -10.2031 0.8418000000000001 0
2.5781 -15.0625 -1.2441 242
1.7715 -10.351600000000001 1.0996 68
1.7012 -9.9375 -0.584 192
1.7705000000000002 -10.351600000000001 1.3447 182
1.7050999999999998 -9.9688 -0.3513 35
1.7949000000000002 -10.4922 1.6172 192
1.7178 -10.0391 -0.1182 31
1.8047 -10.5469 1.8799000000000001 165
1.7119 -10.2344 0.1204 102
1.7138999999999998 -10.2422 0.3608 133
1.7285 -10.3281 0.6069 58
1.7402000000000002 -10.398399999999999 0.8573999999999999 12
1.7597999999999998 -10.5156 1.1162 11
1.7031 -10.1719 -0.5977 84
1.7686000000000002 -10.5703 1.3730000000000002 50
1.7002000000000002 -10.1641 -0.3579 216
1.7871000000000001 -10.6797 1.6444999999999999 89
1.7119 -10.2344 -0.1204 15
1.7988 -10.75 1.9141 34
1.7069999999999999 -10.4297 0.12269999999999999 229
1.7109 -10.4453 0.3679 143
1.7266 -10.5469 0.6191 234
1.7402000000000002 -10.625 0.8759999999999999 139
1.7588 -10.7422 1.1387 218
1.6953 -10.351600000000001 -0.6074 197
1.7616999999999998 -10.7578 1.3965 33
1.6972999999999998 -10.3672 -0.365 60
1.7803 -10.875 1.6738 131
1.7041 -10.406199999999998 -0.12240000000000001 157
1.7919999999999998 -10.9375 1.9472999999999998 216
1.7061000000000002 -10.656199999999998 0.1252 81
1.7061000000000002 -10.648399999999999 0.37479999999999997 1
1.7178 -10.726600000000001 0.6294 155
1.7266 -10.781199999999998 0.8881999999999999 125
2.3047 -14.3906 -1.1865 50
1.7529 -10.9453 1.1602 128
1.6913999999999998 -10.5625 -0.6196 249
1.7637 -11.0078 1.4287 107
1.6934 -10.5703 -0.3721 244
1.7783000000000002 -11.101600000000001 1.7080000000000002 229
1.7002000000000002 -10.6094 -0.12480000000000001 224
1.8193000000000001 -11.3594 2.0195 38
1.6806999999999999 -10.7344 0.1261 142
1.6943000000000001 -10.8203 0.38060000000000005 158
1.7109 -10.9297 0.6406000000000001 49
1.7313999999999998 -11.0547 0.9106000000000001 79
2.2559 -14.406199999999998 -1.1875 105
1.7480000000000002 -11.164100000000001 1.1826 62
1.6875 -10.773399999999999 -0.6318 206
1.7588 -11.2344 1.4569999999999999 239
1.6885 -10.781199999999998 -0.37939999999999996 237
1.7744 -11.335899999999999 1.7431999999999999 182
1.6894999999999998 -10.789100000000001 -0.1268 220
1.8056999999999999 -11.531199999999998 2.0508 225
1.6934 -11.0625 0.13 175
1.6991999999999998 -11.1094 0.3906 254
1.7080000000000002 -11.164100000000001 0.6543000000000001 238
1.7285 -11.2969 0.9297 52
2.2363 -14.6094 -1.2041 141
1.7480000000000002 -11.4219 1.21 30
1.6787 -10.968800000000002 -0.6431 27
1.7529 -11.4531 1.4853999999999998 245
1.6816 -10.9844 -0.3862 251
1.7694999999999999 -11.5625 1.7772999999999999 134
1.6894999999999998 -11.039100000000001 -0.1298 103
1.6806999999999999 -11.2422 0.1321 32
1.6846 -11.273399999999999 0.3962 224
1.7002000000000002 -11.375 0.6665000000000001 70
1.7236000000000002 -11.531199999999998 0.9487000000000001 125
2.293 -15.343800000000002 -1.2637 104
1.7431999999999999 -11.664100000000001 1.2354 87
1.6738 -11.1953 -0.6562 240
1.7441 -11.6719 1.5127000000000002 236
1.6787 -11.2344 -0.3948 135
1.7694999999999999 -11.843800000000002 1.8193000000000001 3
1.6836000000000002 -11.2656 -0.1323 151
1.6768 -11.4922 0.135 193
1.6787 -11.5078 0.4043 56
1.6991999999999998 -11.648399999999999 0.6820999999999999 16
1.7187999999999999 -11.781199999999998 0.9688 105
1.7313999999999998 -11.8672 1.2559 209
1.6719 -11.460899999999999 -0.6709 219
1.7450999999999999 -11.960899999999999 1.5488 101
1.6699000000000002 -11.4531 -0.4023 117
1.7646000000000002 -12.101600000000001 1.8574000000000002 149
1.6777000000000002 -11.5 -0.135 187
1.6738 -11.7578 0.4131 154
1.6934 -11.898399999999999 0.6968000000000001 146
1.4883000000000002 -10.4531 -1.1055 90
1.71 -12.0156 0.9878 161
1.4961000000000002 -10.5078 -0.8633 29
1.7236000000000002 -12.1094 1.2812000000000001 175
1.5156 -10.648399999999999 -0.623 224
1.7402000000000002 -12.226600000000001 1.5830000000000002 100
1.6621000000000001 -11.6797 -0.4102 93
1.7675999999999998 -12.414100000000001 1.9062000000000001 0
1.6680000000000001 -11.726600000000001 -0.1376 220
1.6621000000000001 -11.976600000000001 0.1405 68
1.665 -12.0 0.4211 61
1.6758000000000002 -12.0781 0.7070000000000001 20
1.4541 -10.476600000000001 -1.1074 133
1.7021000000000002 -12.2656 1.0078 187
1.46 -10.523399999999999 -0.8643000000000001 229
1.7305000000000001 -12.468800000000002 1.3184 109
1.4628999999999999 -10.539100000000001 -0.6167 243
1.7294999999999998 -12.468800000000002 1.6133000000000002 199
1.6553 -11.9297 -0.4189 176
1.7783000000000002 -12.8125 1.9668 228
1.6611000000000002 -11.968800000000002 -0.1405 59
1.6591999999999998 -12.273399999999999 0.1439 191
1.6641 -12.3125 0.43189999999999995 171
1.6806999999999999 -12.4297 0.7271 241
1.6963 -12.5469 1.0303 140
1.4228999999999998 -10.523399999999999 -0.6152000000000001 3
1.7256 -12.7656 1.6513999999999998 43
1.6513999999999998 -12.218800000000002 -0.42869999999999997 87
1.7705000000000002 -13.093800000000002 2.0078 44
1.6572 -12.2578 -0.1438 136
1.6582 -12.593800000000002 0.44189999999999996 181
1.6758000000000002 -12.726600000000001 0.7445999999999999 54
1.6846 -12.7969 1.0508 139
1.7207 -13.0703 1.3809 152
1.3916 -10.5703 -0.6177 151
1.7216999999999998 -13.0781 1.6913999999999998 122
1.3975 -10.6172 -0.3721 12
1.6503999999999999 -12.531199999999998 -0.147 203
10.3828 -78.875 14.023399999999999 154
1.6494 -12.875 0.4514 16
1.6680000000000001 -13.0156 0.7606999999999999 217
1.3711000000000002 -10.7031 -1.1299 221
1.6855000000000002 -13.164100000000001 1.0801 44
1.3555000000000001 -10.5781 -0.8676999999999999 225
1.7061000000000002 -13.3125 1.4062000000000001 80
1.3535 -10.5703 -0.6172 66
1.7147999999999999 -13.3906 1.7305000000000001 121
1.3574000000000002 -10.593800000000002 -0.3713 42
1.6455000000000002 -12.843800000000002 -0.1505 151
1.6475 -13.1875 0.46240000000000003 136
1.3486000000000002 -10.7969 -1.3944999999999999 62
1.6611000000000002 -13.2969 0.7768999999999999 102
1.335 -10.6875 -1.127 153
1.6747999999999998 -13.414100000000001 1.1006 131
1.3174000000000001 -10.5469 -0.8647 168
1.3174000000000001 -10.5469 -0.6157 185
1.7158000000000002 -13.7344 1.7744 242
1.3213 -10.5781 -0.3704 115
1.6406 -13.1328 -0.1539 211
1.6309 -13.414100000000001 0.15710000000000002 30
1.6357 -13.460899999999999 0.4717 42
1.3075999999999999 -10.7578 -1.3887 86
1.6572 -13.6328 0.7964 49
1.29 -10.6094 -1.1191 60
1.6825999999999999 -13.835899999999999 1.1348 61
1.2744 -10.4844 -0.8589 87
1.2764 -10.5 -0.6128 77
1.7021000000000002 -14.0078 1.8096 122
1.2852000000000001 -10.5703 -0.3701 39
1.2978999999999998 -10.6797 -0.1249 128
1.6299000000000001 -13.8281 0.4844 196
1.2627 -10.718800000000002 -1.3828 18
1.6436000000000002 -13.9453 0.8145 151
1.2412 -10.531199999999998 -1.1104 49
1.6688999999999998 -14.164100000000001 1.1611 59
1.2334 -10.460899999999999 -0.8569 115
1.6825999999999999 -14.281199999999998 1.5068000000000001 163
1.2373 -10.5 -0.6128 19
1.2461 -10.5703 -0.3699 87
1.2568000000000001 -10.664100000000001 -0.1247 175
1.6035 -14.023399999999999 0.49119999999999997 19
1.2197 -10.6719 -1.376 60
1.6366999999999998 -14.3203 0.8359000000000001 215
1.207 -10.5625 -1.1133 171
1.6553 -14.4844 1.1875 90
1.1992 -10.4922 -0.8589 89
1.2031 -10.523399999999999 -0.6138 105
1.7119 -14.976600000000001 1.9336000000000002 166
1.209 -10.5781 -0.3699 141
1.2207 -10.6797 -0.12480000000000001 100
1.6044999999999998 -14.4844 0.5073 106
1.1514 -10.3906 -1.3397999999999999 43
1.625 -14.6719 0.856 217
1.1631 -10.5 -1.1055 58
1.6455000000000002 -14.8594 1.2178 11
1.1611 -10.4844 -0.8579000000000001 31
1.1611 -10.4844 -0.6113000000000001 75
1.1719 -10.5781 -0.3699 44
1.1826 -10.6797 -0.12480000000000001 74
1.5918 -14.843800000000002 0.5195000000000001 192
1.1123 -10.3672 -1.3359 206
1.6200999999999999 -15.1094 0.8813 125
1.125 -10.4844 -1.1045 117
1.125 -10.5 -0.8589 99
1.126 -10.5 -0.6118 123
1.1357 -10.593800000000002 -0.3701 154
1.5908000000000002 -15.343800000000002 0.5371 53
1.0771 -10.3828 -1.3378999999999999 183
1.6084 -15.5156 0.9048 56
1.0869 -10.476600000000001 -1.1025 60
1.6366999999999998 -15.781199999999998 1.2919999999999998 129
1.0889 -10.5 -0.8584 15
1.0889 -10.5 -0.6118 211
1.0986 -10.601600000000001 -0.3704 112
1.5800999999999998 -15.2344 -0.1782 56
1.5762 -15.7344 0.5503 130
1.5937999999999999 -15.914100000000001 0.9277 79
1.0498 -10.476600000000001 -1.1025 1
1.6162 -16.1406 1.3203 42
1.0518 -10.5 -0.8584 239
1.0537 -10.5156 -0.6123 70
1.0635 -10.6172 -0.37060000000000004 92
1.5752000000000002 -15.726600000000001 -0.184 236
1.5781 -16.3281 0.5708 75
1.5897999999999999 -16.4531 0.9590000000000001 76
1.0205 -10.5547 -1.1104 195
1.0186 -10.539100000000001 -0.8613 11
1.6797 -17.375 1.8300999999999998 141
1.0205 -10.5625 -0.6147 115
1.0283 -10.6406 -0.3716 142
1.5663999999999998 -16.2031 -0.18960000000000002 105
1.5596 -16.75 0.5859000000000001 225
1.5888999999999998 -17.0625 0.9945999999999999 86
1.6006 -17.1875 1.4062000000000001 82
0.9951000000000001 -10.6875 -0.373 249
1.5391 -16.5312 -0.1932 27
1.5341999999999998 -17.1562 0.5996 125
1.5586000000000002 -17.4219 1.0156 115
0.9541 -10.6719 -0.6206 123
1.5253999999999999 -17.0625 -0.5962 215
1.5322 -17.125 -0.2002 215
0.9155 -10.656199999999998 -0.6196 217
7.3515999999999995 -85.5625 -1.0039 94
6.519500000000001 -78.9375 2.7656 226
0.8818 -10.6797 -0.6206 56
5.199199999999999 -68.6875 4.0039 84
0.8203 -10.835899999999999 -0.8843000000000001 128
0.7847 -10.843800000000002 -0.8843000000000001 112
4.4844 -68.8125 4.0078 146
3.375 -82.9375 2.8964999999999996 63
0.1472 -5.511699999999999 -0.7041 78
0.12539999999999998 -5.3984000000000005 -0.6890000000000001 204
0.1054 -5.3438 -0.8086 103
0.1058 -5.363300000000001 -0.6846 27
0.08529999999999999 -5.2578 -0.7948999999999999 212
0.0867 -5.3398 -0.6816 87
0.0935 -5.7578 -0.6006 10
0.06559999999999999 -5.144500000000001 -0.7783 114
0.0674 -5.292999999999999 -0.6753 134
0.0471 -5.0898 -0.77 62
0.0479 -5.1797 -0.6611 15
0.0053 -0.9473 -0.1597 234
0.028300000000000002 -5.0664 -0.7661 246
0.0331 -5.9336 -0.48100000000000004 29
0.0356 -6.3789 -0.36840000000000006 205
0.0019 -0.9120999999999999 -0.1534 101
0.0106 -5.0664 -0.7661 174
0.010700000000000001 -5.1211 -0.6533 155
0.012 -5.734400000000001 -0.4646 199
-0.0009 -0.8959999999999999 -0.1506 161
-0.0053 -5.0703 -0.7666 188
-0.006 -5.734400000000001 -0.4646 64
-0.0039000000000000003 -0.8881999999999999 -0.1492 191
-0.022000000000000002 -5.043 -0.7626999999999999 48
-0.0222 -5.0742 -0.6475 128
-0.0246 -5.6328 -0.45649999999999996 190
-0.027200000000000002 -6.234400000000001 -0.3601 75
-0.0074 -0.9159999999999999 -0.15410000000000001 81
-0.0404 -5.0352 -0.7612000000000001 183
-0.041100000000000005 -5.1211 -0.6533 230
-0.045 -5.609400000000001 -0.4546 199
-0.0499 -6.2188 -0.3591 248
-0.0103 -0.8959999999999999 -0.1506 150
-0.057999999999999996 -5.0312 -0.7606999999999999 12
-0.0642 -5.574199999999999 -0.4517 87
-0.0737 -6.4023 -0.2218 2
-0.0132 -0.8804000000000001 -0.1478 39
-0.0754 -5.0195 -0.7593000000000001 91
-0.077 -5.1289 -0.6543000000000001 236
-0.0837 -5.574199999999999 -0.4517 3
-0.09630000000000001 -6.4140999999999995 -0.22219999999999998 165
-0.0161 -0.8726 -0.1465 185
-0.0931 -5.0312 -0.7612000000000001 36
-0.09449999999999999 -5.1094 -0.6518999999999999 55
-0.1024 -5.5312 -0.4482 199
-0.1217 -6.578099999999999 -0.076 63
-0.019299999999999998 -0.8765000000000001 -0.1471 101
-0.1104 -5.0195 -0.7587999999999999 215
-0.1112 -5.0547 -0.645 33
-0.1217 -5.5312 -0.4482 81
-0.1393 -6.332000000000001 -0.366 74
-0.1445 -6.574199999999999 -0.076 107
-0.023799999999999998 -0.9351 -0.1576 227
-0.1276 -5.0078 -0.7573000000000001 116
-0.1298 -5.0938 -0.6498999999999999 136
-0.142 -5.5703 -0.4517 15
-0.16140000000000002 -6.332000000000001 -0.366 71
-0.0271 -0.9351 -0.1576 124
-0.1454 -5.0195 -0.7587999999999999 153
-0.1466 -5.0586 -0.6455 20
-0.1603 -5.5312 -0.4482 28
-0.18350000000000002 -6.332000000000001 -0.366 16
-0.21230000000000002 -7.328099999999999 -0.25420000000000004 94
-0.163 -5.0156 -0.7587999999999999 249
-0.1637 -5.0391 -0.6431 7
-0.1776 -5.4727 -0.4434 184
-0.20559999999999998 -6.332000000000001 -0.366 10
-0.0315 -0.8759999999999999 -0.1471 58
-0.18030000000000002 -5.0117 -0.7583 149
-0.18460000000000001 -5.1328 -0.6553 55
-0.1975 -5.488300000000001 -0.4451 112
-0.033 -0.8364 -0.14029999999999998 185
-0.1975 -5.0039 -0.7573000000000001 106
-0.2034 -5.1523 -0.6577 40
-0.2152 -5.453099999999999 -0.4421 38
-0.2903 -7.355499999999999 -0.2554 154
-0.0364 -0.8481000000000001 -0.1423 202
-0.28559999999999997 -6.6523 0.077 157
-0.2144 -4.9883 -0.7548999999999999 195
-0.2213 -5.1523 -0.6577 248
-0.2322 -5.4062 -0.4382 36
-0.311 -7.238300000000001 -0.25120000000000003 194
-0.0412 -0.8872 -0.1492 75
-0.312 -6.7148 0.07769999999999999 135
-0.23190000000000002 -4.9922 -0.7559 79
-0.2394 -5.1523 -0.6577 130
-0.2507 -5.394500000000001 -0.4375 73
-0.33840000000000003 -7.2852 -0.2529 252
-0.045700000000000005 -0.9106000000000001 -0.1534 133
-0.33299999999999996 -6.640599999999999 0.0768 174
-0.2505 -4.9961 -0.7563 125
-0.2708 -5.3984000000000005 -0.43799999999999994 164
-0.3655 -7.2890999999999995 -0.2529 201
-0.0501 -0.9340999999999999 -0.1576 131
-0.3599 -6.7109000000000005 0.07769999999999999 246
-0.2681 -4.9961 -0.7563 72
-0.2676 -4.9883 -0.6372 22
-0.2891 -5.390599999999999 -0.43729999999999997 251
-0.3914 -7.296900000000001 -0.2534 124
-0.0501 -0.8789 -0.1478 249
-0.3823 -6.7109000000000005 0.07769999999999999 222
-0.2842 -4.9883 -0.7554000000000001 67
-0.2854 -5.0078 -0.6396000000000001 52
-0.3057 -5.3672 -0.4353 44
-0.4167 -7.3164 -0.25420000000000004 253
-0.0546 -0.9062 -0.1527 135
-0.3992 -6.6211 0.0767 185
-0.30079999999999996 -4.9922 -0.7559 236
-0.303 -5.0273 -0.6426000000000001 178
-0.324 -5.3711 -0.436 54
-0.4397 -7.292999999999999 -0.2534 50
-0.0567 -0.8867 -0.1492 40
-0.4255 -6.6523 0.077 201
-0.3145 -4.9141 -0.7445999999999999 154
-0.344 -5.3789 -0.4365 178
-0.4656 -7.2773 -0.2529 67
-0.059500000000000004 -0.8823000000000001 -0.14859999999999998 119
-0.44780000000000003 -6.6328 0.0768 58
-0.33299999999999996 -4.9375 -0.748 252
-0.33759999999999996 -5.0039 -0.6396000000000001 186
-0.3408 -5.0508 -0.5278 163
-0.3618 -5.363300000000001 -0.4353 19
-0.491 -7.2773 -0.2529 214
-0.0629 -0.8862000000000001 -0.1492 81
-0.4722 -6.6523 0.0771 164
-0.3518 -4.957 -0.7509999999999999 7
-0.3521 -4.9609 -0.6343 245
-0.3567 -5.0234 -0.5249 105
-0.3826 -5.386699999999999 -0.4375 195
-0.5171 -7.2890999999999995 -0.2534 173
-0.0661 -0.8876999999999999 -0.1495 136
-0.4907 -6.5859000000000005 0.0764 40
-0.3772 -5.0625 -0.7676000000000001 33
-0.3677 -4.9375 -0.6313 151
-0.3713 -4.9883 -0.521 172
-0.3987 -5.3515999999999995 -0.4346 231
-0.5396 -7.2461 -0.252 244
-0.0694 -0.8896 -0.1499 49
-0.5195000000000001 -6.6602 0.07719999999999999 148
-0.39039999999999997 -5.0039 -0.7587999999999999 20
-0.3948 -5.0625 -0.6479 50
-0.3892 -4.9883 -0.5215 48
-0.4143 -5.3086 -0.4314 213
-0.0726 -0.8911 -0.1503 44
-0.5386 -6.609400000000001 0.0766 123
-0.4053 -4.9727 -0.7539 174
-0.4075 -5.0 -0.6396000000000001 186
-0.4065 -4.9883 -0.5215 135
-0.4321 -5.300800000000001 -0.4307 4
-0.0739 -0.8715999999999999 -0.1469 177
-0.5659000000000001 -6.667999999999999 0.0774 7
-0.4253 -5.0117 -0.7603 37
-0.4199 -4.9492 -0.6333 28
-0.42310000000000003 -4.9883 -0.5215 69
-0.449 -5.292999999999999 -0.4302 161
-0.0775 -0.8789 -0.1482 87
-0.5811 -6.5898 0.0764 176
-0.4404 -4.9961 -0.7583 207
-0.4368 -4.9531 -0.6338 27
-0.4399 -4.9883 -0.5215 37
-0.4707 -5.3359000000000005 -0.4341 68
-0.0817 -0.8887 -0.1499 252
-0.606 -6.5938 0.0765 4
-0.4585 -4.9883 -0.7573000000000001 212
-0.4568 -4.9688 -0.6367 64
-0.4583 -4.9883 -0.522 199
-0.4893 -5.324199999999999 -0.43310000000000004 68
-0.0889 -0.9312 -0.1576 0
-0.6284000000000001 -6.5859000000000005 0.0765 18
-0.47509999999999997 -4.9805 -0.7563 154
-0.4722 -4.9492 -0.6338 43
-0.4756 -4.9844 -0.5215 110
-0.5049 -5.2890999999999995 -0.4304 42
-0.478 -4.832 -0.8486 186
-0.6518999999999999 -6.5898 0.0765 136
-0.4924 -4.9766 -0.7563 50
-0.4917 -4.9688 -0.6372 156
-0.4946 -5.0 -0.5234000000000001 56
-0.522 -5.2773 -0.4294 22
-0.4919 -4.8008 -0.8438 158
-0.6748000000000001 -6.5859000000000005 0.0765 17
-0.5088 -4.9648 -0.7544 224
-0.5117 -4.9961 -0.6401 108
-0.5151 -5.0312 -0.5268999999999999 79
-0.5405 -5.2734000000000005 -0.4294 126
-0.6792 -6.6289 -0.077 87
-0.5078 -4.793 -0.8423 179
-0.6978 -6.5859000000000005 0.0765 34
-0.5259 -4.9609 -0.7539 120
-0.5254 -4.957 -0.6353 72
-0.5297999999999999 -5.0 -0.5239 241
-0.562 -5.3047 -0.4321 238
-0.6465000000000001 -6.1015999999999995 -0.3542 68
-0.7001999999999999 -6.605499999999999 -0.0768 73
-0.5254 -4.7969 -0.8432999999999999 177
-0.7236 -6.605499999999999 0.0768 20
-0.5454 -4.9805 -0.7573000000000001 62
-0.5508 -5.0312 -0.6455 34
-0.5464 -4.9922 -0.5229 17
-0.5820000000000001 -5.3125 -0.43310000000000004 136
-0.6679999999999999 -6.0977 -0.3542 211
-0.7222 -6.5977 -0.0767 174
-0.5429999999999999 -4.8047 -0.8447 15
-0.7437 -6.578099999999999 0.0765 216
-0.563 -4.9766 -0.7573000000000001 46
-5.6523 -50.0 1.7549000000000001 87
-0.5693 -5.0352 -0.6459999999999999 127
-0.5654 -5.0 -0.5244 71
-0.5977 -5.2890999999999995 -0.43119999999999997 175
-0.7461 -6.6015999999999995 -0.0768 200
-0.562 -4.8242 -0.8486 180
-0.7681 -6.5898 0.0767 153
-0.5806 -4.9805 -0.7583 248
-0.5859000000000001 -5.0234 -0.645 45
-0.5903 -5.0625 -0.5307999999999999 158
-0.6143 -5.269500000000001 -0.42969999999999997 14
-0.7676000000000001 -6.582000000000001 -0.0766 190
-0.5757 -4.793 -0.8438 71
-0.7905 -6.582000000000001 0.0766 81
-0.5996 -4.9883 -0.7598 35
-0.6025 -5.0156 -0.644 88
-6.0938 -50.7188 2.9688 177
-0.6064 -5.0469 -0.5297999999999999 203
-0.6318 -5.261699999999999 -0.4292 5
-0.7856000000000001 -6.5390999999999995 -0.0761 126
-0.5922999999999999 -4.793 -0.8438 139
-0.8198000000000001 -6.6328 0.07719999999999999 135
-0.6177 -4.9961 -0.7612000000000001 180
-6.0390999999999995 -48.8438 1.7168 225
-0.6201 -5.0156 -0.6445000000000001 121
-5.6523 -45.7188 2.6776999999999997 47
-0.624 -5.0469 -0.5297999999999999 162
-0.6577 -5.3164 -0.4341 112
-0.8096 -6.546900000000001 -0.0762 23
-0.6103999999999999 -4.7969 -0.8452 101
-0.8354 -6.5703 0.0765 106
-0.6333 -4.9766 -0.7587999999999999 132
-6.140599999999999 -48.2812 1.6982 96
-0.6401 -5.0312 -0.647 246
-0.6353 -4.9922 -0.5244 220
-0.6733 -5.292999999999999 -0.4321 48
-0.833 -6.546900000000001 -0.07629999999999999 13
-0.6523 -4.9883 -0.8798999999999999 171
-0.8593999999999999 -6.574199999999999 0.0766 150
-0.6484000000000001 -4.9609 -0.7563 175
-6.3164 -48.3125 1.7002000000000002 106
-0.6553 -5.0078 -0.6445000000000001 209
-5.9453 -45.4688 2.6660000000000004 122
-0.6567000000000001 -5.0195 -0.5278 173
-6.5273 -49.9062 4.1094 28
-0.6968000000000001 -5.328099999999999 -0.4353 14
-0.8554999999999999 -6.542999999999999 -0.07629999999999999 50
-0.6581999999999999 -4.9023 -0.8647 23
-0.8823000000000001 -6.5703 0.0766 79
-0.6646 -4.9453 -0.7544 170
-5.9727 -44.4688 1.5654 130
-0.6655 -4.9531 -0.6377 234
-6.144500000000001 -45.75 2.6836 240
-0.6781999999999999 -5.0508 -0.5307999999999999 129
-0.7065 -5.2578 -0.42969999999999997 213
-0.8804000000000001 -6.550800000000001 -0.0764 19
-0.6631 -4.8086 -0.8486 213
-0.9126000000000001 -6.6172 0.07719999999999999 2
-0.688 -4.9922 -0.7617 7
-6.546900000000001 -47.4688 1.6719 10
-0.6812 -4.9414 -0.6362 239
-6.359400000000001 -46.125 2.707 249
-0.6958 -5.0469 -0.5307999999999999 226
-6.949199999999999 -50.375 4.1523 49
-0.7284999999999999 -5.2852 -0.4321 221
-0.6787000000000001 -4.8008 -0.8472 143
-0.9272 -6.5547 0.0765 127
-0.7031000000000001 -4.9727 -0.7593000000000001 11
-6.292999999999999 -44.5 1.5674000000000001 223
-0.7026 -4.9688 -0.6401 120
-6.4961 -45.9062 2.6952999999999996 21
-0.7090000000000001 -5.0156 -0.5278 94
-0.7515000000000001 -5.3125 -0.4346 92
-1.0127 -7.1640999999999995 -0.2507 241
-0.6948000000000001 -4.793 -0.8467 217
-0.9517 -6.5664 0.0767 168
-0.7188 -4.957 -0.7573000000000001 113
-6.4688 -44.625 1.5722999999999998 122
-0.7197 -4.9648 -0.6396000000000001 143
-6.605499999999999 -45.5625 2.6757999999999997 135
-0.7265999999999999 -5.0117 -0.5278 6
-0.7709999999999999 -5.3203 -0.4353 30
-1.04 -7.171900000000001 -0.25120000000000003 97
-0.7134 -4.8008 -0.8486 192
-0.9745999999999999 -6.5625 0.0767 43
-0.7373000000000001 -4.9609 -0.7583 13
-6.5312 -43.9688 1.5497999999999998 98
-0.7383 -4.9688 -0.6406000000000001 63
-6.7578 -45.5 2.6738 77
-0.7441 -5.0078 -0.5278 255
-0.7909999999999999 -5.324199999999999 -0.436 211
-0.7314 -4.8086 -0.8501000000000001 187
-1.002 -6.5859000000000005 0.077 52
-0.7529 -4.9492 -0.7568 15
-6.734400000000001 -44.25 1.5615 61
-0.7529 -4.9492 -0.6386999999999999 76
-6.832000000000001 -44.9062 2.6406 194
-0.7617 -5.0078 -0.5278 219
-0.8070999999999999 -5.3047 -0.4346 24
-1.0439 -6.863300000000001 -0.24059999999999998 39
-0.7451000000000001 -4.7852 -0.8467 151
-1.0273 -6.5977 0.07719999999999999 135
-0.7744 -4.9727 -0.7612000000000001 24
-6.9062 -44.3438 1.5654 133
-0.7783 -5.0 -0.645 110
-0.7793000000000001 -5.0039 -0.5278 129
-7.519500000000001 -48.2812 3.9882999999999997 104
-0.8281000000000001 -5.3164 -0.436 116
-1.0703 -6.875 -0.2412 3
-0.7612000000000001 -4.7773 -0.8456999999999999 16
-1.0469 -6.5703 0.07690000000000001 178
-0.7944 -4.9883 -0.7637 85
-7.0390999999999995 -44.1875 1.5605000000000002 120
-0.7993000000000001 -5.0156 -0.6479 192
-0.7964 -5.0 -0.5278 128
-7.671900000000001 -48.1562 3.9805 152
-0.8486 -5.328099999999999 -0.43700000000000006 21
-6.5859000000000005 -41.3438 5.3789 149
-1.0635 -6.671900000000001 -0.2341 249
-0.7827 -4.8086 -0.8515999999999999 25
-1.0723 -6.582000000000001 0.0771 77
-0.8188 -5.0273 -0.7705 181
-7.265599999999999 -44.625 1.5771000000000002 179
-0.8218000000000001 -5.0469 -0.6523 112
-7.519500000000001 -46.1875 2.7188 18
-0.8637999999999999 -5.3047 -0.4353 132
-6.6602 -40.9062 5.324199999999999 23
-1.0518 -6.457000000000001 -0.2267 187
-0.8018000000000001 -4.8164 -0.8534999999999999 179
-1.0937999999999999 -6.574199999999999 0.077 133
-0.8286 -4.9805 -0.7631999999999999 47
-0.8398 -5.0469 -0.6523 157
-7.6797 -46.125 2.7188 75
-0.8315 -4.9961 -0.5278 126
-7.5859000000000005 -45.5938 3.7714999999999996 106
-0.8848 -5.3164 -0.4365 172
-6.703099999999999 -40.2812 5.2461 70
-1.0752 -6.457000000000001 -0.2268 136
-0.8247 -4.8594 -0.8618000000000001 134
-1.1201 -6.6015999999999995 0.0774 217
-0.8506 -5.0117 -0.7686 196
-0.8573999999999999 -5.0547 -0.6537999999999999 218
-7.613300000000001 -44.875 2.6445 210
-0.8804000000000001 -5.1875 -0.5483 31
-7.6953 -45.375 3.7539 97
-0.9004000000000001 -5.3047 -0.436 177
-6.6602 -39.25 4.1797 84
-1.2822 -7.5547 -0.08869999999999999 226
-0.8545 -4.9375 -0.8759999999999999 138
-1.1436 -6.605499999999999 0.0775 173
-0.8662000000000001 -5.0039 -0.7681 25
-0.8711 -5.0312 -0.6514 227
-7.7422 -44.7188 2.6387 151
-7.019500000000001 -40.5312 3.3574 124
-0.9140999999999999 -5.2812 -0.4341 165
-6.457000000000001 -37.3125 3.9745999999999997 225
-1.1494 -6.640599999999999 -0.2335 102
-0.8462000000000001 -4.7812 -0.8486 68
-1.1689 -6.6015999999999995 0.0775 135
-0.8856999999999999 -5.0 -0.7681 106
-0.894 -5.0508 -0.6543000000000001 139
-7.9062 -44.6562 2.6367000000000003 80
-0.8828 -4.9883 -0.5278 109
-6.1211 -34.5625 2.8651999999999997 42
-0.9473 -5.3515999999999995 -0.44020000000000004 145
-6.5938 -37.2188 3.9688 113
-1.3574000000000002 -7.6640999999999995 -0.0901 211
-0.8715999999999999 -4.8242 -0.8569 87
-1.1875 -6.574199999999999 0.07719999999999999 92
-0.9009 -4.9883 -0.7661 254
-7.1328 -39.4688 1.3994 82
-0.9106000000000001 -5.043 -0.6537999999999999 215
-7.0352 -38.9375 2.3008 238
-0.9697 -5.3672 -0.44189999999999996 105
-6.7109000000000005 -37.1562 3.9629000000000003 232
-1.4013999999999998 -7.7539 -0.2734 50
-1.3769999999999998 -7.6211 -0.0897 175
-0.9218999999999999 -5.0039 -0.8896 11
-1.2129 -6.582000000000001 0.0774 68
-0.9189 -4.9883 -0.7666 135
-7.2422 -39.3125 1.3936000000000002 67
