# .PCD v0.7 - Point Cloud Data file format
VERSION 0.7
FIELDS x y z intensity
SIZE 4 4 4 4
TYPE F F F F
COUNT 1 1 1 1
WIDTH 1420
HEIGHT 1
VIEWPOINT 0 0 0 1 0 0 0
POINTS 1420
DATA ascii
2.3457 -1.5137 -0.48460000000000003 44
2.5781 -1.6641 0.035 102
2.4805 -1.6006 -0.4436 187
2.8339999999999996 -1.8281 0.11599999999999999 14
2.502 -1.6143 -0.3774 153
11.8125 -7.625 0.8154 116
2.5234 -1.6288999999999998 -0.311 168
11.8203 -7.6289 1.1455 107
2.5176 -1.625 -0.24109999999999998 28
11.835899999999999 -7.636699999999999 1.4756 129
2.5039 -1.6162 -0.17079999999999998 160
11.8281 -7.6328 1.8047 129
2.5566 -1.6494 -0.10439999999999999 38
11.843800000000002 -7.644500000000001 2.1426 155
2.5312 -1.6347999999999998 -0.034300000000000004 136
11.835899999999999 -7.636699999999999 2.4766 85
2.3438 -1.5234 -0.4854 104
2.5664 -1.6669999999999998 0.0349 9
2.4609 -1.5986000000000002 -0.4409 125
2.8242000000000003 -1.835 0.1158 225
2.5059 -1.6288999999999998 -0.37920000000000004 63
11.8281 -7.6875 0.8184 235
2.5117 -1.6328 -0.3103 37
11.8203 -7.6836 1.1484 167
2.5117 -1.6328 -0.24109999999999998 234
11.851600000000001 -7.699199999999999 1.4805000000000001 207
2.5137 -1.6338 -0.1718 173
11.8203 -7.6797 1.8075999999999999 122
2.5449 -1.6533000000000002 -0.1041 93
11.843800000000002 -7.6953 2.1465 207
2.5312 -1.6455000000000002 -0.0344 173
11.851600000000001 -7.699199999999999 2.4844 202
2.332 -1.5263999999999998 -0.4841 108
2.5645 -1.6787 0.0349 190
2.4492 -1.6035 -0.4399 114
2.7598000000000003 -1.8066 0.1133 235
2.5039 -1.6396000000000002 -0.3796 159
3.9844 -2.6074 0.27440000000000003 230
2.5156 -1.6475 -0.3115 242
2.5039 -1.6387 -0.2407 183
2.5156 -1.6465 -0.1722 17
2.5312 -1.6572 -0.1039 252
11.851600000000001 -7.7578 2.1523 141
2.5312 -1.6572 -0.0345 179
11.835899999999999 -7.75 2.4863 113
2.3301 -1.5371000000000001 -0.48460000000000003 233
2.5723000000000003 -1.6972999999999998 0.0351 76
2.4395 -1.6094 -0.43920000000000003 174
2.7461 -1.8125 0.1131 158
2.4883 -1.6425999999999998 -0.3779 145
3.9355 -2.5957 0.27149999999999996 151
2.5137 -1.6582 -0.312 61
2.4941 -1.6455000000000002 -0.2404 97
2.5156 -1.6591999999999998 -0.1726 214
2.5312 -1.6699000000000002 -0.1041 243
4.6992 -3.1016000000000004 0.8521 84
2.5195 -1.6621000000000001 -0.0344 11
11.843800000000002 -7.8164 2.4941 67
2.3105 -1.5361000000000002 -0.4819 167
2.5625 -1.7041 0.0351 198
2.4316 -1.6172 -0.4387 148
2.7266000000000004 -1.8125 0.1125 158
2.4785 -1.6484 -0.3774 99
3.8848000000000003 -2.582 0.2688 45
2.5039 -1.665 -0.3115 125
2.498 -1.6611000000000002 -0.2413 194
2.502 -1.6641 -0.1721 79
4.5703 -3.0391000000000004 0.7006999999999999 161
2.5312 -1.6836000000000002 -0.10439999999999999 114
4.625 -3.0742000000000003 0.8398 66
2.5137 -1.6709 -0.0344 10
12.1875 -8.1016 2.5742000000000003 3
2.2852 -1.5322 -0.4778 76
2.5508 -1.709 0.035 247
2.4219 -1.624 -0.4382 25
2.7031 -1.8115 0.1118 254
2.4824 -1.6641 -0.37920000000000004 239
3.8047000000000004 -2.5508 0.2639 83
2.4922 -1.6699000000000002 -0.3105 115
4.582 -3.0702999999999996 0.4468 234
2.502 -1.6768 -0.24230000000000002 129
4.582 -3.0702999999999996 0.5747 182
2.4922 -1.6709 -0.17190000000000003 6
4.5312 -3.0351999999999997 0.6958 97
2.5332 -1.6982 -0.1047 34
12.156199999999998 -8.1484 2.2246 239
2.5117 -1.6836000000000002 -0.0345 65
12.1797 -8.1641 2.5781 40
2.2871 -1.5438999999999998 -0.4792 254
2.5332 -1.7109 0.0349 110
2.4023 -1.6221 -0.4355 70
2.6895 -1.8163999999999998 0.1116 133
2.4863 -1.6797 -0.38060000000000005 94
3.752 -2.5352 0.2607 86
2.4922 -1.6825999999999999 -0.3115 202
4.5586 -3.0781 0.4458 25
2.5 -1.6875 -0.2427 192
4.5664 -3.0839999999999996 0.5747 18
2.4902 -1.6816 -0.1721 137
4.5508 -3.0742000000000003 0.7012 34
2.5176 -1.7002000000000002 -0.1043 140
12.0469 -8.1328 2.2109 214
2.5156 -1.6991999999999998 -0.0346 169
12.1875 -8.2266 2.5858999999999996 42
2.2812 -1.5518 -0.4792 140
2.5352 -1.7246000000000001 0.0349 19
2.3926 -1.6279 -0.43479999999999996 74
2.6641000000000004 -1.8125 0.1107 250
2.4746 -1.6836000000000002 -0.3796 139
3.6387 -2.4746 0.2534 108
2.4922 -1.6963 -0.3123 237
4.3516 -2.9608999999999996 0.4263 154
2.4844 -1.6894999999999998 -0.24170000000000003 200
2.4902 -1.6943000000000001 -0.1726 255
4.5586 -3.1016000000000004 0.7036 90
2.502 -1.7021000000000002 -0.1039 52
12.093800000000002 -8.2266 2.2246 56
2.5176 -1.7128999999999999 -0.0347 129
12.1953 -8.2969 2.5938 117
2.2754 -1.5605000000000002 -0.4792 248
2.5352 -1.7383000000000002 0.035 54
2.377 -1.6288999999999998 -0.4329 79
2.6426 -1.8115 0.1101 94
2.4688 -1.6924000000000001 -0.3796 53
3.4922000000000004 -2.3926 0.24350000000000002 174
2.4902 -1.7069999999999999 -0.3127 124
4.3438 -2.9766000000000004 0.4263 9
2.4785 -1.6982 -0.24170000000000003 124
2.4941 -1.71 -0.17329999999999998 89
12.1094 -8.2969 1.8828 124
2.5098 -1.7197 -0.10439999999999999 189
12.1172 -8.3047 2.2324 54
2.502 -1.7147999999999999 -0.0346 242
12.1797 -8.3516 2.5957 63
2.2559 -1.5556999999999999 -0.4756 214
2.543 -1.7549000000000001 0.0352 111
2.3809 -1.6425999999999998 -0.4346 24
2.6211 -1.8086000000000002 0.1094 132
2.4512 -1.6913999999999998 -0.3774 171
3.3398000000000003 -2.3047 0.2334 217
2.4922 -1.7197 -0.3135 224
2.4785 -1.7109 -0.24230000000000002 175
2.4863 -1.7158000000000002 -0.17309999999999998 124
12.039100000000001 -8.3047 1.876 72
2.5137 -1.7344 -0.10490000000000001 121
12.085899999999999 -8.3359 2.2324 4
2.4863 -1.7168 -0.0344 208
12.1797 -8.4062 2.6016000000000004 166
2.2402 -1.5566 -0.4736 30
2.5234 -1.7538999999999998 0.035 38
2.3691 -1.6465 -0.43329999999999996 44
2.6113 -1.8144999999999998 0.1093 74
2.4551 -1.7061000000000002 -0.37920000000000004 32
3.2363 -2.25 0.2267 103
2.4785 -1.7236000000000002 -0.3127 162
2.4766 -1.7216999999999998 -0.2427 168
2.4785 -1.7227000000000001 -0.17300000000000001 18
12.0547 -8.3828 1.8838 169
2.5078 -1.7431999999999999 -0.10490000000000001 204
12.0781 -8.3906 2.2363 254
2.4922 -1.7324000000000002 -0.0346 53
12.1797 -8.4609 2.6074 220
2.2402 -1.5693000000000001 -0.47509999999999997 161
2.5117 -1.7588 0.0349 213
2.3535 -1.6484 -0.4316 14
2.5995999999999997 -1.8213 0.1091 166
2.459 -1.7216999999999998 -0.38060000000000005 45
3.1816000000000004 -2.2285 0.2234 128
2.4707 -1.7305000000000001 -0.3123 140
2.4805 -1.7372999999999998 -0.2437 63
2.4746 -1.7334 -0.17309999999999998 245
2.498 -1.75 -0.1047 0
12.125 -8.4922 2.25 199
2.4941 -1.7471 -0.0347 62
12.1719 -8.5234 2.6132999999999997 109
2.2266 -1.5703 -0.4729 161
2.5078 -1.7694999999999999 0.035 165
2.3379 -1.6494 -0.42969999999999997 24
2.5762 -1.8174000000000001 0.10830000000000001 81
2.4551 -1.7324000000000002 -0.3811 191
3.1523000000000003 -2.2246 0.2218 61
2.4727 -1.7450999999999999 -0.3135 154
2.4707 -1.7431999999999999 -0.2433 27
2.4785 -1.749 -0.17379999999999998 13
4.2617 -3.0077999999999996 0.6655 139
2.4922 -1.7588 -0.1047 212
12.1406 -8.5703 2.2598 139
2.4961 -1.7616999999999998 -0.0348 228
12.1875 -8.6016 2.623 176
2.2227 -1.5811000000000002 -0.4736 25
2.5156 -1.7881 0.0352 183
2.332 -1.6572 -0.42969999999999997 208
2.5586 -1.8184 0.10779999999999999 83
2.4395 -1.7344 -0.3796 143
3.1074 -2.209 0.2192 14
2.4707 -1.7568000000000001 -0.314 239
2.4551 -1.7450999999999999 -0.24230000000000002 194
2.4785 -1.7616999999999998 -0.17420000000000002 178
2.4883 -1.7694999999999999 -0.10490000000000001 96
2.4766 -1.7616999999999998 -0.0346 142
12.1172 -8.6094 2.6132999999999997 105
2.2109 -1.584 -0.4722 115
2.502 -1.7919999999999998 0.0351 123
2.3301 -1.6680000000000001 -0.4304 140
2.5488 -1.8252000000000002 0.10769999999999999 97
2.4297 -1.7402000000000002 -0.37920000000000004 93
3.0683999999999996 -2.1973 0.2169 193
2.4707 -1.7694999999999999 -0.31489999999999996 158
2.4609 -1.7627000000000002 -0.2437 139
2.4648 -1.7656 -0.17379999999999998 122
2.4863 -1.7803 -0.105 220
4.3203 -3.0938 0.8037000000000001 202
2.4688 -1.7675999999999998 -0.0346 63
12.0078 -8.6016 2.5957 68
2.1953 -1.585 -0.4702 179
2.4961 -1.8008000000000002 0.0351 179
2.3223 -1.6758000000000002 -0.4299 30
2.5391 -1.8330000000000002 0.1076 111
2.4297 -1.7538999999999998 -0.3801 68
3.0039 -2.168 0.21289999999999998 131
2.4609 -1.7763999999999998 -0.3145 109
2.459 -1.7744 -0.244 189
2.4531 -1.7705000000000002 -0.17329999999999998 199
2.4844 -1.7930000000000001 -0.1052 251
2.4727 -1.7852000000000001 -0.0348 3
2.1914 -1.5928 -0.4702 143
2.4863 -1.8075999999999999 0.035 207
2.3066 -1.6768 -0.4282 141
2.5449 -1.8506 0.1081 198
2.4238 -1.7627000000000002 -0.3801 106
2.9901999999999997 -2.1738 0.21239999999999998 45
2.4492 -1.7803 -0.3135 220
2.4648 -1.7919999999999998 -0.2452 11
2.4492 -1.7812000000000001 -0.1736 153
2.4727 -1.7988 -0.105 238
2.4707 -1.7959 -0.0348 212
4.2266 -3.0723000000000003 0.9140999999999999 25
2.1875 -1.6025 -0.47090000000000004 78
2.4824 -1.8184 0.0351 239
2.2988 -1.6825999999999999 -0.428 90
2.5332 -1.8555000000000001 0.10779999999999999 131
2.4199 -1.7715 -0.3804 13
2.9707 -2.1758 0.2115 175
2.4453 -1.791 -0.314 128
2.4473 -1.791 -0.244 188
2.4609 -1.8008000000000002 -0.1747 101
2.4668 -1.8066 -0.105 59
2.4707 -1.8086000000000002 -0.0349 117
4.2305 -3.0976999999999997 0.9175 57
2.1855 -1.6113 -0.4714 85
2.4844 -1.8311000000000002 0.0352 203
2.2891 -1.6875 -0.42700000000000005 88
2.5176 -1.8563999999999998 0.1074 241
2.4102 -1.7772999999999999 -0.3799 45
2.9276999999999997 -2.1582 0.209 116
2.4492 -1.8056999999999999 -0.3152 172
2.4395 -1.7988 -0.244 85
2.457 -1.8115 -0.17489999999999997 85
2.4688 -1.8203 -0.10529999999999999 111
2.4609 -1.8144999999999998 -0.0349 200
2.1621 -1.6055000000000001 -0.4673 237
2.4805 -1.8428 0.0352 170
2.2812 -1.6943000000000001 -0.4268 234
2.5117 -1.8652000000000002 0.1074 183
2.4043 -1.7861000000000002 -0.3799 244
2.8945 -2.1504 0.2072 167
2.4492 -1.8193000000000001 -0.31620000000000004 165
2.4395 -1.8125 -0.2446 237
2.4492 -1.8193000000000001 -0.1748 65
2.4668 -1.8319999999999999 -0.10550000000000001 72
2.4551 -1.8232 -0.0349 79
2.1484 -1.6084 -0.4661 231
2.4707 -1.8486000000000002 0.0352 194
2.2812 -1.7069999999999999 -0.428 63
2.5176 -1.8838 0.10800000000000001 244
2.4062 -1.8008000000000002 -0.3811 26
2.8613 -2.1406 0.2052 142
2.4336 -1.8213 -0.31489999999999996 104
2.4395 -1.8262 -0.2452 209
2.4336 -1.8203 -0.1741 223
2.4629 -1.8428 -0.1056 177
2.4473 -1.8319999999999999 -0.0349 201
2.1445 -1.6172 -0.46630000000000005 210
2.4609 -1.8555000000000001 0.0351 53
2.2637 -1.7069999999999999 -0.42579999999999996 124
2.502 -1.8866999999999998 0.10769999999999999 246
2.3926 -1.8027000000000002 -0.3799 254
2.8438 -2.1445 0.2046 80
2.4277 -1.8291 -0.31489999999999996 132
2.4395 -1.8397999999999999 -0.24600000000000002 137
2.4375 -1.8378999999999999 -0.17489999999999997 237
2.4531 -1.8496000000000001 -0.10550000000000001 224
2.4551 -1.8506 -0.035 2
2.1465 -1.6299000000000001 -0.4678 50
2.4668 -1.8730000000000002 0.0353 43
2.252 -1.71 -0.42460000000000003 234
2.4902 -1.8906 0.1074 179
2.3906 -1.8154 -0.38060000000000005 178
2.832 -2.1504 0.20420000000000002 225
2.4277 -1.8428 -0.3157 179
2.4238 -1.8408000000000002 -0.245 84
2.4336 -1.8486000000000002 -0.1752 202
2.4434 -1.8555000000000001 -0.10529999999999999 112
2.4473 -1.8584 -0.035 140
2.1406 -1.6366999999999998 -0.4678 196
2.457 -1.8799000000000001 0.0353 46
2.2402 -1.7138999999999998 -0.4238 3
2.4844 -1.9003999999999999 0.1074 174
2.3789 -1.8193000000000001 -0.3799 212
2.7891000000000004 -2.1328 0.20170000000000002 219
2.4316 -1.8594 -0.3171 18
2.4219 -1.8516 -0.2452 179
2.4316 -1.8594 -0.1754 121
2.4473 -1.8711000000000002 -0.1058 103
2.4414 -1.8672 -0.035 105
2.1289 -1.6396000000000002 -0.46630000000000005 60
2.4609 -1.8955000000000002 0.0354 79
2.2305 -1.7178 -0.4229 191
2.4688 -1.9013999999999998 0.107 113
2.3652 -1.8222999999999998 -0.3784 179
2.7637 -2.1289 0.2002 29
2.4277 -1.8700999999999999 -0.3176 120
2.418 -1.8622999999999998 -0.24559999999999998 102
2.4238 -1.8681999999999999 -0.1754 235
2.4473 -1.8847999999999998 -0.106 128
2.4316 -1.8730000000000002 -0.035 209
2.123 -1.6475 -0.46630000000000005 181
2.4512 -1.9013999999999998 0.0354 61
2.2363 -1.7353999999999998 -0.4253 102
2.4688 -1.915 0.1073 26
2.3633 -1.834 -0.37939999999999996 159
2.7363 -2.123 0.1989 230
2.4219 -1.8788999999999998 -0.3176 174
2.4199 -1.8779 -0.2466 113
2.416 -1.874 -0.1752 187
2.4395 -1.8936000000000002 -0.106 86
2.4277 -1.8828 -0.035 87
2.123 -1.6591999999999998 -0.4678 235
2.4414 -1.9072 0.0353 16
2.2207 -1.7353999999999998 -0.42310000000000003 11
2.4746 -1.9336000000000002 0.10779999999999999 239
2.3574 -1.8418 -0.37939999999999996 66
2.7129000000000003 -2.1211 0.1978 192
2.4121 -1.8847999999999998 -0.3171 201
2.418 -1.8887 -0.2469 176
2.4141 -1.8877000000000002 -0.1757 43
2.4297 -1.8994 -0.1059 89
2.4414 -1.9072 -0.0353 53
2.123 -1.6719 -0.469 19
2.4395 -1.9199000000000002 0.0354 0
2.1992 -1.7313999999999998 -0.4204 193
2.457 -1.9346 0.1074 123
2.3496 -1.8486000000000002 -0.37920000000000004 219
2.6933999999999996 -2.1211 0.1968 191
2.4082 -1.8955000000000002 -0.3176 169
2.4102 -1.8975 -0.2469 186
2.418 -1.9033000000000002 -0.17629999999999998 204
2.4238 -1.9072 -0.1059 80
2.4395 -1.9209 -0.0354 27
2.1172 -1.6787 -0.469 203
2.4336 -1.9297 0.0354 150
2.1953 -1.7402000000000002 -0.4207 131
2.4473 -1.9394999999999998 0.1072 110
2.3301 -1.8477000000000001 -0.377 156
2.668 -2.1152 0.1954 205
2.4082 -1.9091999999999998 -0.3184 214
3.3007999999999997 -2.6172000000000004 0.3403 205
2.4004 -1.9033000000000002 -0.2466 5
2.4199 -1.9188999999999998 -0.177 188
2.4238 -1.9209 -0.10619999999999999 66
2.4277 -1.9247999999999998 -0.0353 247
2.1094 -1.6836000000000002 -0.4685 206
2.4336 -1.9424000000000001 0.0355 244
2.1992 -1.7549000000000001 -0.4226 11
2.4395 -1.9482 0.1072 156
2.3145 -1.8477000000000001 -0.37549999999999994 54
2.6445 -2.1113 0.1942 177
2.4082 -1.9219 -0.3193 54
3.2382999999999997 -2.5858999999999996 0.3347 181
2.3984 -1.9141 -0.2469 154
2.4082 -1.9219 -0.1765 198
2.4297 -1.9394999999999998 -0.10679999999999999 29
2.4121 -1.9247999999999998 -0.0352 90
2.0938 -1.6825999999999999 -0.46630000000000005 145
2.4336 -1.9561000000000002 0.0356 202
2.1836 -1.7549000000000001 -0.4207 148
2.4473 -1.9668 0.10779999999999999 199
2.3125 -1.8594 -0.3762 233
2.623 -2.1074 0.193 39
2.4023 -1.9297 -0.3193 105
3.2148000000000003 -2.5839999999999996 0.3333 184
2.4004 -1.9297 -0.24789999999999998 56
2.4004 -1.9297 -0.1765 16
2.4258 -1.9491999999999998 -0.1069 251
2.4141 -1.9404 -0.0353 114
2.0977 -1.6982 -0.4685 233
2.4199 -1.96 0.0355 61
2.168 -1.7559 -0.4189 97
2.4395 -1.9766 0.10779999999999999 111
2.3047 -1.8662 -0.376 238
2.6055 -2.1094 0.1924 7
2.3965 -1.9413999999999998 -0.3196 239
3.1738 -2.5702999999999996 0.3298 235
2.4023 -1.9463 -0.2489 179
2.3965 -1.9413999999999998 -0.17679999999999998 167
2.416 -1.9561000000000002 -0.10679999999999999 181
2.416 -1.9569999999999999 -0.0355 37
2.0938 -1.7080000000000002 -0.469 0
2.4121 -1.9687999999999999 0.0355 5
2.1562 -1.7597999999999998 -0.418 156
2.4277 -1.9813999999999998 0.10769999999999999 255
2.2988 -1.876 -0.3762 199
2.6016000000000004 -2.1211 0.19260000000000002 188
2.3906 -1.9502000000000002 -0.3196 250
3.1406 -2.5625 0.3274 172
2.3887 -1.9491999999999998 -0.2482 131
2.3926 -1.9521000000000002 -0.177 41
2.4043 -1.9619 -0.1066 215
2.4121 -1.9687999999999999 -0.0355 73
2.0977 -1.7246000000000001 -0.4714 90
2.418 -1.9872999999999998 0.035699999999999996 43
2.1582 -1.7734 -0.4194 64
2.416 -1.9863 0.1074 17
2.2832 -1.876 -0.37479999999999997 121
2.5586 -2.1035 0.19010000000000002 34
2.3926 -1.9658000000000002 -0.3208 143
3.127 -2.5683999999999996 0.32689999999999997 64
2.377 -1.9531 -0.24760000000000001 95
2.3926 -1.9658000000000002 -0.1775 70
2.4082 -1.9785 -0.107 244
2.4062 -1.9766 -0.0355 156
2.0879 -1.7275 -0.4705 92
2.4141 -1.9980000000000002 0.035699999999999996 131
2.1543 -1.7822 -0.4199 133
2.4199 -2.002 0.10779999999999999 212
2.2656 -1.874 -0.3726 241
2.5332 -2.0957 0.1886 84
2.3789 -1.9678 -0.31980000000000003 233
3.1016000000000004 -2.5664 0.32520000000000004 103
2.375 -1.9647999999999999 -0.248 217
2.3828 -1.9716999999999998 -0.1772 64
2.4043 -1.9902000000000002 -0.1072 34
2.3965 -1.9824000000000002 -0.0355 159
2.0781 -1.7324000000000002 -0.4697 209
2.4043 -2.0039 0.035699999999999996 88
2.1523 -1.7938999999999998 -0.4207 119
2.4219 -2.0176 0.10830000000000001 218
2.2578 -1.8818000000000001 -0.3726 118
2.5117 -2.0938 0.18760000000000002 236
2.3691 -1.9736000000000002 -0.3193 50
3.0781 -2.5645 0.3235 217
2.3809 -1.9844 -0.2495 220
2.375 -1.9805000000000001 -0.1772 243
2.4043 -2.0039 -0.1075 25
2.3926 -1.9931999999999999 -0.0355 102
2.0781 -1.7450999999999999 -0.47119999999999995 63
2.3945 -2.0098 0.0356 162
2.1367 -1.7938999999999998 -0.4189 15
2.4199 -2.0312 0.10859999999999999 245
2.2539 -1.8925999999999998 -0.37329999999999997 120
2.498 -2.0977 0.18710000000000002 50
2.3574 -1.9794999999999998 -0.3191 196
3.0507999999999997 -2.5605 0.3215 64
2.375 -1.9941 -0.24960000000000002 78
2.3789 -1.9961000000000002 -0.17800000000000002 248
2.3906 -2.0078 -0.1072 4
2.3965 -2.0117 -0.035699999999999996 1
2.082 -1.7597999999999998 -0.4731 143
2.3926 -2.0234 0.035699999999999996 144
2.1152 -1.7881 -0.4158 240
2.4082 -2.0371 0.10830000000000001 193
2.252 -1.9033000000000002 -0.3738 22
2.4883 -2.1035 0.1869 5
2.3613 -1.9950999999999999 -0.32030000000000003 124
3.0117000000000003 -2.5469 0.3186 119
2.3633 -1.9971 -0.249 179
2.375 -2.0078 -0.1782 56
2.3926 -2.0234 -0.10769999999999999 1
2.3926 -2.0234 -0.035699999999999996 121
2.084 -1.7734 -0.47509999999999997 83
2.3926 -2.0371 0.0358 29
2.123 -1.8075999999999999 -0.41869999999999996 90
2.3945 -2.0391 0.10800000000000001 167
2.2383 -1.9053 -0.3726 178
2.4863 -2.1152 0.1873 58
2.3574 -2.0059 -0.3208 4
2.998 -2.5527 0.3179 213
2.3633 -2.0117 -0.24989999999999998 83
2.377 -2.0234 -0.1788 92
2.3809 -2.0273 -0.1074 150
2.3809 -2.0254 -0.0356 168
2.0723 -1.7763999999999998 -0.4739 8
2.3906 -2.0488 0.0359 190
2.125 -1.8222999999999998 -0.4204 91
2.3965 -2.0547 0.1084 190
2.2207 -1.9022999999999999 -0.37060000000000004 7
2.4707 -2.1172 0.1866 239
2.3613 -2.0254 -0.3223 230
2.9805 -2.5547 0.3169 144
2.3555 -2.0176 -0.24960000000000002 251
2.3613 -2.0234 -0.1782 65
2.3848 -2.043 -0.10779999999999999 71
2.377 -2.0371 -0.035699999999999996 85
2.0645 -1.7812000000000001 -0.4731 24
2.3789 -2.0527 0.0358 169
2.1191 -1.8291 -0.4204 137
2.3965 -2.0664 0.10869999999999999 215
2.2207 -1.9169999999999998 -0.3718 156
2.457 -2.1211 0.1862 3
2.3477 -2.0254 -0.32130000000000003 91
2.9608999999999996 -2.5547 0.3157 255
2.3613 -2.0371 -0.251 253
2.3574 -2.0332 -0.17850000000000002 158
2.3887 -2.0605 -0.10830000000000001 189
2.375 -2.0508 -0.0358 25
2.0664 -1.7959 -0.4753 22
2.375 -2.0645 0.0359 251
2.1094 -1.834 -0.4199 237
2.3965 -2.084 0.1091 242
2.209 -1.9209 -0.3711 14
2.4512 -2.1309 0.1863 219
2.3438 -2.0371 -0.3218 225
2.9297000000000004 -2.5469 0.3135 83
2.3555 -2.0488 -0.25120000000000003 225
2.3516 -2.0449 -0.17859999999999998 34
2.3711 -2.0605 -0.1079 236
2.3711 -2.0605 -0.0358 243
2.0684 -1.8115 -0.4775 38
2.3691 -2.0742 0.0359 134
2.0977 -1.8359 -0.41869999999999996 70
2.3809 -2.084 0.10869999999999999 49
2.2051 -1.9316 -0.3716 19
2.4492 -2.1445 0.1866 118
2.3379 -2.0469 -0.322 148
2.8964999999999996 -2.5352 0.31079999999999997 30
2.3496 -2.0566 -0.2515 237
2.3574 -2.0645 -0.1796 126
2.3633 -2.0703 -0.1079 216
2.3691 -2.0742 -0.0359 209
2.0762 -1.8300999999999998 -0.4805 104
2.3691 -2.0879 0.036000000000000004 110
2.0977 -1.8506 -0.4202 15
2.375 -2.0938 0.10880000000000001 101
2.1875 -1.9287 -0.3696 197
2.4395 -2.1504 0.1865 243
2.3457 -2.0684 -0.324 88
2.8711 -2.5312 0.30879999999999996 238
2.3359 -2.0586 -0.2507 29
2.3555 -2.0762 -0.1801 142
2.3691 -2.0879 -0.1085 144
2.3652 -2.0859 -0.036000000000000004 71
2.0625 -1.8311000000000002 -0.4788 5
2.3711 -2.1055 0.0362 123
2.0996 -1.8643 -0.4216 27
2.3711 -2.1055 0.10890000000000001 0
2.1738 -1.9306999999999999 -0.36869999999999997 162
2.4258 -2.1543 0.18600000000000003 25
2.3301 -2.0703 -0.32299999999999995 101
2.8594 -2.5391 0.3086 51
2.3398 -2.0781 -0.252 178
2.3457 -2.082 -0.17980000000000002 148
2.373 -2.1074 -0.1091 112
2.3574 -2.0918 -0.0359 239
2.0488 -1.8330000000000002 -0.4775 28
2.3594 -2.1094 0.0361 127
2.0996 -1.8769999999999998 -0.4229 38
2.373 -2.123 0.1094 196
2.1719 -1.9424000000000001 -0.36939999999999995 89
2.4082 -2.1523 0.18530000000000002 17
2.3262 -2.0801 -0.3235 242
2.8358999999999996 -2.5352 0.3069 141
2.334 -2.0879 -0.2522 101
2.3379 -2.0898 -0.17980000000000002 220
2.3652 -2.1152 -0.1091 210
2.3535 -2.1055 -0.036000000000000004 204
2.0586 -1.8544999999999998 -0.48119999999999996 56
2.3535 -2.1191 0.0361 228
2.0938 -1.8847999999999998 -0.42310000000000003 3
2.373 -2.1367 0.1097 139
2.166 -1.9512 -0.3696 123
2.4121 -2.1719 0.1862 122
2.3184 -2.0879 -0.3235 31
2.8086 -2.5293 0.3049 118
2.3281 -2.0977 -0.2522 128
2.3301 -2.0996 -0.17980000000000002 12
2.3594 -2.125 -0.1091 192
2.3594 -2.123 -0.0362 82
2.0684 -1.876 -0.4851 168
2.3477 -2.1289 0.0362 240
2.0879 -1.8925999999999998 -0.42310000000000003 86
2.3594 -2.1387 0.1094 249
2.1582 -1.9569999999999999 -0.36939999999999995 160
2.4121 -2.1855 0.1866 26
2.3125 -2.0957 -0.3235 125
2.7733999999999996 -2.5137 0.302 225
2.3242 -2.1074 -0.2527 107
2.3301 -2.1113 -0.18030000000000002 143
2.3496 -2.1309 -0.10890000000000001 108
2.3555 -2.1348 -0.0363 227
2.0703 -1.8896000000000002 -0.4868 66
2.3555 -2.1504 0.0364 227
2.0898 -1.9072 -0.425 194
2.3535 -2.1484 0.1094 52
2.1523 -1.9638999999999998 -0.36939999999999995 49
2.4141 -2.2031 0.1875 161
2.3125 -2.1094 -0.3245 49
2.7558999999999996 -2.5156 0.301 125
2.3184 -2.1152 -0.2527 215
2.9882999999999997 -2.7266000000000004 0.4207 188
2.3281 -2.125 -0.1808 165
2.3477 -2.1426 -0.1092 244
2.3457 -2.1406 -0.0362 10
2.0605 -1.8944999999999999 -0.4861 17
2.3594 -2.1699 0.0366 100
2.0859 -1.9180000000000001 -0.4255 144
2.3477 -2.1602 0.1096 120
2.1367 -1.9638999999999998 -0.3679 164
2.3906 -2.1992 0.1863 177
2.3105 -2.125 -0.32520000000000004 77
2.7617000000000003 -2.5391 0.30269999999999997 50
2.3184 -2.1309 -0.25370000000000004 96
2.3242 -2.1367 -0.18100000000000002 63
2.3496 -2.1602 -0.1097 38
2.334 -2.1465 -0.0362 12
2.0527 -1.9013999999999998 -0.4861 95
2.3398 -2.168 0.0364 190
2.0859 -1.9316 -0.42700000000000005 124
2.3516 -2.1777 0.1101 45
2.127 -1.9707 -0.3677 224
2.3828 -2.207 0.1863 163
2.2988 -2.1289 -0.3247 160
2.7226999999999997 -2.5195 0.2993 81
2.3105 -2.1406 -0.25370000000000004 222
2.3125 -2.1426 -0.1808 217
2.3418 -2.168 -0.1097 84
2.3398 -2.166 -0.0364 60
2.0508 -1.9121000000000001 -0.48710000000000003 127
2.3301 -2.1719 0.0363 185
2.0762 -1.9355000000000002 -0.4265 130
2.3516 -2.1934 0.1105 172
2.1309 -1.9853999999999998 -0.3691 146
2.3789 -2.2188 0.1865 193
2.2891 -2.1328 -0.32420000000000004 12
2.7012 -2.5176 0.2979 253
2.3203 -2.1641 -0.2556 2
2.3125 -2.1543 -0.1812 30
2.334 -2.1758 -0.1097 131
2.334 -2.1758 -0.0364 93
2.0605 -1.9325999999999999 -0.4907 222
2.3379 -2.1934 0.0366 77
2.0723 -1.9443000000000001 -0.4268 43
2.3438 -2.1992 0.1104 60
2.125 -1.9941 -0.36939999999999995 223
2.3828 -2.2363 0.1875 52
2.291 -2.1504 -0.3257 237
2.6797000000000004 -2.5156 0.2966 228
2.3105 -2.168 -0.2551 94
2.3164 -2.1738 -0.1821 239
2.3301 -2.1875 -0.10980000000000001 111
2.332 -2.1875 -0.0365 202
2.0586 -1.9453 -0.4919 78
2.3359 -2.207 0.036699999999999997 193
2.0703 -1.9569999999999999 -0.428 68
2.3301 -2.2031 0.11019999999999999 124
2.1152 -1.999 -0.3689 56
2.3809 -2.25 0.188 16
2.2871 -2.1621 -0.3262 102
2.6464999999999996 -2.502 0.2937 162
2.2969 -2.1699 -0.2544 153
2.3145 -2.1875 -0.1826 135
2.3262 -2.1992 -0.11 163
2.3184 -2.1914 -0.0364 236
2.0508 -1.9512 -0.4917 132
2.3398 -2.2266 0.0369 8
2.0703 -1.9716999999999998 -0.4294 130
2.3301 -2.2168 0.1105 110
2.0996 -1.9980000000000002 -0.36719999999999997 18
2.3672 -2.2539 0.1875 102
2.293 -2.1816 -0.3281 226
2.6387 -2.5117 0.2939 5
2.2949 -2.1855 -0.2551 237
2.3027 -2.1934 -0.18239999999999998 88
2.3223 -2.2109 -0.11019999999999999 46
2.3164 -2.2051 -0.0365 88
2.041 -1.9550999999999998 -0.491 179
2.3242 -2.2266 0.036699999999999997 151
2.0762 -1.9893 -0.43189999999999995 77
2.334 -2.2363 0.11109999999999999 225
2.0977 -2.0098 -0.3682 31
2.3594 -2.2598 0.18739999999999998 35
2.2715 -2.1777 -0.3262 170
2.6387 -2.5293 0.2949 177
2.3008 -2.2031 -0.2566 169
2.2969 -2.2012 -0.18239999999999998 97
2.3281 -2.2305 -0.1108 156
2.3086 -2.2129 -0.0365 195
2.0391 -1.9678 -0.4924 25
2.3242 -2.2422 0.0369 36
2.0625 -1.9902000000000002 -0.4307 124
2.334 -2.252 0.1115 181
2.0977 -2.0234 -0.36939999999999995 67
2.3574 -2.2734 0.18789999999999998 212
2.2539 -2.1758 -0.3247 14
2.6132999999999997 -2.5215 0.293 233
2.2988 -2.2168 -0.2571 193
2.2969 -2.2168 -0.18309999999999998 81
2.3125 -2.2324 -0.1104 107
2.3125 -2.2305 -0.036699999999999997 212
2.043 -1.9863 -0.4951 35
2.3184 -2.2539 0.0369 150
2.0547 -1.9971 -0.4304 235
2.3223 -2.2578 0.11130000000000001 242
2.0918 -2.0332 -0.3699 228
2.3594 -2.293 0.1887 95
2.2637 -2.2012 -0.3271 44
2.5683999999999996 -2.4961 0.2888 176
2.2871 -2.2227 -0.2568 89
2.2949 -2.2305 -0.18350000000000002 127
2.3086 -2.2441 -0.1107 199
2.3066 -2.2422 -0.036699999999999997 165
2.0449 -2.002 -0.49729999999999996 133
2.3203 -2.2715 0.037000000000000005 98
2.0547 -2.0117 -0.43189999999999995 132
2.3125 -2.2637 0.1112 194
2.082 -2.0391 -0.36939999999999995 236
2.3574 -2.3066 0.1892 11
2.2637 -2.2168 -0.3284 40
2.5547 -2.5 0.2883 235
2.2812 -2.2344 -0.2571 115
2.2988 -2.25 -0.1844 9
2.3047 -2.2559 -0.1108 20
2.3027 -2.2539 -0.0368 245
2.0352 -2.0059 -0.4966 153
2.3203 -2.2871 0.037200000000000004 6
2.0703 -2.041 -0.4368 104
2.3125 -2.2793 0.1116 80
2.0762 -2.0469 -0.3696 49
2.3496 -2.3164 0.1892 202
2.2598 -2.2266 -0.3289 98
2.5332 -2.4961 0.2869 187
2.2793 -2.2461 -0.2576 48
2.291 -2.2578 -0.1844 129
2.3066 -2.2754 -0.11130000000000001 167
2.2891 -2.2559 -0.036699999999999997 13
2.0293 -2.0156 -0.4968 78
2.3066 -2.2891 0.0371 74
2.0664 -2.0508 -0.43729999999999997 39
2.3145 -2.2969 0.1121 210
2.0742 -2.0605 -0.37060000000000004 238
2.3379 -2.3203 0.18899999999999997 219
2.2383 -2.2227 -0.32689999999999997 67
2.5098 -2.4922 0.2852 22
2.2812 -2.2637 -0.2588 241
2.2773 -2.2598 -0.184 240
2.3047 -2.2891 -0.1116 180
2.293 -2.2754 -0.0369 25
2.0312 -2.0293 -0.499 198
2.3008 -2.3008 0.0371 9
2.0508 -2.0488 -0.4355 152
2.3164 -2.3145 0.1125 246
2.0762 -2.0762 -0.3721 108
2.332 -2.332 0.1892 158
2.2266 -2.2266 -0.3264 63
2.4629 -2.4629 0.2808 184
2.2773 -2.2773 -0.2595 166
2.2832 -2.2832 -0.1852 25
2.2949 -2.2949 -0.1116 198
2.2891 -2.2891 -0.037000000000000005 69
2.0352 -2.0488 -0.502 41
2.2988 -2.3145 0.037200000000000004 113
2.0449 -2.0586 -0.436 61
2.3008 -2.3164 0.11220000000000001 232
2.0684 -2.082 -0.3721 175
2.334 -2.3477 0.18989999999999999 2
2.2227 -2.2383 -0.32689999999999997 44
2.418 -2.4336 0.2766 11
2.2754 -2.2891 -0.26 106
2.2832 -2.2988 -0.1858 41
2.291 -2.3066 -0.1118 133
2.291 -2.3066 -0.0371 8
2.0352 -2.0645 -0.5039 229
2.2988 -2.3301 0.0374 227
2.043 -2.0723 -0.43729999999999997 221
2.293 -2.3242 0.11220000000000001 61
2.0625 -2.0898 -0.3721 45
2.3301 -2.3633 0.19039999999999999 192
2.2207 -2.252 -0.32789999999999997 126
2.4004 -2.4316 0.2754 167
2.2637 -2.2949 -0.2595 185
2.2793 -2.3105 -0.18600000000000003 102
2.2832 -2.3145 -0.1118 34
2.2871 -2.3184 -0.037200000000000004 101
2.0234 -2.0664 -0.5024000000000001 19
2.293 -2.3418 0.0374 109
2.0469 -2.0898 -0.4397 12
2.2891 -2.3379 0.1125 72
2.0508 -2.0938 -0.3716 188
2.3203 -2.3672 0.1902 33
2.2129 -2.2598 -0.32789999999999997 128
2.4023 -2.4512 0.2766 212
2.2656 -2.3125 -0.2607 235
2.2734 -2.3203 -0.1863 246
2.2832 -2.3301 -0.1121 26
2.2773 -2.3242 -0.0371 52
2.0176 -2.0723 -0.5024000000000001 164
2.2891 -2.3516 0.0375 113
2.0586 -2.1133 -0.4434 42
2.3008 -2.3633 0.1133 162
2.0566 -2.1113 -0.3738 57
2.3086 -2.3711 0.1898 206
2.1953 -2.2539 -0.3262 199
2.3945 -2.459 0.2766 134
2.2676 -2.3301 -0.262 177
2.2637 -2.3242 -0.18600000000000003 86
2.2871 -2.3496 -0.1127 83
2.2754 -2.3379 -0.037200000000000004 137
2.0176 -2.0879 -0.5044 93
2.2871 -2.3652 0.037599999999999995 226
2.0488 -2.1172 -0.4426 234
2.2988 -2.3789 0.1137 182
2.0547 -2.125 -0.37479999999999997 192
2.3125 -2.3906 0.19079999999999997 63
2.1816 -2.2559 -0.32520000000000004 125
2.373 -2.4531 0.2751 176
2.2656 -2.3438 -0.2625 39
2.2656 -2.3438 -0.187 36
2.2793 -2.3555 -0.1127 66
2.2793 -2.3555 -0.0374 254
2.0176 -2.1035 -0.5068 194
2.2793 -2.377 0.037599999999999995 74
2.0449 -2.1309 -0.44380000000000003 3
2.2812 -2.3789 0.1133 111
2.0527 -2.1406 -0.376 46
2.3086 -2.4062 0.1913 236
2.1758 -2.2676 -0.3257 25
2.3672 -2.4688 0.2756 40
2.2539 -2.3496 -0.2625 32
2.2617 -2.3594 -0.1875 78
2.2676 -2.3633 -0.11259999999999999 121
2.2793 -2.375 -0.037599999999999995 151
2.0156 -2.1172 -0.5078 49
2.2773 -2.3906 0.0377 25
2.0371 -2.1387 -0.44380000000000003 232
2.2773 -2.3906 0.11349999999999999 146
2.0488 -2.1523 -0.37670000000000003 102
2.3086 -2.4238 0.192 25
2.1719 -2.2812 -0.3267 25
2.3555 -2.4746 0.2754 215
2.2441 -2.3574 -0.2622 147
2.2656 -2.3789 -0.1884 175
2.2734 -2.3887 -0.1133 80
2.2695 -2.3828 -0.037599999999999995 229
2.0117 -2.125 -0.5088 149
2.2754 -2.4043 0.0378 0
2.0469 -2.1621 -0.4475 229
2.2773 -2.4043 0.11380000000000001 223
2.043 -2.1582 -0.37670000000000003 101
2.3027 -2.4336 0.1923 139
2.166 -2.2871 -0.3267 227
2.3633 -2.4961 0.2771 254
2.2422 -2.3691 -0.2627 77
2.252 -2.3789 -0.188 227
2.2754 -2.4043 -0.11380000000000001 158
2.2598 -2.3867 -0.0375 168
2.0098 -2.1387 -0.5103 184
2.2734 -2.416 0.0379 203
2.0488 -2.1777 -0.4495 25
2.2773 -2.4219 0.1143 189
2.0391 -2.168 -0.3772 136
2.2871 -2.4316 0.19149999999999998 252
2.1621 -2.2988 -0.3271 167
2.3535 -2.502 0.27690000000000003 239
2.248 -2.3906 -0.2644 9
2.2422 -2.3848 -0.1877 186
2.2695 -2.4141 -0.114 32
2.2617 -2.4062 -0.0377 136
2.0137 -2.1562 -0.5127 205
2.2578 -2.4199 0.0378 236
2.0371 -2.1836 -0.4487 22
2.2734 -2.4355 0.11460000000000001 129
2.043 -2.1875 -0.3796 185
2.2852 -2.4492 0.1923 35
2.1445 -2.2969 -0.3257 229
2.3359 -2.5039 0.2761 30
2.2383 -2.3984 -0.2644 253
2.2461 -2.4062 -0.1888 130
2.2637 -2.4258 -0.11410000000000001 169
2.2617 -2.4238 -0.0379 1
2.0156 -2.1758 -0.5156000000000001 113
2.2598 -2.4395 0.038 99
2.0312 -2.1934 -0.4495 28
2.2676 -2.4473 0.11470000000000001 54
2.0449 -2.2051 -0.38130000000000003 74
2.293 -2.4746 0.1936 155
2.123 -2.293 -0.3237 139
2.3203 -2.5039 0.2751 251
2.2363 -2.4121 -0.26489999999999997 97
2.2402 -2.418 -0.1891 201
2.2578 -2.4375 -0.1142 234
2.2637 -2.4434 -0.0381 245
2.0195 -2.1934 -0.5186 86
2.2598 -2.457 0.0381 172
2.0371 -2.2148 -0.4524 137
2.2559 -2.4512 0.11460000000000001 15
2.0391 -2.2148 -0.3818 235
2.2871 -2.4863 0.1938 206
2.1289 -2.3145 -0.3259 201
2.3301 -2.5312 0.2773 126
2.2305 -2.4238 -0.26539999999999997 169
2.2461 -2.4395 -0.19030000000000002 9
2.252 -2.4473 -0.1143 59
2.25 -2.4453 -0.038 163
2.0098 -2.1992 -0.5176 6
2.2617 -2.4766 0.0383 27
2.0332 -2.2246 -0.45289999999999997 186
2.2598 -2.4727 0.1152 20
2.0391 -2.2324 -0.3833 254
2.2793 -2.4941 0.1938 9
2.1172 -2.3164 -0.32520000000000004 185
2.332 -2.5508 0.2786 126
2.2285 -2.4395 -0.2664 68
2.2344 -2.4453 -0.19010000000000002 129
2.252 -2.4648 -0.11470000000000001 159
2.248 -2.459 -0.0381 154
2.0039 -2.209 -0.5186 231
2.248 -2.4785 0.0382 135
2.0352 -2.2441 -0.45530000000000004 218
2.2559 -2.4844 0.11539999999999999 122
2.0391 -2.248 -0.385 203
2.2734 -2.5039 0.1941 126
2.1055 -2.3203 -0.3247 32
2.3203 -2.5566 0.2783 22
2.2207 -2.4473 -0.2664 120
2.2266 -2.4531 -0.19010000000000002 217
2.2539 -2.4844 -0.1153 121
2.2441 -2.4727 -0.0381 60
2.0059 -2.2266 -0.521 100
2.2422 -2.4883 0.0383 202
2.0293 -2.2539 -0.4561 86
2.2559 -2.5039 0.1159 37
2.0391 -2.2637 -0.3865 14
2.2695 -2.5195 0.1946 181
2.0957 -2.3262 -0.3245 27
2.3105 -2.5645 0.2783 118
2.2227 -2.4668 -0.2676 121
2.2305 -2.4766 -0.1912 39
2.2383 -2.4844 -0.115 236
2.2441 -2.4922 -0.0383 181
2.0098 -2.2461 -0.5239 66
2.2402 -2.502 0.0384 120
2.0234 -2.2598 -0.4561 6
2.248 -2.5117 0.1159 60
2.0391 -2.2793 -0.38789999999999997 206
2.2656 -2.5312 0.19510000000000002 43
2.0938 -2.3398 -0.32539999999999997 146
2.3086 -2.5781 0.2791 144
2.2207 -2.4805 -0.2683 43
2.2227 -2.4824 -0.1912 109
2.2402 -2.5039 -0.1155 219
2.248 -2.5117 -0.0385 48
2.0156 -2.2676 -0.5273 10
2.2383 -2.5176 0.0385 12
2.0254 -2.2793 -0.4585 66
2.2363 -2.5156 0.1157 218
2.0352 -2.2891 -0.3884 116
2.2695 -2.5508 0.1959 138
2.0859 -2.3477 -0.32539999999999997 190
2.2988 -2.5858999999999996 0.2791 19
2.209 -2.4844 -0.26780000000000004 46
2.2227 -2.5 -0.19190000000000002 251
2.2305 -2.5098 -0.1155 171
2.2344 -2.5117 -0.0384 146
1.999 -2.2656 -0.5254 36
2.2402 -2.5391 0.0387 222
2.0215 -2.293 -0.4597 53
2.2363 -2.5352 0.1162 106
2.0234 -2.293 -0.38789999999999997 53
2.2578 -2.5605 0.1959 36
2.0879 -2.3672 -0.3271 157
2.3008 -2.6074 0.2803 219
2.207 -2.502 -0.2688 10
2.2207 -2.5176 -0.19260000000000002 214
2.2344 -2.5332 -0.1161 178
2.2207 -2.5176 -0.0384 24
2.0039 -2.2871 -0.5288 250
2.2305 -2.5469 0.0387 197
2.0293 -2.3164 -0.4631 142
2.2344 -2.5508 0.1166 95
2.0293 -2.3164 -0.3909 39
2.25 -2.5683999999999996 0.1959 85
2.0742 -2.3691 -0.3264 79
2.293 -2.6172000000000004 0.2805 86
2.209 -2.5215 -0.2703 6
2.207 -2.5195 -0.19210000000000002 217
2.2363 -2.5527 -0.1167 21
2.2207 -2.5352 -0.0385 210
2.0 -2.2988 -0.5297999999999999 235
2.2227 -2.5547 0.0387 70
2.0273 -2.3301 -0.4644 100
2.2344 -2.5683999999999996 0.11710000000000001 163
2.0332 -2.3379 -0.3931 139
2.248 -2.5858999999999996 0.1967 249
2.0664 -2.375 -0.3264 253
2.2773 -2.6172000000000004 0.27949999999999997 15
2.2051 -2.5332 -0.2708 125
2.2129 -2.5449 -0.1935 20
2.2227 -2.5547 -0.1165 185
2.2227 -2.5566 -0.0387 29
2.2207 -2.5723000000000003 0.0388 100
2.0117 -2.3281 -0.46259999999999996 152
2.2285 -2.5781 0.11720000000000001 253
2.0312 -2.3516 -0.39399999999999996 39
2.2402 -2.5938 0.1967 89
2.0684 -2.3945 -0.3281 193
2.2695 -2.627 0.28 148
2.1895 -2.5352 -0.27 247
2.2051 -2.5527 -0.1935 23
2.2188 -2.5683999999999996 -0.1167 95
2.2227 -2.5723000000000003 -0.0388 158
2.6483999999999996 -3.0858999999999996 -0.71 237
2.2285 -2.5976999999999997 0.0391 2
2.0137 -2.3477 -0.46509999999999996 162
2.2188 -2.5858999999999996 0.11720000000000001 239
2.0234 -2.3594 -0.3943 183
2.2422 -2.6132999999999997 0.19760000000000003 100
2.0742 -2.416 -0.3301 45
2.2637 -2.6387 0.2803 103
2.1836 -2.5469 -0.2703 28
2.209 -2.5742000000000003 -0.19469999999999998 74
2.2188 -2.5839999999999996 -0.11710000000000001 183
2.2109 -2.5781 -0.0388 21
2.6348000000000003 -3.0918 -0.7090000000000001 73
2.2305 -2.6172000000000004 0.0393 145
2.0156 -2.3652 -0.4675 78
2.2227 -2.6094 0.11789999999999999 37
2.0195 -2.3711 -0.395 175
2.2383 -2.627 0.1981 247
2.0703 -2.4297 -0.3311 38
2.2637 -2.6543 0.2812 137
2.1816 -2.5586 -0.271 194
2.2031 -2.5839999999999996 -0.1949 28
2.2227 -2.6074 -0.11789999999999999 162
2.2031 -2.5839999999999996 -0.0388 111
2.6132999999999997 -3.0898000000000003 -0.7061 26
2.2109 -2.6132999999999997 0.0391 174
2.0156 -2.3828 -0.4692 238
2.2246 -2.6289 0.1185 89
2.0273 -2.3965 -0.3982 228
2.2285 -2.6348000000000003 0.198 59
2.0664 -2.4414 -0.33149999999999996 164
2.2793 -2.6933999999999996 0.2844 185
2.1934 -2.5918 -0.2737 224
2.1914 -2.5898000000000003 -0.19469999999999998 188
2.2148 -2.6191000000000004 -0.11800000000000001 163
2.2012 -2.6016000000000004 -0.038900000000000004 80
2.6211 -3.1211 -0.7109000000000001 140
2.2109 -2.6327999999999996 0.0393 72
2.0098 -2.3926 -0.4697 129
2.2266 -2.6504000000000003 0.1191 135
2.0234 -2.4082 -0.3992 175
2.2285 -2.6523000000000003 0.1989 246
2.0527 -2.4453 -0.3311 225
2.2734 -2.707 0.2849 158
2.1895 -2.6055 -0.2742 212
2.3457 -2.793 0.3789 3
2.1953 -2.6132999999999997 -0.19579999999999997 14
2.2129 -2.6348000000000003 -0.1184 222
2.2207 -2.6445 -0.0395 191
2.6308999999999996 -3.1543 -0.7168000000000001 8
2.2246 -2.668 0.0397 87
2.0059 -2.4043 -0.47090000000000004 5
2.2246 -2.668 0.1195 148
2.0234 -2.4258 -0.4006 102
2.2441 -2.6914 0.20120000000000002 3
2.0566 -2.4648 -0.3328 182
2.248 -2.6952999999999996 0.28300000000000003 248
2.2051 -2.6445 -0.2776 119
2.3535 -2.8223000000000003 0.3818 179
2.2109 -2.6504000000000003 -0.1981 199
2.2168 -2.6562 -0.11900000000000001 171
2.2129 -2.6523000000000003 -0.0395 151
2.6113 -3.1543 -0.7148 200
2.2148 -2.6757999999999997 0.0397 205
2.0078 -2.4238 -0.47340000000000004 175
2.209 -2.668 0.1191 124
2.0215 -2.4414 -0.4023 224
2.2383 -2.7031 0.20149999999999998 227
2.0586 -2.4863 -0.3347 242
2.252 -2.7188 0.2847 210
2.1875 -2.6406 -0.2764 211
2.3105 -2.7910000000000004 0.3762 185
2.2012 -2.6582 -0.1981 199
2.2051 -2.6620999999999997 -0.1189 183
2.2012 -2.6582 -0.0395 39
2.5858999999999996 -3.1445 -0.7104 121
2.2129 -2.6914 0.0398 244
2.0137 -2.4492 -0.4771 45
2.2031 -2.6776999999999997 0.1193 69
2.0156 -2.4512 -0.4028 98
2.2188 -2.6973000000000003 0.2004 103
2.0586 -2.5039 -0.3362 8
2.2461 -2.7305 0.2852 18
2.1895 -2.6620999999999997 -0.2778 173
2.2871 -2.7812 0.3738 37
2.1953 -2.6699 -0.1984 129
2.2031 -2.6797000000000004 -0.11939999999999999 119
2.1895 -2.6620999999999997 -0.0394 33
2.5781 -3.1562 -0.7109000000000001 150
2.2012 -2.6952999999999996 0.0398 168
2.0137 -2.4668 -0.4792 115
2.1992 -2.6933999999999996 0.11960000000000001 234
2.0117 -2.4629 -0.4036 206
2.209 -2.707 0.2006 89
2.0469 -2.5059 -0.3354 35
2.2383 -2.7422000000000004 0.2854 182
2.1895 -2.6816000000000004 -0.2791 250
2.2812 -2.793 0.37450000000000006 39
2.1738 -2.6620999999999997 -0.1973 174
2.2012 -2.6952999999999996 -0.1197 143
2.1953 -2.6875 -0.0397 58
2.5664 -3.1660000000000004 -0.7109000000000001 226
2.1934 -2.7051 0.0398 129
2.0137 -2.4844 -0.48100000000000004 22
2.2012 -2.7148000000000003 0.12029999999999999 77
2.0156 -2.4863 -0.40619999999999995 16
2.2031 -2.7168 0.20079999999999998 88
2.0469 -2.5254 -0.3369 185
2.2266 -2.7461 0.2852 198
2.1895 -2.7012 -0.2803 35
2.2695 -2.7988 0.3743 89
2.1836 -2.6933999999999996 -0.1991 117
2.1914 -2.7031 -0.1197 242
2.1816 -2.6914 -0.039599999999999996 26
2.5586 -3.1776999999999997 -0.7119 135
2.0176 -2.5078 -0.4844 147
2.1836 -2.7129000000000003 0.1198 163
2.0156 -2.5059 -0.4082 41
2.2051 -2.7401999999999997 0.20199999999999999 152
2.043 -2.5371 -0.3379 42
2.2148 -2.752 0.2849 121
2.2559 -2.8026999999999997 0.3735 178
2.1797 -2.707 -0.1996 202
2.3086 -2.8672000000000004 0.46799999999999997 57
2.1836 -2.7148000000000003 -0.0398 145
2.5508 -3.1914 -0.7129000000000001 140
2.1836 -2.7324 0.04 164
2.0547 -2.5723000000000003 -0.4954 96
2.1895 -2.7401999999999997 0.1207 252
2.0156 -2.5215 -0.4097 108
2.2031 -2.7577999999999996 0.2026 8
2.0449 -2.5586 -0.3396 84
2.2168 -2.7733999999999996 0.2864 228
2.166 -2.7089999999999996 -0.27949999999999997 82
2.2422 -2.8047000000000004 0.3728 142
2.1777 -2.7245999999999997 -0.2002 140
2.2539 -2.8202999999999996 0.45899999999999996 111
2.1816 -2.7305 -0.12029999999999999 208
2.1758 -2.7207 -0.0398 127
2.5273 -3.1855 -0.71 84
2.1797 -2.7461 0.0401 75
2.0762 -2.6151999999999997 -0.5029 132
2.1855 -2.7539 0.121 119
2.0078 -2.5293 -0.40990000000000004 43
2.2031 -2.7773000000000003 0.2036 22
2.041 -2.5723000000000003 -0.3406 241
2.2168 -2.793 0.2876 188
2.1602 -2.7226999999999997 -0.28 85
2.2246 -2.8047000000000004 0.3716 87
2.166 -2.7285000000000004 -0.20010000000000003 153
2.2441 -2.8281 0.45899999999999996 251
2.1797 -2.748 -0.1207 77
2.291 -2.8867000000000003 0.5557 90
2.1621 -2.7266000000000004 -0.0398 59
2.5137 -3.1914 -0.7090000000000001 31
2.1738 -2.7598000000000003 0.04019999999999999 255
2.0684 -2.627 -0.5034000000000001 55
2.1855 -2.7733999999999996 0.1215 147
2.0078 -2.5469 -0.41159999999999997 115
2.1855 -2.7754000000000003 0.2028 78
2.0391 -2.5898000000000003 -0.3418 222
2.2012 -2.7949 0.2869 45
2.1621 -2.7441000000000004 -0.2815 207
2.2109 -2.8066000000000004 0.37079999999999996 123
2.1582 -2.7401999999999997 -0.2002 224
2.2227 -2.8202999999999996 0.45630000000000004 115
2.1836 -2.7733999999999996 -0.1215 119
2.2617 -2.8711 0.5508 15
2.1641 -2.748 -0.04 211
2.2715 -2.8827999999999996 0.6396000000000001 190
2.5 -3.1973000000000003 -0.7084999999999999 64
2.168 -2.7714999999999996 0.0403 217
2.0664 -2.6426 -0.5049 36
2.1836 -2.7910000000000004 0.1219 46
2.0156 -2.5762 -0.4153 32
2.1875 -2.7988 0.204 39
2.0332 -2.6016000000000004 -0.3425 194
2.1953 -2.8066000000000004 0.2874 102
2.1582 -2.7577999999999996 -0.2825 153
2.2051 -2.8202999999999996 0.3716 238
2.1621 -2.7637 -0.2014 147
2.209 -2.8242000000000003 0.4558 98
2.1777 -2.7832 -0.1216 107
2.2422 -2.8672000000000004 0.5483 204
2.1641 -2.7656 -0.04019999999999999 216
2.2539 -2.8808999999999996 0.6377 254
2.4902 -3.2051 -0.7084999999999999 233
2.0508 -2.6406 -0.5034000000000001 245
2.1738 -2.7988 0.1219 110
2.0137 -2.5918 -0.4167 101
2.1895 -2.8183999999999996 0.205 26
2.0605 -2.6523000000000003 -0.34840000000000004 223
2.1562 -2.7754000000000003 -0.2834 180
2.2031 -2.8358999999999996 0.373 17
2.1582 -2.7773000000000003 -0.20199999999999999 130
2.209 -2.8438 0.4575 188
2.2598 -2.9082 0.6420999999999999 110
2.4668 -3.1973000000000003 -0.7045999999999999 52
2.1777 -2.8223000000000003 0.0408 114
2.0488 -2.6562 -0.5049 11
2.1699 -2.8125 0.1223 100
2.0176 -2.6151999999999997 -0.4194 130
2.1895 -2.8379000000000003 0.20579999999999998 153
2.0586 -2.668 -0.3496 150
2.2012 -2.8516000000000004 0.2905 204
2.1543 -2.793 -0.2844 41
2.2168 -2.875 0.377 144
2.1602 -2.7988 -0.203 249
2.2012 -2.8535000000000004 0.4583 249
2.1738 -2.8164 -0.12240000000000001 88
2.2148 -2.8711 0.5464 254
2.1582 -2.7988 -0.0404 104
2.4453 -3.1952999999999996 -0.7021 218
2.1836 -2.8516000000000004 0.041100000000000005 109
2.0508 -2.6797000000000004 -0.5083 121
2.1719 -2.8358999999999996 0.1229 56
2.0137 -2.6308999999999996 -0.4207 71
2.1855 -2.8555 0.2065 85
2.0469 -2.6738 -0.3494 65
2.1914 -2.8632999999999997 0.2908 219
2.1523 -2.8105 -0.2854 88
2.2129 -2.8926 0.3782 50
2.1543 -2.8145 -0.20350000000000001 10
2.2012 -2.877 0.4604 5
2.1738 -2.8418 -0.1232 66
2.2129 -2.8906 0.5483 244
2.1602 -2.8223000000000003 -0.0406 28
2.2305 -2.9160000000000004 0.6401 100
2.4316 -3.2012 -0.7017 89
2.1602 -2.8418 0.0408 131
2.0586 -2.7089999999999996 -0.5122 1
2.1699 -2.8574 0.1235 60
2.0059 -2.6406 -0.4211 30
2.1738 -2.8594 0.20629999999999998 211
2.0391 -2.6836 -0.34990000000000004 96
2.1914 -2.8848000000000003 0.2922 245
2.1484 -2.8281 -0.2864 76
2.1973 -2.8926 0.3772 48
2.1465 -2.8242000000000003 -0.20370000000000002 230
2.1934 -2.8848000000000003 0.4607 191
2.1699 -2.8555 -0.1234 206
2.2168 -2.918 0.5522 114
2.1621 -2.8457 -0.0409 210
2.209 -2.9062 0.6362 241
2.4238 -3.2129000000000003 -0.7021 122
2.1602 -2.8632999999999997 0.040999999999999995 85
2.0645 -2.7363 -0.5161 14
2.1699 -2.875 0.124 238
2.0039 -2.6562 -0.4224 27
2.1738 -2.8827999999999996 0.20739999999999997 44
2.0352 -2.6973000000000003 -0.3506 35
2.166 -2.873 0.2903 115
2.1504 -2.8516000000000004 -0.28809999999999997 237
2.2012 -2.918 0.3796 190
2.1484 -2.8476999999999997 -0.205 57
2.1895 -2.9023000000000003 0.4622 39
2.1602 -2.8632999999999997 -0.1234 114
2.2109 -2.9316000000000004 0.5532 44
2.1543 -2.8555 -0.0409 215
2.207 -2.9238 0.6386999999999999 159
2.1543 -2.877 0.041100000000000005 79
2.0605 -2.752 -0.5176 12
2.1602 -2.8848000000000003 0.124 221
2.0117 -2.6855 -0.426 225
2.1797 -2.9101999999999997 0.2089 162
2.043 -2.7266000000000004 -0.35350000000000004 236
2.168 -2.8964999999999996 0.2917 103
2.1348 -2.8495999999999997 -0.2871 112
2.1914 -2.9257999999999997 0.3796 238
2.1504 -2.8711 -0.2061 186
2.1895 -2.9238 0.4646 46
2.1523 -2.873 -0.1235 240
2.2109 -2.9531 0.5562 249
2.1582 -2.8808999999999996 -0.0412 133
2.207 -2.9473000000000003 0.6416 21
2.1621 -2.9082 0.0415 133
2.0645 -2.7754000000000003 -0.521 22
2.1582 -2.9023000000000003 0.1245 175
1.9980000000000002 -2.6875 -0.4253 107
2.1738 -2.9238 0.2094 74
2.0469 -2.752 -0.3557 153
2.1426 -2.8808999999999996 0.2896 247
2.1289 -2.8613 -0.2876 174
2.1953 -2.9531 0.3821 93
2.1562 -2.8983999999999996 -0.20739999999999997 158
2.1855 -2.9375 0.4656 216
2.1523 -2.8945 -0.1242 158
2.1992 -2.957 0.5557 253
2.1465 -2.8848000000000003 -0.041100000000000005 23
2.2012 -2.9608999999999996 0.6431 247
2.1621 -2.9257999999999997 0.0416 195
2.0879 -2.8262 -0.5293 137
2.1543 -2.9160000000000004 0.12480000000000001 18
1.9961000000000002 -2.7031 -0.4268 49
2.1738 -2.9433999999999996 0.2102 194
2.0898 -2.8301 -0.3652 226
2.1504 -2.9101999999999997 0.2917 206
2.1289 -2.8827999999999996 -0.2891 211
2.1406 -2.8983999999999996 -0.207 246
2.1543 -2.9160000000000004 -0.12480000000000001 227
2.2109 -2.9922000000000004 0.561 76
2.1445 -2.9043 -0.041299999999999996 164
2.2148 -3.0 0.6498999999999999 144
2.1562 -2.9414 0.0417 21
2.084 -2.8438 -0.5312 253
2.1641 -2.9512 0.126 104
1.9971 -2.7245999999999997 -0.429 148
2.1621 -2.9492000000000003 0.21 215
2.1465 -2.9276999999999997 -0.377 129
2.1484 -2.9316000000000004 0.2932 206
2.1367 -2.9160000000000004 -0.2917 202
2.1289 -2.9043 -0.20679999999999998 48
3.9901999999999997 -5.4414 0.8628 68
2.1523 -2.9375 -0.12539999999999998 133
2.1445 -2.9257999999999997 -0.0415 29
2.1914 -2.9901999999999997 0.6459999999999999 206
2.1445 -2.9473000000000003 0.0417 235
2.0625 -2.8339999999999996 -0.5278 237
2.1543 -2.9608999999999996 0.1261 241
2.0059 -2.7558999999999996 -0.4329 74
2.1621 -2.9726999999999997 0.2112 177
2.1543 -2.9608999999999996 -0.3804 133
2.1328 -2.9297000000000004 -0.2922 29
2.1348 -2.9336 -0.2084 101
3.9316000000000004 -5.4023 0.8540000000000001 85
2.1465 -2.9512 -0.12560000000000002 106
3.9648000000000003 -5.449199999999999 1.0205 26
2.1445 -2.9473000000000003 -0.0417 104
0.5708 -0.7905 -0.1646 42
2.1484 -2.9745999999999997 0.042 221
2.0215 -2.8007999999999997 -0.52 171
2.1543 -2.9824 0.1267 181
2.0098 -2.7812 -0.436 11
2.1641 -2.9961 0.21230000000000002 1
2.1387 -2.9629000000000003 -0.37939999999999996 216
2.127 -2.9433999999999996 -0.293 97
3.9512 -5.4688 0.7045999999999999 127
2.1328 -2.9531 -0.2094 229
3.9043 -5.4062 0.8525 211
2.1367 -2.9589999999999996 -0.12560000000000002 201
3.9375 -5.453099999999999 1.0195 26
2.1484 -2.9745999999999997 -0.042 218
3.0370999999999997 -4.2031 0.9072 208
0.5771000000000001 -0.8051999999999999 -0.1672 61
2.1484 -2.9961 0.042199999999999994 17
1.999 -2.7870999999999997 -0.5166 193
2.1465 -2.9941000000000004 0.1268 138
2.0 -2.7910000000000004 -0.4363 127
2.1641 -3.0176 0.2134 123
2.1387 -2.9844 -0.38130000000000003 92
2.1191 -2.9551 -0.2932 229
3.9316000000000004 -5.484400000000001 0.7045999999999999 59
2.1348 -2.9785000000000004 -0.2104 140
3.8983999999999996 -5.4375 0.855 67
2.1387 -2.9824 -0.1263 54
3.8964999999999996 -5.4336 1.0127 59
2.1348 -2.9766000000000004 -0.04190000000000001 27
3.0214999999999996 -4.2148 0.9072 76
0.5698 -0.8008 -0.1659 67
2.1504 -3.0214999999999996 0.0425 114
2.0059 -2.8164 -0.521 189
2.1445 -3.0117000000000003 0.1273 105
1.9980000000000002 -2.8066000000000004 -0.43770000000000003 71
2.166 -3.043 0.2146 85
2.1328 -2.9961 -0.3818 78
2.1191 -2.9785000000000004 -0.2949 243
3.9199 -5.5078 0.7056 216
2.125 -2.9863 -0.21059999999999998 10
3.8535000000000004 -5.4140999999999995 0.8491 178
2.1367 -3.002 -0.127 126
3.8711 -5.4375 1.0117 87
2.1328 -2.9961 -0.0421 150
3.0077999999999996 -4.2266 0.9072 30
0.5786 -0.8188 -0.16940000000000002 60
2.1387 -3.0273000000000003 0.0424 185
2.0 -2.8301 -0.522 158
2.1504 -3.043 0.1283 255
2.0039 -2.8358999999999996 -0.4414 172
2.1562 -3.0507999999999997 0.2146 63
2.127 -3.0098000000000003 -0.38280000000000003 252
2.123 -3.0058999999999996 -0.2969 168
2.1191 -2.998 -0.2109 117
3.8398000000000003 -5.4336 0.8501000000000001 134
2.1406 -3.0293 -0.1278 253
3.8379000000000003 -5.4336 1.0078 229
2.1348 -3.0214999999999996 -0.0424 57
2.9922000000000004 -4.2344 0.9072 214
0.5483 -0.7822 -0.161 2
2.1348 -3.043 0.0426 176
1.9941 -2.8438 -0.5234000000000001 84
2.1465 -3.0605 0.1288 80
2.0078 -2.8632999999999997 -0.4443 142
2.1543 -3.0742000000000003 0.2157 88
2.1191 -3.0233999999999996 -0.3833 200
2.1191 -3.0214999999999996 -0.29760000000000003 236
2.1172 -3.0195 -0.2119 136
3.7969 -5.4140999999999995 0.8452 20
2.1348 -3.043 -0.1281 121
3.8145 -5.4375 1.0068000000000001 5
2.1328 -3.043 -0.0425 108
0.5254 -0.7548999999999999 -0.1548 182
