# .PCD v0.7 - Point Cloud Data file format
VERSION 0.7
FIELDS x y z intensity
SIZE 4 4 4 4
TYPE F F F F
COUNT 1 1 1 1
WIDTH 1306
HEIGHT 1
VIEWPOINT 0 0 0 1 0 0 0
POINTS 1306
DATA ascii
2.0098 -2.998 -0.5439 19
2.1289 -3.1757999999999997 0.1317 78
2.0977 -3.1289 -0.479 211
2.1465 -3.2012 0.2216 208
2.1191 -3.1601999999999997 -0.3953 240
2.1055 -3.1387 -0.3049 16
2.1074 -3.1426 -0.21739999999999998 53
2.7051 -4.0352 0.6191 113
2.1191 -3.1601999999999997 -0.1311 68
2.1035 -3.1387 -0.0433 24
0.4963 -0.7461 -0.1506 7
2.1191 -3.1855 0.043899999999999995 66
2.0059 -3.0137 -0.5454 121
2.1289 -3.1992000000000003 0.1324 190
2.0996 -3.1543 -0.4819 41
2.1367 -3.2089999999999996 0.2217 87
2.1074 -3.168 -0.3953 40
2.1035 -3.1620999999999997 -0.3064 167
2.0938 -3.1464999999999996 -0.21719999999999998 22
2.1211 -3.1875 -0.132 227
0.5156000000000001 -0.7807999999999999 -0.1576 246
2.1133 -3.1992000000000003 0.043899999999999995 160
2.0078 -3.0410000000000004 -0.5493 54
2.1348 -3.2344 0.1335 193
2.0996 -3.1797000000000004 -0.48460000000000003 57
2.1387 -3.2382999999999997 0.2231 70
2.1035 -3.1855 -0.39649999999999996 126
2.1016 -3.1836 -0.3079 235
2.0996 -3.1797000000000004 -0.2191 89
2.1113 -3.1952999999999996 -0.132 90
2.1172 -3.2051 -0.044000000000000004 175
1.9678 -2.9805 0.6221 75
0.5127 -0.7827 -0.1576 162
2.1133 -3.2245999999999997 0.044199999999999996 152
2.127 -3.2441000000000004 0.13369999999999999 58
2.0957 -3.1992000000000003 -0.4866 167
2.1426 -3.2695 0.22469999999999998 134
2.1035 -3.2108999999999996 -0.39890000000000003 0
2.0977 -3.1992000000000003 -0.30879999999999996 4
2.1016 -3.207 -0.2205 56
1.9638999999999998 -2.9961 0.45530000000000004 100
2.1055 -3.2129000000000003 -0.1323 208
1.9569999999999999 -2.9863 0.6221 77
0.4907 -0.7544 -0.1514 81
2.1094 -3.2441000000000004 0.0443 19
2.7108999999999996 -4.168 -0.752 39
2.1172 -3.2558999999999996 0.1338 91
2.0957 -3.2207 -0.4888 65
2.1406 -3.2910000000000004 0.2257 54
2.1016 -3.2305 -0.4006 112
2.0898 -3.2108999999999996 -0.3093 229
1.9346 -2.9745999999999997 0.36840000000000006 110
2.0977 -3.2245999999999997 -0.2212 98
1.9102000000000001 -2.9375 0.4451 151
2.1035 -3.2344 -0.1329 195
1.9169999999999998 -2.9473000000000003 0.5297999999999999 179
2.1074 -3.2382999999999997 -0.0443 233
1.9228999999999998 -2.957 0.6147 158
0.4861 -0.7529 -0.1506 178
2.1094 -3.2676 0.0446 81
2.6895 -4.168 -0.75 38
2.123 -3.2891000000000004 0.1349 131
2.0859 -3.2324 -0.4893 31
2.1309 -3.3007999999999997 0.226 105
2.0996 -3.2539 -0.4023 71
1.9268 -2.9844 0.2864 78
2.0938 -3.2422000000000004 -0.3115 44
1.9003999999999999 -2.9452999999999996 0.3638 93
2.0977 -3.25 -0.2223 100
1.8916 -2.9297000000000004 0.44310000000000005 116
2.1074 -3.2656 -0.13390000000000002 161
1.9169999999999998 -2.9707 0.5327000000000001 167
2.1035 -3.2598000000000003 -0.044500000000000005 76
1.8896000000000002 -2.9276999999999997 0.6069 205
0.5044 -0.7876000000000001 -0.1576 138
2.1016 -3.2812 0.0447 11
2.7051 -4.2227 -0.7583 40
2.125 -3.3183999999999996 0.1359 200
2.1016 -3.2812 -0.49560000000000004 27
2.125 -3.3183999999999996 0.2267 124
2.0957 -3.2714999999999996 -0.40380000000000005 44
1.9072 -2.9785000000000004 0.2852 156
2.0879 -3.2598000000000003 -0.3125 149
1.8925999999999998 -2.9551 0.3643 27
2.0879 -3.2598000000000003 -0.2225 225
1.8769999999999998 -2.9297000000000004 0.4421 164
2.1074 -3.2891000000000004 -0.1346 57
1.8916 -2.9531 0.5283 204
2.1055 -3.2870999999999997 -0.0447 2
1.875 -2.9276999999999997 0.6054999999999999 19
2.0977 -3.2988 0.044800000000000006 72
2.6914 -4.2344 -0.7583 177
2.1211 -3.3358999999999996 0.1362 158
2.6113 -4.1094 -0.6211 118
2.123 -3.3398000000000003 0.2275 240
2.0879 -3.2832 -0.4043 35
1.9141 -3.0117000000000003 0.2878 111
2.0938 -3.2949 -0.3152 53
1.8779 -2.9551 0.36329999999999996 57
2.0859 -3.2812 -0.2235 216
1.8613 -2.9276999999999997 0.4407 245
2.0996 -3.3026999999999997 -0.1349 251
1.8818000000000001 -2.9608999999999996 0.5283 86
1.8711000000000002 -2.9433999999999996 0.6074 116
2.0957 -3.3242000000000003 0.045 103
2.6582 -4.2148 -0.7534000000000001 198
2.1133 -3.3516000000000004 0.1366 237
2.5918 -4.1094 -0.6196 219
2.127 -3.3711 0.2291 131
2.0918 -3.3183999999999996 -0.4077 211
2.084 -3.3026999999999997 -0.3152 232
1.8672 -2.9608999999999996 0.36329999999999996 40
2.0898 -3.3125 -0.22519999999999998 58
1.8525 -2.9375 0.4414 253
2.0918 -3.3164 -0.1351 103
1.8721 -2.9688 0.5288 131
2.0977 -3.3281 -0.0451 218
1.8574000000000002 -2.9452999999999996 0.6064 173
2.1035 -3.3594 0.0454 149
2.6406 -4.2188 -0.7524 78
2.1055 -3.3632999999999997 0.1367 197
2.5469 -4.0703 -0.6118 114
2.123 -3.3926 0.2302 82
2.0957 -3.3476999999999997 -0.4106 45
2.0781 -3.3202999999999996 -0.31620000000000004 226
1.8633000000000002 -2.9785000000000004 0.36450000000000005 25
2.0898 -3.3398000000000003 -0.2266 63
1.8525 -2.9589999999999996 0.4436 136
2.0977 -3.3516000000000004 -0.1362 222
1.8525 -2.9589999999999996 0.5259 215
2.0938 -3.3457 -0.0453 30
1.8516 -2.9589999999999996 0.6079 252
2.1094 -3.3964999999999996 0.0458 167
2.6699 -4.2969 -0.7651 39
2.1055 -3.3887 0.1376 98
2.5371 -4.082 -0.6128 102
2.1191 -3.4101999999999997 0.231 42
2.0996 -3.3808999999999996 -0.4138 244
2.0918 -3.3651999999999997 -0.3201 207
1.8457 -2.9707 0.363 147
2.0859 -3.3555 -0.22719999999999999 112
1.8369 -2.957 0.4424 137
2.0918 -3.3672000000000004 -0.1366 240
1.8437999999999999 -2.9668 0.5264 164
2.0918 -3.3691000000000004 -0.0455 168
1.8319999999999999 -2.9492000000000003 0.605 58
2.0977 -3.4023000000000003 0.0458 86
2.6406 -4.2812 -0.7606999999999999 107
2.1094 -3.4199 0.13849999999999998 5
2.5312 -4.1055 -0.6152000000000001 35
2.1152 -3.4297000000000004 0.23170000000000002 54
2.0859 -3.3827999999999996 -0.4131 206
2.082 -3.377 -0.32030000000000003 138
1.8330000000000002 -2.9726999999999997 0.3625 44
2.0723 -3.3613 -0.2271 233
1.8222999999999998 -2.9551 0.4412 163
2.0918 -3.3906 -0.1373 74
1.8311000000000002 -2.9688 0.5254 141
2.0938 -3.3945 -0.045700000000000005 125
1.8271000000000002 -2.9629000000000003 0.6064 83
2.0918 -3.4199 0.046 206
2.6172000000000004 -4.2773 -0.7583 164
2.1074 -3.4452999999999996 0.1393 135
2.5762 -4.2148 -0.6299 11
2.1152 -3.457 0.2332 44
2.082 -3.4043 -0.41479999999999995 138
2.0879 -3.4120999999999997 -0.32299999999999995 25
1.8311000000000002 -2.9941000000000004 0.3643 0
2.0742 -3.3926 -0.2288 10
1.8105000000000002 -2.9589999999999996 0.4407 224
2.0918 -3.4199 -0.1382 148
1.8252000000000002 -2.9844 0.5268999999999999 93
2.0938 -3.4238 -0.0461 234
1.8115 -2.9629000000000003 0.605 38
2.0938 -3.4512 0.0463 49
2.6348000000000003 -4.3438 -0.7681 196
2.1035 -3.4648000000000003 0.1398 79
2.4941 -4.1094 -0.6128 128
2.1172 -3.4882999999999997 0.2347 68
2.0859 -3.4375 -0.418 106
2.0723 -3.4160000000000004 -0.3225 187
1.8154 -2.9901999999999997 0.363 78
2.0781 -3.4257999999999997 -0.2305 111
1.8027000000000002 -2.9707 0.44170000000000004 35
2.082 -3.4316000000000004 -0.1383 103
1.8184 -2.9961 0.5278 0
2.0898 -3.4452999999999996 -0.0462 51
1.8105000000000002 -2.9844 0.6079 167
0.5088 -0.8452 -0.1666 74
2.0938 -3.4766000000000004 0.04650000000000001 89
2.7344 -4.543 -0.8018000000000001 16
2.0977 -3.4824 0.1401 54
2.4668 -4.0977 -0.6099 211
2.1211 -3.5214999999999996 0.2365 119
2.0859 -3.4648000000000003 -0.4204 255
2.0723 -3.4414 -0.3245 56
1.8086000000000002 -3.0039 0.364 22
2.0859 -3.4648000000000003 -0.2327 3
1.7969 -2.9844 0.4426 28
2.0879 -3.4688 -0.1396 161
1.7938999999999998 -2.9785000000000004 0.5239 123
2.0938 -3.4785000000000004 -0.0466 156
1.8008000000000002 -2.9922000000000004 0.6084 208
0.5122 -0.8573999999999999 -0.16870000000000002 120
2.0898 -3.5 0.046799999999999994 150
2.7285000000000004 -4.5664 -0.8047 112
2.1035 -3.5233999999999996 0.14150000000000001 201
2.4375 -4.082 -0.606 169
2.1113 -3.5370999999999997 0.2369 34
2.082 -3.4863 -0.4224 226
2.0684 -3.4629000000000003 -0.3257 192
1.7949000000000002 -3.0058999999999996 0.36329999999999996 94
2.0781 -3.4785000000000004 -0.233 169
1.7871000000000001 -2.9922000000000004 0.4429 3
2.0859 -3.4941000000000004 -0.14029999999999998 52
1.7930000000000001 -3.002 0.5264 11
2.0762 -3.4745999999999997 -0.0464 193
1.7871000000000001 -2.9922000000000004 0.6069 211
0.4771 -0.8047 -0.1576 121
2.082 -3.5156 0.046900000000000004 215
2.7344 -4.6133 -0.8115000000000001 152
2.0977 -3.5410000000000004 0.142 154
2.4531 -4.1406 -0.6138 230
2.1055 -3.5526999999999997 0.2375 128
2.0762 -3.502 -0.4233 190
2.0723 -3.498 -0.3284 206
1.7822 -3.0077999999999996 0.363 164
2.0723 -3.4961 -0.23379999999999998 46
1.7803 -3.0039 0.4436 184
2.0879 -3.5233999999999996 -0.1412 72
1.7978999999999998 -3.0351999999999997 0.5312 10
2.0762 -3.502 -0.0467 153
1.7744 -2.9941000000000004 0.6064 90
0.5 -0.8506 -0.1666 35
2.0762 -3.5332 0.047 119
2.7129000000000003 -4.6133 -0.8096 49
2.0996 -3.5702999999999996 0.14279999999999998 147
2.4121 -4.1055 -0.6069 97
2.1094 -3.5879000000000003 0.2394 178
2.0723 -3.5233999999999996 -0.425 224
2.082 -3.5410000000000004 -0.3318 194
1.7881 -3.0410000000000004 0.36619999999999997 228
2.0703 -3.5214999999999996 -0.235 140
1.7694999999999999 -3.0098000000000003 0.4436 145
2.084 -3.5449 -0.1417 125
1.7812000000000001 -3.0312 0.5297999999999999 127
2.084 -3.5449 -0.0472 167
1.7753999999999999 -3.0214999999999996 0.6103999999999999 66
0.49119999999999997 -0.8423 -0.1646 192
2.0762 -3.5586 0.0473 132
2.7148000000000003 -4.6523 -0.8149 77
2.0938 -3.5918 0.1434 0
3.4745999999999997 -5.957000000000001 -0.8818 39
2.1074 -3.6151999999999997 0.2408 153
2.0723 -3.5547000000000004 -0.428 174
2.0625 -3.5351999999999997 -0.3306 126
2.0742 -3.5566000000000004 -0.2368 96
1.7607 -3.0195 0.44409999999999994 98
2.0781 -3.5625 -0.1422 180
1.791 -3.0702999999999996 0.5356000000000001 220
2.084 -3.5742000000000003 -0.0475 200
1.7812000000000001 -3.0547000000000004 0.6162 77
0.5078 -0.8779 -0.17149999999999999 147
2.0801 -3.5957 0.04769999999999999 132
2.4043 -4.1562 -0.7256 240
2.0898 -3.6113 0.1439 87
3.4433999999999996 -5.953099999999999 -0.8789 123
2.1016 -3.6327999999999996 0.2415 232
2.0781 -3.5938 -0.4316 79
2.0625 -3.5645 -0.3328 135
2.0723 -3.5801 -0.23800000000000002 154
1.7938999999999998 -3.1016000000000004 0.45530000000000004 238
2.0879 -3.6094 -0.1438 179
2.0762 -3.5879000000000003 -0.047599999999999996 238
0.4656 -0.8115000000000001 -0.1576 252
2.0801 -3.625 0.048 77
2.4043 -4.1914 -0.7304999999999999 59
2.0879 -3.6367000000000003 0.1447 15
2.3223 -4.0469 -0.5947 226
2.0996 -3.6582 0.24280000000000002 241
2.0762 -3.6172000000000004 -0.4338 125
2.2598 -3.9375 0.36719999999999997 166
2.0645 -3.5957 -0.335 115
2.0625 -3.5938 -0.2384 222
2.0859 -3.6348000000000003 -0.1445 119
2.0723 -3.6113 -0.0478 136
0.4629 -0.813 -0.1576 102
2.0762 -3.6464999999999996 0.0482 139
2.3926 -4.2031 -0.7314 151
2.0898 -3.6719 0.1458 51
3.3516000000000004 -5.890599999999999 -0.8662000000000001 136
2.0957 -3.6816000000000004 0.2438 192
2.0801 -3.6523000000000003 -0.43729999999999997 234
2.0645 -3.625 -0.3372 213
2.0605 -3.6191000000000004 -0.2396 192
2.0781 -3.6504000000000003 -0.1449 33
2.0703 -3.6367000000000003 -0.048 66
0.46020000000000005 -0.8145 -0.1576 142
2.3691 -4.1914 -0.728 184
2.0918 -3.7012 0.1466 124
3.3026999999999997 -5.8438 -0.8579000000000001 69
2.0977 -3.7108999999999996 0.24539999999999998 68
2.0723 -3.6660000000000004 -0.43799999999999994 77
2.168 -3.8379000000000003 0.4587 153
2.0664 -3.6562 -0.2416 4
2.1465 -3.7988 0.5557 154
2.1758 -3.8495999999999997 0.6675 218
2.1719 -3.8438 0.7709999999999999 142
0.48829999999999996 -0.8711 -0.16870000000000002 56
2.0703 -3.6933999999999996 0.048600000000000004 75
2.3457 -4.1836 -0.7245999999999999 191
2.0859 -3.7188 0.1471 28
2.2969 -4.0977 -0.5986 158
2.0957 -3.7382999999999997 0.24670000000000003 99
2.0684 -3.6895 -0.44020000000000004 200
2.1836 -3.8945 0.3611 229
2.0684 -3.6895 -0.3418 167
2.1582 -3.8495999999999997 0.4592 229
2.0703 -3.6914 -0.24350000000000002 58
2.1445 -3.8262 0.5586 179
2.0684 -3.6895 -0.1459 115
2.1562 -3.8438 0.6655 135
2.0762 -3.7031 -0.0487 124
2.1543 -3.8438 0.7695000000000001 103
0.5024000000000001 -0.9037999999999999 -0.17489999999999997 72
2.082 -3.7441000000000004 0.0492 113
2.332 -4.1953 -0.7251000000000001 207
2.0859 -3.752 0.1481 142
2.2578 -4.0625 -0.5922999999999999 31
2.0996 -3.7773000000000003 0.2487 115
2.0703 -3.7245999999999997 -0.4434 210
2.127 -3.8281 0.354 28
2.0781 -3.7382999999999997 -0.3457 115
2.1426 -3.8516000000000004 0.4587 102
2.0684 -3.7226999999999997 -0.2451 48
2.1426 -3.8535000000000004 0.5615 243
2.0703 -3.7245999999999997 -0.147 110
2.1426 -3.8555 0.6659999999999999 79
2.0723 -3.7266000000000004 -0.049 220
2.1465 -3.8613 0.7715000000000001 47
0.4517 -0.8193 -0.1576 29
2.082 -3.7754000000000003 0.0495 195
2.3184 -4.207 -0.7256 88
2.0859 -3.7832 0.149 148
2.2793 -4.1328 -0.6015999999999999 113
2.0918 -3.7949 0.2494 97
2.0703 -3.7558999999999996 -0.446 171
2.123 -3.8516000000000004 0.3555 101
2.0742 -3.7637 -0.34740000000000004 158
2.1172 -3.8398000000000003 0.4561 56
2.0664 -3.748 -0.2463 253
2.1289 -3.8594 0.5615 192
2.0723 -3.7598000000000003 -0.1481 54
2.1289 -3.8613 0.6659999999999999 135
2.0703 -3.7539 -0.0493 63
2.1387 -3.8789 0.7734000000000001 27
2.0527 -3.7558999999999996 -0.7471 35
2.0703 -3.7851999999999997 0.0496 40
2.2949 -4.1953 -0.7227 10
2.0859 -3.8164 0.15 197
2.2812 -4.1719 -0.606 29
2.0859 -3.8145 0.2502 53
2.0605 -3.7695 -0.447 154
2.1074 -3.8555 0.3552 242
2.0645 -3.7733999999999996 -0.3477 80
2.1211 -3.8789 0.46020000000000005 44
2.0586 -3.7656 -0.24710000000000001 2
2.1094 -3.8594 0.5600999999999999 138
2.0742 -3.793 -0.1492 245
2.1289 -3.8945 0.6704000000000001 117
2.0625 -3.7733999999999996 -0.049400000000000006 251
2.1406 -3.9160000000000004 0.7798 239
2.0156 -3.7168 -0.7383 94
2.0645 -3.8066000000000004 0.049699999999999994 77
2.2793 -4.2031 -0.7227 141
2.0801 -3.8379000000000003 0.1506 165
2.2773 -4.1992 -0.6093999999999999 218
2.084 -3.8438 0.25170000000000003 51
2.0625 -3.8047000000000004 -0.45020000000000004 252
2.0977 -3.8691000000000004 0.35600000000000004 33
2.0762 -3.8262 -0.3518 36
2.1152 -3.8983999999999996 0.4617 42
2.0586 -3.7949 -0.2484 46
2.1074 -3.8867000000000003 0.5635 171
2.0703 -3.8183999999999996 -0.1499 93
2.1289 -3.9238 0.6743000000000001 141
2.0742 -3.8262 -0.05 65
2.1406 -3.9452999999999996 0.7842 166
1.9912 -3.7031 -0.7339 176
2.0664 -3.8418 0.0501 26
2.2598 -4.2031 -0.7212000000000001 2
2.0723 -3.8555 0.151 204
2.2734 -4.2266 -0.6118 186
2.084 -3.873 0.2532 172
2.0605 -3.832 -0.4526 90
2.0977 -3.9004000000000003 0.3582 195
2.0645 -3.8379000000000003 -0.35229999999999995 192
2.1113 -3.9257999999999997 0.4639 205
2.0605 -3.8301 -0.2502 25
2.1172 -3.9355 0.5693 75
2.0703 -3.8495999999999997 -0.1509 217
2.123 -3.9473000000000003 0.6768000000000001 67
2.0762 -3.8594 -0.0504 199
2.1445 -3.9863 0.7905 54
1.9872999999999998 -3.7266000000000004 -0.7373000000000001 204
2.0684 -3.877 0.050499999999999996 24
2.2422 -4.207 -0.7202 103
2.0723 -3.8848000000000003 0.152 86
2.2832 -4.2812 -0.6187 120
2.0918 -3.9219 0.2559 233
2.0684 -3.877 -0.4573 162
2.0996 -3.9375 0.3608 128
2.0645 -3.8691000000000004 -0.35450000000000004 236
2.1055 -3.9492000000000003 0.4658 190
2.0566 -3.8574 -0.25170000000000003 99
2.1113 -3.957 0.5713 169
2.0645 -3.8711 -0.1514 120
2.123 -3.9785000000000004 0.6812 193
2.0664 -3.873 -0.0504 136
2.1406 -4.0156 0.7948999999999999 31
1.9834 -3.752 -0.7412000000000001 107
2.0703 -3.918 0.0509 94
2.25 -4.2578 -0.7275 34
2.0762 -3.9276999999999997 0.1533 161
2.3418 -4.4336 -0.6392 163
2.0859 -3.9452999999999996 0.2568 89
2.0645 -3.9082 -0.46 13
2.1016 -3.9766000000000004 0.3638 47
2.0625 -3.9023000000000003 -0.3569 244
2.1016 -3.9766000000000004 0.46799999999999997 191
2.0566 -3.8906 -0.2534 104
2.1094 -3.9922000000000004 0.5752 130
2.0684 -3.9141000000000004 -0.1528 161
2.123 -4.0156 0.6859999999999999 8
2.0586 -3.8945 -0.0506 255
2.1328 -4.0352 0.7974 182
1.9813999999999998 -3.7812 -0.7451000000000001 86
2.0664 -3.9414 0.051100000000000007 131
2.252 -4.2969 -0.7329000000000001 216
2.0742 -3.9589999999999996 0.1543 170
2.3574 -4.4961 -0.6475 28
2.0762 -3.9608999999999996 0.2576 209
2.0605 -3.9316000000000004 -0.4619 58
2.0996 -4.0078 0.366 161
2.0625 -3.9355 -0.3594 150
2.1035 -4.0156 0.4719 89
2.0586 -3.9257999999999997 -0.2551 191
2.1055 -4.0156 0.5776 111
2.0684 -3.9452999999999996 -0.15380000000000002 249
2.127 -4.0586 0.6919 148
2.0625 -3.9336 -0.051100000000000007 85
2.1309 -4.0664 0.8022 180
2.0742 -3.9901999999999997 -0.7856000000000001 209
2.0625 -3.9648000000000003 0.051399999999999994 77
2.25 -4.3281 -0.7373000000000001 149
2.0762 -3.9941000000000004 0.15539999999999998 42
2.4297 -4.6758 -0.6724 4
2.0762 -3.9941000000000004 0.2593 184
2.0508 -3.9452999999999996 -0.4629 111
2.0918 -4.0234 0.3667 195
2.0547 -3.9512 -0.3601 142
2.1035 -4.0469 0.47490000000000004 34
2.0488 -3.9395 -0.2556 185
2.0977 -4.0352 0.5791 47
2.0605 -3.9608999999999996 -0.1542 30
2.1211 -4.082 0.6948000000000001 113
2.0586 -3.9608999999999996 -0.0513 101
2.1328 -4.1016 0.8081 252
2.1328 -4.1367 -0.8134999999999999 168
2.0605 -3.9961 0.051699999999999996 179
2.2266 -4.3164 -0.7343999999999999 22
2.0684 -4.0117 0.1558 45
2.4648 -4.7812 -0.6865000000000001 214
2.0801 -4.0352 0.2615 35
2.0547 -3.9844 -0.46659999999999996 27
2.0859 -4.0469 0.3682 199
2.0488 -3.9745999999999997 -0.3616 247
2.1055 -4.082 0.4783 101
2.0527 -3.9805 -0.25780000000000003 200
2.1074 -4.0859 0.5859000000000001 216
2.0527 -3.9785000000000004 -0.1545 196
2.123 -4.1172 0.6997 105
2.0664 -4.0078 -0.0518 183
2.1445 -4.1602 0.8179000000000001 115
2.1289 -4.168 -0.8179000000000001 88
2.0605 -4.0312 0.0521 93
2.2305 -4.3633 -0.7406999999999999 66
2.0605 -4.0352 0.1564 2
2.4492 -4.793 -0.687 40
2.0742 -4.0625 0.2627 199
2.0547 -4.0234 -0.4702 33
2.0859 -4.0859 0.3711 3
2.043 -4.0 -0.36329999999999996 175
2.0996 -4.1094 0.4805 76
2.0508 -4.0156 -0.2595 45
2.1074 -4.125 0.5903 31
2.0527 -4.0156 -0.1558 37
2.125 -4.1602 0.7061 146
2.0566 -4.0234 -0.0519 49
2.7637 -5.4102 1.0645 22
2.1055 -4.1562 -0.8145 48
2.0566 -4.0625 0.052300000000000006 191
2.2188 -4.3789 -0.7422 73
2.0625 -4.0742 0.1576 160
2.4414 -4.8203 -0.6895 225
2.0762 -4.0977 0.2646 239
2.0547 -4.0586 -0.4736 80
2.0918 -4.1289 0.37450000000000006 162
2.041 -4.0312 -0.3655 23
2.0957 -4.1406 0.4832 137
2.0449 -4.0352 -0.2605 171
2.1152 -4.1758 0.5967 112
2.0508 -4.0508 -0.1567 174
2.7305 -5.390599999999999 0.915 194
2.0527 -4.0508 -0.052199999999999996 127
2.7363 -5.4023 1.0605 169
2.0898 -4.1641 -0.8140000000000001 230
2.0488 -4.082 0.0525 185
2.2246 -4.4297 -0.7495 146
2.0625 -4.1055 0.15869999999999998 184
2.6836 -5.3438 -0.7637 177
2.0684 -4.1211 0.2656 13
2.0508 -4.082 -0.4756 113
2.0957 -4.1758 0.3779 46
2.0391 -4.0625 -0.3677 36
2.125 -4.2344 0.49340000000000006 22
2.0391 -4.0625 -0.26170000000000004 90
2.7031 -5.386699999999999 0.7695000000000001 210
2.0566 -4.0977 -0.1582 226
2.7089999999999996 -5.394500000000001 0.9140999999999999 48
2.0488 -4.082 -0.0525 48
2.7108999999999996 -5.3984000000000005 1.0576 96
2.082 -4.1836 -0.8164 192
2.0469 -4.1094 0.0528 13
2.2031 -4.4258 -0.7476 139
2.0762 -4.1719 0.1609 27
2.6914 -5.4062 -0.7715000000000001 147
2.0898 -4.1992 0.2703 63
2.0566 -4.1328 -0.4805 236
2.1191 -4.2578 0.385 119
2.0391 -4.0977 -0.3701 150
2.0352 -4.0898 -0.2632 68
2.6776999999999997 -5.3789 0.7676000000000001 53
2.0488 -4.1172 -0.1588 77
2.6895 -5.4023 0.9140999999999999 74
2.0469 -4.1094 -0.0528 242
2.6855 -5.394500000000001 1.0556999999999999 250
2.0723 -4.1992 -0.8184 48
2.0684 -4.1875 0.0537 167
2.1953 -4.4453 -0.7495 160
2.0859 -4.2266 0.1628 253
2.6797000000000004 -5.425800000000001 -0.7729 121
2.0996 -4.25 0.2732 47
2.0547 -4.1602 -0.4832 160
2.1016 -4.2578 0.3843 99
2.0352 -4.125 -0.3721 103
2.668 -5.4023 0.6289 108
2.043 -4.1406 -0.2659 99
2.6543 -5.375 0.7656000000000001 206
2.0371 -4.125 -0.1589 227
2.6601999999999997 -5.386699999999999 0.9092 214
2.0938 -4.2422 -0.054400000000000004 126
2.668 -5.4023 1.0547 101
2.0117 -4.1094 -0.7993000000000001 119
2.1797 -4.4531 -0.7495 135
2.0742 -4.2383 0.163 68
2.6875 -5.488300000000001 -0.7803 113
2.6367000000000003 -5.3828 0.34590000000000004 122
3.4473000000000003 -7.0390999999999995 -0.8188 237
2.6387 -5.386699999999999 0.4863 167
2.6191000000000004 -5.3477 -0.4829 234
2.6445 -5.3984000000000005 0.6274000000000001 91
2.4375 -4.9805 -0.31980000000000003 51
2.6387 -5.390599999999999 0.7666 236
2.6387 -5.390599999999999 0.9087000000000001 9
2.0762 -4.2383 -0.054299999999999994 131
2.6445 -5.4023 1.0537 181
2.0488 -4.2227 -0.8203 210
2.1719 -4.4766 -0.7524 86
2.6016000000000004 -5.363300000000001 0.20629999999999998 112
2.6776999999999997 -5.519500000000001 -0.7837000000000001 166
2.6074 -5.3711 0.3447 198
3.4336 -7.074199999999999 -0.8218000000000001 180
2.623 -5.4062 0.48729999999999996 102
2.5938 -5.3438 -0.4814 82
2.6172000000000004 -5.394500000000001 0.6255 171
2.4961 -5.144500000000001 -0.3301 46
2.6151999999999997 -5.390599999999999 0.7651 158
2.5976999999999997 -5.355499999999999 -0.2059 174
2.6151999999999997 -5.390599999999999 0.9072 227
2.5488 -5.2539 -0.0674 247
2.6172000000000004 -5.394500000000001 1.0498 116
2.0703 -4.3047 -0.835 0
2.582 -5.3711 0.0688 141
2.1875 -4.5508 -0.7631999999999999 36
2.5839999999999996 -5.375 0.2064 56
2.6738 -5.5625 -0.7881 144
2.5801 -5.363300000000001 0.3435 212
3.418 -7.109400000000001 -0.8247 97
2.5938 -5.394500000000001 0.4851 205
2.5702999999999996 -5.3477 -0.48100000000000004 54
2.5938 -5.394500000000001 0.6245 116
2.5683999999999996 -5.3438 -0.3423 65
2.5858999999999996 -5.3789 0.7622 204
2.5781 -5.359400000000001 -0.2059 148
2.5918 -5.390599999999999 0.9053 138
2.5332 -5.269500000000001 -0.0674 234
2.5858999999999996 -5.3789 1.0449 44
2.0684 -4.3398 -0.8403 122
2.5449 -5.3398 0.0682 154
2.1895 -4.5938 -0.769 198
2.5547 -5.363300000000001 0.2057 87
2.6601999999999997 -5.582000000000001 -0.79 236
2.5586 -5.3711 0.3433 136
2.5683999999999996 -5.386699999999999 0.4839 53
2.5469 -5.3438 -0.48 231
2.5742000000000003 -5.4023 0.624 77
2.5371 -5.324199999999999 -0.3406 193
2.5605 -5.375 0.7603 147
2.5762 -5.4062 0.9067000000000001 47
2.4512 -5.140599999999999 -0.06570000000000001 137
2.5645 -5.3789 1.0439 147
2.0625 -4.3672 -0.8442000000000001 255
2.5176 -5.332000000000001 0.0681 159
2.168 -4.5898 -0.7676000000000001 66
2.5332 -5.363300000000001 0.2053 9
2.6523000000000003 -5.6172 -0.7935 122
2.5371 -5.3711 0.34299999999999997 37
3.9863 -8.4453 -0.9765999999999999 124
2.541 -5.3789 0.4824 185
2.5215 -5.3359000000000005 -0.47850000000000004 181
2.5488 -5.394500000000001 0.6225999999999999 169
2.5098 -5.3164 -0.3394 22
2.541 -5.3789 0.7598 48
2.5137 -5.324199999999999 -0.20370000000000002 8
2.5449 -5.386699999999999 0.9023 140
2.4941 -5.2812 -0.0674 97
2.5469 -5.394500000000001 1.0449 223
2.0137 -4.3047 -0.8306 199
2.4785 -5.300800000000001 0.0676 31
2.1406 -4.5742 -0.7637 80
2.5059 -5.359400000000001 0.2048 26
2.6620999999999997 -5.6953 -0.8031999999999999 196
2.5176 -5.3828 0.3433 84
3.9452999999999996 -8.4375 -0.9745999999999999 56
2.5176 -5.3828 0.4817 31
2.4941 -5.332000000000001 -0.4771 33
2.5215 -5.390599999999999 0.6211 172
2.4941 -5.332000000000001 -0.3398 92
2.5176 -5.3828 0.7587999999999999 99
2.5195 -5.386699999999999 -0.2059 18
2.5215 -5.390599999999999 0.9009 40
2.4863 -5.3164 -0.0677 236
2.5215 -5.390599999999999 1.042 100
2.0312 -4.3867 -0.8447 246
2.4258 -5.238300000000001 0.0666 234
2.1094 -4.5547 -0.7587999999999999 37
2.4844 -5.363300000000001 0.2047 112
2.6523000000000003 -5.7265999999999995 -0.8066 120
2.4863 -5.3672 0.34159999999999996 31
3.9824 -8.6016 -0.9912000000000001 24
2.4961 -5.386699999999999 0.4814 188
2.4746 -5.3398 -0.4771 177
2.4902 -5.3789 0.6182 182
2.4668 -5.328099999999999 -0.3389 97
2.4941 -5.3828 0.7578 199
2.4805 -5.359400000000001 -0.2043 199
2.4961 -5.386699999999999 0.8989 162
2.4512 -5.292999999999999 -0.0673 177
2.4941 -5.386699999999999 1.0391 206
2.043 -4.4531 -0.8564 143
2.4102 -5.25 0.0667 178
2.084 -4.5391 -0.7548999999999999 194
2.4629 -5.3672 0.2043 59
2.6504000000000003 -5.7734000000000005 -0.8115000000000001 206
2.4629 -5.3672 0.3408 142
3.9941000000000004 -8.7031 -1.002 119
2.4766 -5.394500000000001 0.48100000000000004 90
2.4512 -5.3398 -0.47609999999999997 148
2.4746 -5.390599999999999 0.6187 83
2.4531 -5.3438 -0.3394 40
2.4707 -5.3828 0.7563 66
2.4609 -5.359400000000001 -0.20420000000000002 1
2.4766 -5.394500000000001 0.8989 59
2.4473 -5.332000000000001 -0.0677 144
2.4746 -5.390599999999999 1.0381 209
2.043 -4.4922 -0.8628 27
2.3965 -5.269500000000001 0.0668 140
2.0488 -4.5039 -0.748 40
2.4492 -5.3828 0.2047 118
2.6620999999999997 -5.855499999999999 -0.8218000000000001 52
2.4414 -5.3672 0.3403 123
3.9726999999999997 -8.7344 -1.0039 119
2.4473 -5.3789 0.479 146
2.4316 -5.3477 -0.47609999999999997 191
2.4531 -5.394500000000001 0.6182 120
2.4297 -5.3438 -0.3389 73
2.4434 -5.375 0.7539 15
2.4355 -5.3515999999999995 -0.20350000000000001 15
2.4551 -5.394500000000001 0.8975 141
2.4277 -5.3359000000000005 -0.0677 212
2.4531 -5.394500000000001 1.0381 35
2.043 -4.5312 -0.8687 206
2.4199 -5.3672 0.0679 67
2.0273 -4.4961 -0.7456 2
2.416 -5.359400000000001 0.20350000000000001 222
2.668 -5.917999999999999 -0.8295999999999999 66
2.4258 -5.3789 0.3406 39
2.7832 -6.171900000000001 -0.7070000000000001 0
2.4199 -5.3672 0.4771 3
2.4082 -5.3398 -0.4746 157
2.4316 -5.394500000000001 0.6172 22
2.4062 -5.3398 -0.3381 251
2.4238 -5.375 0.7529 60
2.4102 -5.3477 -0.203 218
2.4277 -5.3828 0.894 133
2.4082 -5.3398 -0.0676 152
2.4355 -5.4023 1.0371 55
2.043 -4.5742 -0.8759999999999999 211
2.3965 -5.363300000000001 0.0678 75
2.0156 -4.5117 -0.7471 147
2.3965 -5.363300000000001 0.2032 159
2.5976999999999997 -5.8125 -0.8134999999999999 122
2.4043 -5.3789 0.34009999999999996 67
2.7558999999999996 -6.167999999999999 -0.7056 252
2.4043 -5.3789 0.4775 244
2.3828 -5.332000000000001 -0.4731 120
2.4102 -5.390599999999999 0.6162 24
2.3926 -5.3515999999999995 -0.33840000000000003 130
2.4062 -5.3828 0.7529 204
2.3906 -5.3515999999999995 -0.2029 176
2.4043 -5.3789 0.8920999999999999 156
2.3848 -5.3359000000000005 -0.0674 103
2.4141 -5.4023 1.0361 104
2.0371 -4.6055 -0.8804000000000001 69
2.375 -5.3672 0.0677 17
2.0 -4.5195 -0.7471 254
2.375 -5.3672 0.20309999999999997 65
2.3379 -5.2812 -0.7378 124
2.377 -5.375 0.33909999999999996 207
2.7245999999999997 -6.1602 -0.7031000000000001 255
2.3828 -5.3828 0.47729999999999995 222
2.3613 -5.3359000000000005 -0.4731 10
2.3809 -5.3789 0.6138 10
2.3633 -5.3438 -0.3372 23
2.3789 -5.375 0.7509999999999999 244
2.3691 -5.355499999999999 -0.2028 254
2.3809 -5.3789 0.8906000000000001 227
2.3555 -5.324199999999999 -0.0672 113
2.3887 -5.394500000000001 1.0332 107
2.0254 -4.6211 -0.8823000000000001 52
2.3496 -5.359400000000001 0.0675 188
1.9863 -4.5312 -0.748 235
2.3516 -5.3672 0.2028 220
2.3047 -5.2578 -0.7334 178
2.3516 -5.363300000000001 0.3381 207
2.7108999999999996 -6.1875 -0.7056 161
2.3594 -5.3828 0.4763 105
2.3398 -5.3359000000000005 -0.4722 150
2.3652 -5.394500000000001 0.6143 147
2.3359 -5.328099999999999 -0.33590000000000003 119
2.3574 -5.3789 0.75 131
2.3477 -5.355499999999999 -0.2024 185
2.3613 -5.386699999999999 0.8901 252
2.334 -5.324199999999999 -0.06709999999999999 91
2.3613 -5.3828 1.0293 214
2.0234 -4.6602 -0.8887 190
2.3203 -5.3438 0.0672 161
1.9727000000000001 -4.543 -0.7484999999999999 145
2.332 -5.3711 0.2028 252
2.2969 -5.2890999999999995 -0.7363 116
2.3301 -5.363300000000001 0.33759999999999996 61
2.7148000000000003 -6.25 -0.7114 1
2.334 -5.375 0.47509999999999997 151
2.3184 -5.3398 -0.4719 223
2.3438 -5.3984000000000005 0.6138 134
2.3203 -5.3438 -0.3362 112
2.332 -5.3711 0.7476 228
2.3242 -5.355499999999999 -0.20199999999999999 203
2.3418 -5.394500000000001 0.8901 216
2.3203 -5.3438 -0.0672 63
2.3438 -5.3984000000000005 1.0303 163
2.0195 -4.6953 -0.894 52
2.3047 -5.359400000000001 0.0673 187
1.9609 -4.5625 -0.7505 180
2.2773 -5.292999999999999 -0.7358 247
2.3145 -5.3789 0.3381 218
2.6992000000000003 -6.2773 -0.7139 129
2.3105 -5.3711 0.47409999999999997 17
2.2949 -5.3398 -0.47090000000000004 162
2.3223 -5.4023 0.6133 175
2.3008 -5.3515999999999995 -0.3362 35
2.3125 -5.375 0.7471 109
2.2988 -5.3438 -0.20129999999999998 67
2.3145 -5.3828 0.8867 151
2.3008 -5.3515999999999995 -0.0672 76
2.3145 -5.3828 1.0254 143
2.0215 -4.7422 -0.9014 180
2.291 -5.375 0.0674 226
1.9569999999999999 -4.5938 -0.7548999999999999 98
2.2793 -5.3477 0.20129999999999998 42
2.2559 -5.292999999999999 -0.7343999999999999 174
2.293 -5.3789 0.33759999999999996 41
2.7051 -6.3477 -0.7202 5
2.2949 -5.3828 0.4744 175
2.2734 -5.3359000000000005 -0.4702 171
2.2988 -5.394500000000001 0.6118 145
2.2812 -5.355499999999999 -0.33590000000000003 88
2.293 -5.3828 0.7471 223
2.2812 -5.3515999999999995 -0.2014 248
2.293 -5.3789 0.8853 41
2.2695 -5.324199999999999 -0.0668 165
2.3008 -5.4023 1.0283 166
2.0117 -4.7656 -0.9048 85
2.2637 -5.359400000000001 0.06709999999999999 214
1.96 -4.6445 -0.7622 0
2.2598 -5.3515999999999995 0.201 99
2.252 -5.332000000000001 -0.7393000000000001 5
2.2676 -5.3711 0.33640000000000003 102
2.6914 -6.375 -0.7231000000000001 164
2.2734 -5.3828 0.4736 104
2.25 -5.328099999999999 -0.46880000000000005 3
2.2734 -5.3828 0.6093999999999999 176
2.2598 -5.3515999999999995 -0.33520000000000005 159
2.2754 -5.386699999999999 0.7465999999999999 6
2.2598 -5.3515999999999995 -0.201 146
2.2754 -5.386699999999999 0.8853 52
2.2305 -5.2852 -0.0662 224
2.2715 -5.3789 1.0225 127
2.0078 -4.8047 -0.9106000000000001 176
2.2266 -5.328099999999999 0.0667 143
1.9647999999999999 -4.6992 -0.7705 167
2.2402 -5.359400000000001 0.201 56
2.6504000000000003 -6.3438 -0.8784000000000001 208
2.2441 -5.3711 0.33590000000000003 188
3.707 -8.875 -1.0059 254
2.252 -5.390599999999999 0.47340000000000004 168
2.2305 -5.3359000000000005 -0.46880000000000005 48
2.25 -5.3828 0.6089 115
2.2324 -5.3438 -0.3342 220
2.2461 -5.375 0.7441 232
2.2383 -5.359400000000001 -0.2009 176
2.252 -5.386699999999999 0.8837999999999999 160
2.2168 -5.3086 -0.0663 140
2.252 -5.386699999999999 1.0225 59
2.0059 -4.8477 -0.9179999999999999 26
2.1973 -5.3125 0.0663 212
1.9561000000000002 -4.7266 -0.7734000000000001 167
2.2207 -5.3672 0.2009 177
2.6620999999999997 -6.4336 -0.8896 203
2.2207 -5.3672 0.33520000000000005 63
2.2266 -5.3828 0.4722 180
2.209 -5.3359000000000005 -0.4683 244
2.2344 -5.3984000000000005 0.6093999999999999 101
2.209 -5.3398 -0.3335 83
2.2227 -5.3711 0.7422 4
2.2129 -5.3477 -0.2003 225
2.2363 -5.4023 0.8848 134
2.1973 -5.3086 -0.0663 134
2.2285 -5.386699999999999 1.0205 126
2.0039 -4.8906 -0.9248000000000001 238
2.1758 -5.3164 0.0663 26
1.9912 -4.8633 -0.7944 186
2.1953 -5.359400000000001 0.2004 169
2.6483999999999996 -6.4688 -0.8936 6
2.2051 -5.3828 0.3357 15
2.2051 -5.386699999999999 0.4717 64
2.1855 -5.3398 -0.4675 97
2.2168 -5.4102 0.6099 208
2.1914 -5.3515999999999995 -0.3337 249
2.2012 -5.375 0.7412000000000001 207
2.1855 -5.3359000000000005 -0.1996 149
2.207 -5.386699999999999 0.8813 194
2.1777 -5.3203 -0.0663 46
2.2109 -5.3984000000000005 1.0205 107
1.9971 -4.9258 -0.9297 134
2.1641 -5.3359000000000005 0.0664 131
2.0391 -5.0312 -0.8212999999999999 152
2.1699 -5.3515999999999995 0.1998 154
2.6445 -6.5234000000000005 -0.8998999999999999 19
2.1855 -5.390599999999999 0.3357 141
2.1816 -5.3789 0.4705 31
2.1582 -5.324199999999999 -0.4656 19
2.1855 -5.390599999999999 0.6064 169
2.1699 -5.3515999999999995 -0.3333 118
2.1836 -5.3828 0.7417 92
2.166 -5.3398 -0.19949999999999998 119
2.1836 -5.386699999999999 0.8794 11
2.1543 -5.3125 -0.0662 157
2.1895 -5.4023 1.0205 135
1.9912 -4.9531 -0.9340999999999999 86
2.1445 -5.3398 0.0664 1
2.0625 -5.1328 -0.8369 40
2.1543 -5.363300000000001 0.2 27
2.6367000000000003 -6.5586 -0.9037999999999999 34
2.1602 -5.3789 0.3345 18
2.1641 -5.386699999999999 0.4705 184
2.1426 -5.332000000000001 -0.4656 144
2.1641 -5.3828 0.605 223
2.1484 -5.3477 -0.3325 239
2.1641 -5.386699999999999 0.7412000000000001 205
2.1484 -5.3477 -0.19949999999999998 81
2.168 -5.394500000000001 0.8798999999999999 241
2.1348 -5.3125 -0.066 112
2.168 -5.394500000000001 1.0176 132
1.9813999999999998 -4.9805 -0.9375 167
2.1211 -5.332000000000001 0.0662 41
2.0605 -5.175800000000001 -0.8432999999999999 217
2.1328 -5.363300000000001 0.1997 18
2.6055 -6.546900000000001 -0.9009 207
2.1348 -5.363300000000001 0.3333 125
2.1426 -5.386699999999999 0.4697 84
2.1211 -5.332000000000001 -0.4648 156
2.1465 -5.394500000000001 0.6054999999999999 192
2.127 -5.3477 -0.332 75
2.1406 -5.3789 0.7393000000000001 184
2.127 -5.3438 -0.19899999999999998 47
2.1465 -5.394500000000001 0.8789 39
2.1133 -5.3086 -0.0659 82
2.1445 -5.386699999999999 1.0146 140
1.9872999999999998 -5.0469 -0.9492 220
2.0957 -5.324199999999999 0.066 34
2.0391 -5.175800000000001 -0.8418000000000001 82
2.1113 -5.363300000000001 0.19949999999999998 249
2.4219 -6.1523 -0.8452 57
2.1152 -5.375 0.3335 217
2.1191 -5.3828 0.469 170
2.1035 -5.3398 -0.4653 218
2.127 -5.4023 0.6054999999999999 179
2.1035 -5.3438 -0.33130000000000004 180
2.1133 -5.3672 0.7363 46
2.1016 -5.3398 -0.1986 224
2.125 -5.3984000000000005 0.8784000000000001 58
2.0898 -5.3086 -0.0658 43
2.1191 -5.3828 1.0127 107
1.9824000000000002 -5.0859 -0.9551000000000001 96
2.0762 -5.324199999999999 0.0659 237
1.9678 -5.0508 -0.8198000000000001 153
2.0859 -5.355499999999999 0.1989 240
2.4004 -6.1640999999999995 -0.8452 159
2.0977 -5.3828 0.3335 112
2.0938 -5.375 0.4675 93
2.0781 -5.332000000000001 -0.4636 153
2.1055 -5.4023 0.605 63
2.0859 -5.355499999999999 -0.33149999999999996 120
2.0918 -5.3672 0.7354 193
2.0781 -5.332000000000001 -0.198 50
2.1016 -5.390599999999999 0.8759999999999999 31
2.0762 -5.328099999999999 -0.066 148
2.1035 -5.3984000000000005 1.0146 134
1.9794999999999998 -5.1328 -0.9623999999999999 224
2.0586 -5.3359000000000005 0.066 179
2.041 -5.2890999999999995 -0.8584 70
2.0625 -5.3515999999999995 0.1985 118
2.377 -6.1640999999999995 -0.8442000000000001 166
2.0762 -5.3828 0.33299999999999996 1
2.0742 -5.3789 0.4673 245
2.0527 -5.324199999999999 -0.46240000000000003 243
2.0801 -5.394500000000001 0.603 226
2.0586 -5.3359000000000005 -0.3301 239
2.0762 -5.3828 0.7363 219
2.0586 -5.3398 -0.198 112
2.0781 -5.386699999999999 0.8740000000000001 121
2.0586 -5.3398 -0.066 116
2.0801 -5.394500000000001 1.0117 254
1.9775 -5.1836 -0.9706999999999999 21
2.0469 -5.363300000000001 0.0662 90
2.3027 -6.0312 -0.978 199
2.043 -5.355499999999999 0.1984 104
2.3516 -6.1602 -0.8428 218
2.0488 -5.3672 0.33149999999999996 80
2.0508 -5.3711 0.4661 9
2.0293 -5.3164 -0.46090000000000003 63
2.0547 -5.3828 0.6011 49
2.0371 -5.3398 -0.3298 198
2.0547 -5.3828 0.7354 64
2.041 -5.3477 -0.198 65
2.0547 -5.3828 0.8726 208
2.0352 -5.332000000000001 -0.0659 156
2.0527 -5.3789 1.0078 137
1.9678 -5.2148 -0.9751000000000001 161
2.0254 -5.3672 0.0662 68
2.2988 -6.0898 -0.9863 85
2.0215 -5.355499999999999 0.1981 152
2.3164 -6.136699999999999 -0.8379000000000001 138
2.0234 -5.359400000000001 0.3306 188
2.0391 -5.4023 0.4678 64
2.0176 -5.3438 -0.4629 125
2.0371 -5.394500000000001 0.6015999999999999 11
2.0137 -5.332000000000001 -0.3289 73
2.0215 -5.355499999999999 0.731 56
2.0215 -5.355499999999999 -0.1981 29
2.0352 -5.390599999999999 0.8726 183
2.0117 -5.332000000000001 -0.06570000000000001 97
2.0332 -5.3828 1.0078 76
1.9668 -5.265599999999999 -0.9839 231
1.9980000000000002 -5.3477 0.0659 142
2.2695 -6.078099999999999 -0.9829000000000001 125
1.999 -5.3515999999999995 0.19760000000000003 142
2.2949 -6.144500000000001 -0.8379000000000001 122
2.002 -5.359400000000001 0.33030000000000004 158
2.0059 -5.3711 0.4646 106
1.9950999999999999 -5.3398 -0.4619 193
2.0156 -5.394500000000001 0.6006 34
1.9980000000000002 -5.3477 -0.3296 176
2.0059 -5.3711 0.7323999999999999 102
1.9941 -5.3398 -0.1973 224
2.0156 -5.394500000000001 0.8715999999999999 200
1.9961000000000002 -5.3438 -0.0658 28
2.0117 -5.386699999999999 1.0068000000000001 250
2.2031 -5.9609000000000005 -1.1133 50
1.9805000000000001 -5.355499999999999 0.0659 107
2.2441 -6.0703 -0.9804999999999999 81
1.9813999999999998 -5.359400000000001 0.1978 79
2.2832 -6.171900000000001 -0.8412999999999999 200
1.9834 -5.363300000000001 0.3301 195
1.9844 -5.3672 0.4639 33
1.9716999999999998 -5.332000000000001 -0.4607 72
1.9971 -5.4023 0.6006 228
1.9736000000000002 -5.3398 -0.3286 101
1.9863 -5.3711 0.731 31
1.9697 -5.328099999999999 -0.19649999999999998 134
1.9922 -5.390599999999999 0.8695999999999999 95
1.9746000000000001 -5.3438 -0.06570000000000001 227
1.9941 -5.394500000000001 1.0068000000000001 234
2.1934 -5.9922 -1.1181999999999999 1
1.9619 -5.363300000000001 0.0659 115
2.2266 -6.0859000000000005 -0.9814 54
1.9628999999999999 -5.363300000000001 0.19760000000000003 131
2.2578 -6.167999999999999 -0.8398 101
1.9647999999999999 -5.3672 0.3298 37
1.9619 -5.359400000000001 0.46259999999999996 96
1.9512 -5.332000000000001 -0.46 123
1.9736000000000002 -5.394500000000001 0.5991 175
1.9521000000000002 -5.3359000000000005 -0.32789999999999997 221
1.9707 -5.386699999999999 0.7323999999999999 109
1.9569999999999999 -5.3477 -0.19699999999999998 26
1.9687999999999999 -5.3789 0.8672 165
1.9531 -5.3359000000000005 -0.06559999999999999 77
1.9756 -5.3984000000000005 1.0068000000000001 214
2.1738 -6.0078 -1.1191 161
1.9375 -5.355499999999999 0.06570000000000001 236
2.207 -6.1015999999999995 -0.9829000000000001 188
1.9385 -5.355499999999999 0.1971 199
2.2305 -6.1640999999999995 -0.8373999999999999 43
1.9413999999999998 -5.3672 0.3293 219
1.9472999999999998 -5.3828 0.4639 250
1.9287 -5.332000000000001 -0.4595 252
1.9463 -5.3789 0.5967 87
1.9306999999999999 -5.3359000000000005 -0.3274 68
1.9541 -5.4023 0.7334 81
1.9325999999999999 -5.3398 -0.19649999999999998 94
1.9531 -5.3984000000000005 0.8691 246
1.9287 -5.332000000000001 -0.0654 203
1.9561000000000002 -5.4062 1.0068000000000001 44
2.166 -6.0547 -1.126 223
1.9188999999999998 -5.363300000000001 0.06570000000000001 196
2.1973 -6.136699999999999 -0.9873000000000001 145
1.9209 -5.3672 0.1973 60
2.2148 -6.1914 -0.8403 65
1.9209 -5.3672 0.3289 16
1.9287 -5.386699999999999 0.4639 17
1.9325999999999999 -5.4023 0.5981000000000001 139
1.9297 -5.390599999999999 0.731 102
1.9180000000000001 -5.359400000000001 -0.19699999999999998 244
1.9316 -5.3984000000000005 0.8676999999999999 216
1.915 -5.3515999999999995 -0.06559999999999999 13
2.1953 -6.203099999999999 -1.1533 114
1.8975 -5.363300000000001 0.06559999999999999 110
2.1836 -6.167999999999999 -0.9912000000000001 214
1.9022999999999999 -5.375 0.1973 1
2.1973 -6.207000000000001 -0.8412999999999999 65
1.9072 -5.390599999999999 0.3298 58
1.9091999999999998 -5.394500000000001 0.4639 82
1.8936000000000002 -5.3515999999999995 -0.46 39
1.9169999999999998 -5.4140999999999995 0.5991 201
1.8896000000000002 -5.3398 -0.3267 126
1.8965 -5.359400000000001 -0.1967 87
1.8944999999999999 -5.355499999999999 -0.0655 67
2.123 -6.0625 -1.125 112
1.8788999999999998 -5.3672 0.06559999999999999 25
2.1992 -6.2852 -1.0088 174
1.8847999999999998 -5.3828 0.1974 20
2.1895 -6.2539 -0.8472 211
1.8896000000000002 -5.3984000000000005 0.3301 146
1.8887 -5.394500000000001 0.46340000000000003 206
1.9022999999999999 -5.4336 0.6006 185
1.8916 -5.4062 0.731 111
1.8721 -5.3477 -0.196 47
1.8965 -5.417999999999999 0.8687 140
1.8779 -5.363300000000001 -0.06559999999999999 37
2.0605 -5.953099999999999 -1.1035 171
1.8672 -5.394500000000001 0.0659 215
2.1035 -6.078099999999999 -0.9741 151
1.8652000000000002 -5.390599999999999 0.1974 173
2.1758 -6.2852 -0.8501000000000001 28
1.8769999999999998 -5.425800000000001 0.33130000000000004 48
1.8799000000000001 -5.4297 0.4658 194
1.8662 -5.390599999999999 -0.46240000000000003 228
1.8721 -5.4102 -0.33030000000000004 106
1.8594 -5.375 -0.1968 177
1.8555000000000001 -5.363300000000001 -0.0654 43
2.0391 -5.9609000000000005 -1.1035 201
1.8535 -5.4140999999999995 0.066 134
2.0703 -6.046900000000001 -0.9682999999999999 58
1.8496000000000001 -5.4062 0.1978 123
2.1719 -6.3438 -0.8573999999999999 45
1.8594 -5.4336 0.33130000000000004 132
1.8672 -5.457000000000001 0.4673 157
1.8466999999999998 -5.3984000000000005 -0.46240000000000003 174
1.8691 -5.4609000000000005 0.6021 3
1.8516 -5.4140999999999995 -0.3301 141
1.8486000000000002 -5.4023 -0.19760000000000003 43
1.8457 -5.394500000000001 -0.0658 59
1.8799000000000001 -5.4922 1.0166 154
2.0156 -5.957000000000001 -1.1016 124
1.8408000000000002 -5.4414 0.0663 27
2.0605 -6.0938 -0.9741 41
1.8397999999999999 -5.4375 0.1986 238
2.0879 -6.171900000000001 -0.8325 168
1.8477000000000001 -5.4609000000000005 0.3328 89
1.8555000000000001 -5.484400000000001 0.4692 105
1.8397999999999999 -5.4375 -0.4653 14
1.8535 -5.480499999999999 0.6035 11
1.8369 -5.4297 -0.3308 203
1.8563999999999998 -5.488300000000001 0.7397 202
1.8447 -5.453099999999999 -0.19920000000000002 32
1.875 -5.542999999999999 0.8856999999999999 236
1.8369 -5.4297 -0.0661 241
1.876 -5.546900000000001 1.0244 106
1.9931999999999999 -5.9609000000000005 -1.1006 116
1.8369 -5.4922 0.0668 103
2.0391 -6.1015999999999995 -0.9741 217
1.835 -5.488300000000001 0.2003 85
2.0605 -6.1602 -0.8301000000000001 7
1.8418 -5.5078 0.33520000000000005 37
1.8506 -5.5352 0.4731 13
1.835 -5.484400000000001 -0.46880000000000005 243
1.8681999999999999 -5.5859000000000005 0.6147 12
1.8252000000000002 -5.4609000000000005 -0.3323 46
1.8574000000000002 -5.5547 0.7476 198
1.8300999999999998 -5.4727 -0.1997 39
1.875 -5.609400000000001 0.895 97
1.8369 -5.4961 -0.0668 142
1.8799000000000001 -5.6211 1.0381 84
1.9697 -5.957000000000001 -1.0986 243
1.835 -5.546900000000001 0.0674 56
2.0078 -6.0703 -0.9682999999999999 160
1.835 -5.550800000000001 0.2023 132
2.043 -6.175800000000001 -0.8315 133
1.8477000000000001 -5.5859000000000005 0.3396 206
1.8506 -5.5938 0.4775 63
1.8291 -5.5312 -0.4722 150
1.8622999999999998 -5.6328 0.6187 239
1.8300999999999998 -5.5352 -0.33640000000000003 223
1.8613 -5.6289 0.7568 71
1.834 -5.546900000000001 -0.2021 226
1.8721 -5.6602 0.9023 163
1.8447 -5.578099999999999 -0.0678 71
1.875 -5.667999999999999 1.0459 77
1.9502000000000002 -5.9609000000000005 -1.0986 176
1.835 -5.609400000000001 0.0681 104
1.9872999999999998 -6.074199999999999 -0.9682999999999999 23
1.835 -5.613300000000001 0.2043 93
2.0039 -6.1289 -0.8237000000000001 244
1.8418 -5.6289 0.342 205
1.8466999999999998 -5.644500000000001 0.4814 139
1.8241999999999998 -5.578099999999999 -0.4756 127
1.8555000000000001 -5.671900000000001 0.6225999999999999 34
1.8291 -5.5938 -0.3396 127
1.8544999999999998 -5.671900000000001 0.7622 220
1.8330000000000002 -5.605499999999999 -0.20420000000000002 3
1.8730000000000002 -5.7265999999999995 0.9126000000000001 27
1.8369 -5.6172 -0.0682 99
1.8799000000000001 -5.7461 1.0586 227
1.9238 -5.957000000000001 -1.0967 163
1.8311000000000002 -5.671900000000001 0.0688 172
1.9658000000000002 -6.0898 -0.9692000000000001 236
1.834 -5.6836 0.20670000000000002 255
1.9902000000000002 -6.1640999999999995 -0.8276 168
1.8397999999999999 -5.699199999999999 0.3457 203
1.8506 -5.734400000000001 0.48829999999999996 46
1.8125 -5.613300000000001 -0.4783 67
1.8525 -5.738300000000001 0.6294 248
1.8232 -5.6484000000000005 -0.3425 223
1.8622999999999998 -5.769500000000001 0.7744 168
1.8300999999999998 -5.671900000000001 -0.20629999999999998 71
1.8662 -5.7812 0.9198999999999999 51
1.8330000000000002 -5.6797 -0.0689 154
1.8788999999999998 -5.8203 1.0713 193
1.8916 -5.9297 -1.0908 140
1.8271000000000002 -5.7265999999999995 0.0694 90
1.9375 -6.074199999999999 -0.9658 113
1.8319999999999999 -5.7461 0.2087 90
1.959 -6.140599999999999 -0.8237000000000001 20
1.8388999999999998 -5.765599999999999 0.3494 8
1.7431999999999999 -5.4648 -0.5981000000000001 142
1.8525 -5.8086 0.4941 221
1.7313999999999998 -5.425800000000001 -0.4617 120
1.8555000000000001 -5.8164 0.6372 157
1.8154 -5.6914 -0.345 175
1.8574000000000002 -5.824199999999999 0.7807999999999999 207
1.8311000000000002 -5.738300000000001 -0.2086 128
1.8691 -5.859400000000001 0.9316 205
1.8281 -5.734400000000001 -0.0695 80
1.8721 -5.8711 1.0791 25
1.6425999999999998 -5.2109000000000005 -0.9561 224
1.8232 -5.7812 0.07 171
1.6543 -5.2461 -0.8325 240
1.834 -5.8164 0.2112 224
1.6436000000000002 -5.2109000000000005 -0.6973 22
1.8397999999999999 -5.8359000000000005 0.3533 25
1.7158000000000002 -5.4414 -0.5952000000000001 136
1.8477000000000001 -5.859400000000001 0.498 87
1.7061000000000002 -5.4102 -0.4597 127
1.8574000000000002 -5.890599999999999 0.6445000000000001 81
1.8008000000000002 -5.7109000000000005 -0.3457 180
1.8555000000000001 -5.8828 0.7881 135
1.8300999999999998 -5.8047 -0.2107 249
1.8672 -5.921900000000001 0.9404 192
1.834 -5.8164 -0.0704 50
1.876 -5.949199999999999 1.0928 170
1.6309 -5.234400000000001 -0.9590000000000001 130
1.8232 -5.8515999999999995 0.0707 142
1.624 -5.2109000000000005 -0.8256999999999999 204
1.8300999999999998 -5.8711 0.213 183
1.6152000000000002 -5.1836 -0.6929000000000001 79
1.8359 -5.890599999999999 0.3564 161
1.6758000000000002 -5.375 -0.5874 144
1.8408000000000002 -5.9062 0.502 106
1.6816 -5.3984000000000005 -0.45799999999999996 204
1.8584 -5.9609000000000005 0.6518999999999999 116
1.6825999999999999 -5.3984000000000005 -0.3264 225
1.8555000000000001 -5.953099999999999 0.7968999999999999 96
1.8232 -5.8477 -0.2122 89
1.8711000000000002 -6.0039 0.9526 34
1.834 -5.8828 -0.0712 239
1.8799000000000001 -6.0312 1.1064 39
1.5888999999999998 -5.1640999999999995 -0.9458 94
1.8252000000000002 -5.9336 0.0717 138
1.5928 -5.175800000000001 -0.8193 149
1.8252000000000002 -5.9336 0.215 28
1.5878999999999999 -5.1602 -0.6890000000000001 61
1.8388999999999998 -5.9765999999999995 0.3611 60
1.6122999999999998 -5.2422 -0.5718 7
1.8466999999999998 -6.0 0.5093 213
1.6475 -5.355499999999999 -0.4539 122
1.8525 -6.0234000000000005 0.6577 2
1.6553 -5.3828 -0.325 88
1.8584 -6.0390999999999995 0.8076000000000001 62
1.8193000000000001 -5.9140999999999995 -0.2144 155
1.8613 -6.050800000000001 0.9584999999999999 251
1.8300999999999998 -5.949199999999999 -0.0719 213
1.875 -6.0938 1.1172 93
1.5713 -5.171900000000001 -0.9458 15
1.8262 -6.011699999999999 0.0726 45
1.5722999999999998 -5.175800000000001 -0.8184 254
1.8271000000000002 -6.011699999999999 0.2177 56
1.5663999999999998 -5.1562 -0.688 43
1.835 -6.0390999999999995 0.36469999999999997 94
1.5897999999999999 -5.230499999999999 -0.5703 197
1.8418 -6.0625 0.5136999999999999 55
1.6006 -5.269500000000001 -0.446 229
1.8496000000000001 -6.0859000000000005 0.6640999999999999 25
1.6143 -5.3125 -0.32030000000000003 248
1.8555000000000001 -6.109400000000001 0.8154 87
1.8213 -5.9961 -0.217 141
1.8613 -6.1289 0.9702 8
1.8232 -6.0 -0.0724 78
1.8769999999999998 -6.175800000000001 1.1309 6
1.5449000000000002 -5.1562 -0.9414 164
1.8193000000000001 -6.0664 0.0732 168
1.5518 -5.175800000000001 -0.8173999999999999 15
1.8281 -6.0977 0.2205 83
1.5478999999999998 -5.1640999999999995 -0.688 232
1.8300999999999998 -6.1015999999999995 0.3679 61
1.5644999999999998 -5.2148 -0.5679 79
1.8378999999999999 -6.1289 0.519 234
1.5781 -5.261699999999999 -0.4451 240
1.8506 -6.171900000000001 0.6724 67
1.5859 -5.2890999999999995 -0.3186 97
1.8584 -6.199199999999999 0.8267 156
1.8115 -6.042999999999999 -0.21850000000000003 12
1.8652000000000002 -6.2227 0.9839 88
1.8222999999999998 -6.078099999999999 -0.0733 234
1.8711000000000002 -6.238300000000001 1.1406 186
1.5283000000000002 -5.1602 -0.9419 155
1.8174000000000001 -6.140599999999999 0.07400000000000001 196
1.5272999999999999 -5.1602 -0.8140000000000001 249
1.8252000000000002 -6.1640999999999995 0.2228 37
1.5312000000000001 -5.171900000000001 -0.6884999999999999 123
1.8300999999999998 -6.1836 0.37229999999999996 183
1.5438999999999998 -5.2148 -0.5674 204
1.8408000000000002 -6.2188 0.5264 64
1.5537 -5.25 -0.4434 193
1.8516 -6.2539 0.6812 248
1.5605000000000002 -5.269500000000001 -0.3171 98
1.8408000000000002 -6.2188 0.8291 149
1.5928 -5.3789 -0.1941 130
1.8622999999999998 -6.292999999999999 0.9941 255
1.8203 -6.1484000000000005 -0.0741 97
1.8681999999999999 -6.3125 1.1533 210
1.5127000000000002 -5.175800000000001 -0.9434 214
1.8154 -6.2109000000000005 0.0748 200
1.5097999999999998 -5.1602 -0.8134999999999999 221
1.8213 -6.230499999999999 0.2249 98
