# .PCD v0.7 - Point Cloud Data file format
VERSION 0.7
FIELDS x y z intensity
SIZE 4 4 4 4
TYPE F F F F
COUNT 1 1 1 1
WIDTH 1215
HEIGHT 1
VIEWPOINT 0 0 0 1 0 0 0
POINTS 1215
DATA ascii
1.9141 -5.363300000000001 0.06570000000000001 201
2.1836 -6.1211 -0.9843999999999999 147
1.915 -5.363300000000001 0.1971 47
2.2109 -6.1914 -0.8403 159
1.9209 -5.3828 0.3298 242
1.9188999999999998 -5.375 0.46259999999999996 171
1.9316 -5.4140999999999995 0.5996 190
1.9082 -5.3477 -0.19640000000000002 150
1.9258000000000002 -5.394500000000001 0.8672 109
1.9102000000000001 -5.3515999999999995 -0.06559999999999999 233
2.1953 -6.2188 -1.1553 169
1.8955000000000002 -5.3672 0.06570000000000001 195
2.1855 -6.1875 -0.9941 202
1.8944999999999999 -5.363300000000001 0.19690000000000002 108
2.1992 -6.2265999999999995 -0.8438 80
1.9072 -5.4023 0.3306 160
1.9013999999999998 -5.386699999999999 0.4629 188
1.8838 -5.3359000000000005 -0.4585 254
1.9121000000000001 -5.4140999999999995 0.5991 26
1.8944999999999999 -5.363300000000001 -0.3284 20
1.8936000000000002 -5.363300000000001 -0.1968 75
1.8896000000000002 -5.3515999999999995 -0.0655 115
1.916 -5.425800000000001 1.0068000000000001 114
2.0918 -5.988300000000001 -1.1113 31
1.8838 -5.390599999999999 0.0659 177
2.2031 -6.3086 -1.0127 189
1.8818000000000001 -5.386699999999999 0.1974 76
2.1875 -6.261699999999999 -0.8477 181
1.8857 -5.394500000000001 0.3298 104
1.8936000000000002 -5.417999999999999 0.4653 25
1.8721 -5.359400000000001 -0.46 188
1.8925999999999998 -5.417999999999999 0.5986 87
1.876 -5.3711 -0.3284 94
1.8877000000000002 -5.4023 0.7304999999999999 72
1.8779 -5.375 -0.19699999999999998 172
1.8965 -5.4297 0.8701000000000001 253
1.8691 -5.3515999999999995 -0.0654 38
2.0547 -5.949199999999999 -1.1025 123
1.8633000000000002 -5.3984000000000005 0.0659 137
2.0938 -6.0664 -0.9717 51
1.8681999999999999 -5.4102 0.198 127
2.1777 -6.3086 -0.853 85
1.8652000000000002 -5.4023 0.3298 103
1.876 -5.4336 0.4658 142
1.8633000000000002 -5.394500000000001 -0.46259999999999996 143
1.8818000000000001 -5.449199999999999 0.6015999999999999 199
1.8555000000000001 -5.375 -0.3281 52
1.8633000000000002 -5.394500000000001 -0.1975 59
1.8555000000000001 -5.375 -0.06559999999999999 37
2.0312 -5.949199999999999 -1.1006 120
1.8496000000000001 -5.417999999999999 0.066 227
2.0605 -6.0390999999999995 -0.9662999999999999 110
1.8525 -5.425800000000001 0.1984 221
2.1738 -6.3672 -0.8599 48
1.8584 -5.4453 0.332 195
1.8633000000000002 -5.457000000000001 0.4673 31
1.8544999999999998 -5.4336 -0.4653 193
1.8672 -5.4688 0.6025 177
1.8535 -5.4297 -0.3311 102
1.8466999999999998 -5.4062 -0.1978 104
1.8730000000000002 -5.484400000000001 0.8774 96
1.8466999999999998 -5.4102 -0.0659 198
1.874 -5.488300000000001 1.0156 249
2.0156 -5.9727 -1.1045 101
1.8388999999999998 -5.449199999999999 0.0663 216
2.0566 -6.0938 -0.9741 129
1.8359 -5.4375 0.1986 162
2.0801 -6.1640999999999995 -0.8315 153
1.8506 -5.480499999999999 0.33399999999999996 168
1.8496000000000001 -5.480499999999999 0.46880000000000005 142
1.8388999999999998 -5.4453 -0.4658 52
1.8563999999999998 -5.5 0.6054999999999999 228
1.8330000000000002 -5.4297 -0.3308 127
1.8535 -5.4922 0.7402 243
1.8359 -5.4375 -0.1986 21
1.8721 -5.546900000000001 0.8862000000000001 237
1.8359 -5.4414 -0.0662 164
1.8809 -5.574199999999999 1.0293 130
1.9893 -5.9609000000000005 -1.1006 10
1.8369 -5.5078 0.067 228
2.0352 -6.1015999999999995 -0.9741 118
1.8330000000000002 -5.4961 0.2004 107
2.0566 -6.1640999999999995 -0.8306 216
1.8466999999999998 -5.5352 0.3369 79
1.8447 -5.5273 0.47240000000000004 221
1.8281 -5.480499999999999 -0.4683 89
1.8622999999999998 -5.582000000000001 0.6138 193
1.8271000000000002 -5.4765999999999995 -0.3333 108
1.8622999999999998 -5.582000000000001 0.7515000000000001 180
1.8319999999999999 -5.4922 -0.2003 94
1.8700999999999999 -5.605499999999999 0.8945000000000001 117
1.834 -5.4961 -0.0668 234
1.8809 -5.640599999999999 1.041 42
1.9628999999999999 -5.953099999999999 -1.0977 150
1.8397999999999999 -5.578099999999999 0.0678 149
1.9931999999999999 -6.042999999999999 -0.9639 202
1.835 -5.5664 0.2029 8
2.0273 -6.1484000000000005 -0.8271 44
1.8418 -5.5859000000000005 0.3394 149
1.8563999999999998 -5.6289 0.4805 158
1.8281 -5.542999999999999 -0.4731 8
1.8544999999999998 -5.625 0.6177 151
1.8252000000000002 -5.5352 -0.33640000000000003 48
1.8584 -5.636699999999999 0.7578 52
1.834 -5.5625 -0.2028 227
1.8672 -5.6602 0.9023 43
1.835 -5.5664 -0.0676 102
1.8721 -5.675800000000001 1.0469 251
1.9365 -5.9414 -1.0947 41
1.8300999999999998 -5.6172 0.0682 58
1.9707 -6.046900000000001 -0.9634 5
1.8330000000000002 -5.625 0.2048 78
2.0059 -6.1562 -0.8276 202
1.835 -5.6289 0.3418 207
1.8447 -5.6602 0.4827 1
1.8262 -5.6015999999999995 -0.4775 84
1.8535 -5.6875 0.624 80
1.8241999999999998 -5.5977 -0.3398 180
1.8555000000000001 -5.6953 0.7646 99
1.8359 -5.6328 -0.2051 238
1.8721 -5.7461 0.915 112
1.8300999999999998 -5.6172 -0.0682 188
1.8721 -5.7422 1.0576 2
1.9199000000000002 -5.9609000000000005 -1.0967 82
1.8291 -5.675800000000001 0.0688 247
1.9531 -6.0625 -0.9643999999999999 217
1.835 -5.6953 0.2072 20
1.9950999999999999 -6.1914 -0.8311 61
1.8418 -5.7148 0.3467 133
1.8477000000000001 -5.734400000000001 0.4885 210
1.8291 -5.675800000000001 -0.48340000000000005 231
1.8584 -5.765599999999999 0.6323 39
1.8213 -5.6523 -0.3428 40
1.8563999999999998 -5.761699999999999 0.7729 120
1.8319999999999999 -5.6836 -0.20679999999999998 204
1.874 -5.8164 0.9253 93
1.8359 -5.6953 -0.0691 247
1.874 -5.8164 1.0703 140
1.8994 -5.9609000000000005 -1.0957 185
1.8291 -5.7422 0.0696 171
1.9355000000000002 -6.074199999999999 -0.9658 184
1.8330000000000002 -5.7539 0.2091 162
1.9647999999999999 -6.167999999999999 -0.8271 45
1.8437999999999999 -5.7890999999999995 0.3508 116
1.8466999999999998 -5.796900000000001 0.4932 48
1.8252000000000002 -5.7265999999999995 -0.48729999999999996 119
1.8574000000000002 -5.828099999999999 0.6386999999999999 118
1.8252000000000002 -5.730499999999999 -0.3472 11
1.8563999999999998 -5.828099999999999 0.7812 67
1.8300999999999998 -5.7422 -0.2087 56
1.8691 -5.8672 0.9326000000000001 125
1.8378999999999999 -5.769500000000001 -0.0699 208
1.8788999999999998 -5.8984000000000005 1.084 89
1.8788999999999998 -5.9688 -1.0957 94
1.8311000000000002 -5.8164 0.0704 102
1.9043 -6.050800000000001 -0.9609000000000001 128
1.8300999999999998 -5.8164 0.21109999999999998 62
1.9404 -6.167999999999999 -0.8262 86
1.8428 -5.855499999999999 0.35450000000000004 164
1.8447 -5.859400000000001 0.498 223
1.8300999999999998 -5.8164 -0.4941 136
1.8555000000000001 -5.8984000000000005 0.645 105
1.8232 -5.792999999999999 -0.3506 171
1.8584 -5.9023 0.7905 49
1.8281 -5.8086 -0.2109 211
1.8643 -5.921900000000001 0.9404 210
1.8319999999999999 -5.8203 -0.0705 37
1.8799000000000001 -5.9727 1.0967 235
1.8613 -5.984400000000001 -1.0977 15
1.8300999999999998 -5.8828 0.0711 186
1.9102000000000001 -6.140599999999999 -0.9741 211
1.8271000000000002 -5.875 0.213 202
1.9053 -6.125 -0.8193 255
1.8388999999999998 -5.9102 0.3577 28
1.8447 -5.9297 0.5039 220
1.8369 -5.9062 -0.5015 233
1.8563999999999998 -5.9688 0.6523 134
1.8203 -5.8515999999999995 -0.3538 25
1.8584 -5.9727 0.7993000000000001 181
1.8262 -5.8672 -0.21289999999999998 130
1.8681999999999999 -6.0039 0.9526 217
1.8300999999999998 -5.8828 -0.0712 87
1.8788999999999998 -6.0390999999999995 1.1074 24
1.8466999999999998 -6.019500000000001 -1.1025 203
1.8252000000000002 -5.949199999999999 0.0719 52
1.8857 -6.1484000000000005 -0.9741 79
1.8262 -5.953099999999999 0.2157 64
1.8887 -6.1562 -0.8231999999999999 90
1.8319999999999999 -5.9765999999999995 0.3608 73
1.8418 -6.0078 0.5097999999999999 251
1.8563999999999998 -6.050800000000001 -0.5136999999999999 245
1.8496000000000001 -6.0312 0.6581999999999999 159
1.8096 -5.8984000000000005 -0.3564 100
1.8535 -6.042999999999999 0.8076000000000001 129
1.8222999999999998 -5.9414 -0.21530000000000002 73
1.8662 -6.0859000000000005 0.9639 44
1.8252000000000002 -5.953099999999999 -0.0719 231
1.8700999999999999 -6.0977 1.1172 252
1.835 -6.0625 -1.1094 10
1.8163999999999998 -6.0039 0.0724 101
1.8613 -6.1484000000000005 -0.9731000000000001 186
1.8291 -6.042999999999999 0.2186 159
1.8788999999999998 -6.207000000000001 -0.8286 0
1.8319999999999999 -6.050800000000001 0.3652 228
1.8437999999999999 -6.0898 0.5161 198
1.8486000000000002 -6.105499999999999 0.6659999999999999 6
1.8115 -5.984400000000001 -0.3611 151
1.8506 -6.113300000000001 0.8159000000000001 14
1.8184 -6.0078 -0.21739999999999998 1
1.8662 -6.167999999999999 0.9761 52
1.8281 -6.0390999999999995 -0.0729 223
1.874 -6.1914 1.1328 211
1.8222999999999998 -6.0898 0.07339999999999999 65
1.8555000000000001 -6.199199999999999 -0.9804999999999999 82
1.8232 -6.0938 0.22030000000000002 189
1.8662 -6.234400000000001 -0.8315 254
1.8330000000000002 -6.125 0.36939999999999995 248
1.8369 -6.136699999999999 0.5195000000000001 108
1.8525 -6.1914 0.6748000000000001 105
1.8144999999999998 -6.0625 -0.3655 60
1.8584 -6.207000000000001 0.8281000000000001 250
1.8163999999999998 -6.0703 -0.2195 32
1.8681999999999999 -6.2422 0.9868000000000001 35
1.8252000000000002 -6.1015999999999995 -0.0735 73
1.875 -6.265599999999999 1.1455 44
1.9813999999999998 -6.703099999999999 -1.2256 4
1.8184 -6.1523 0.0741 236
1.9404 -6.5625 -1.0371 166
1.8232 -6.167999999999999 0.2228 150
1.7841999999999998 -6.0352 -0.8042 251
1.835 -6.207000000000001 0.3738 215
1.8397999999999999 -6.2227 0.5264 74
1.8486000000000002 -6.2539 0.6807 50
1.8125 -6.1328 -0.36939999999999995 41
1.8437999999999999 -6.234400000000001 0.8311 153
1.8163999999999998 -6.144500000000001 -0.22190000000000001 41
1.8643 -6.3047 0.9961 2
1.8232 -6.1640999999999995 -0.07429999999999999 23
1.8788999999999998 -6.355499999999999 1.1611 220
1.9531 -6.699199999999999 -1.2227 5
1.8174000000000001 -6.230499999999999 0.075 145
1.7646000000000002 -6.050800000000001 -0.9545999999999999 141
1.8213 -6.2461 0.2253 72
1.7588 -6.0273 -0.8022 106
1.8281 -6.269500000000001 0.3772 226
1.7578 -6.0273 -0.6553 91
1.8359 -6.296900000000001 0.5322 147
1.8428 -6.3164 0.687 121
1.8066 -6.1953 -0.3728 228
1.835 -6.292999999999999 0.8373999999999999 50
1.8163999999999998 -6.230499999999999 -0.22469999999999998 71
1.8594 -6.375 1.0059 137
1.8144999999999998 -6.2227 -0.07490000000000001 82
1.8711000000000002 -6.4140999999999995 1.1709 231
1.9219 -6.675800000000001 -1.2178 71
1.8174000000000001 -6.3125 0.0759 104
1.7461000000000002 -6.0664 -0.9561 62
1.8203 -6.324199999999999 0.228 122
1.7353999999999998 -6.0312 -0.8018000000000001 54
1.8252000000000002 -6.3398 0.3811 29
1.7266 -5.9961 -0.6514 48
1.835 -6.375 0.5381 145
1.8437999999999999 -6.4062 0.6958 190
1.7978999999999998 -6.2461 -0.37549999999999994 41
1.8477000000000001 -6.417999999999999 0.8534999999999999 47
1.8115 -6.292999999999999 -0.2268 210
1.8622999999999998 -6.4688 1.0195 185
1.8174000000000001 -6.3125 -0.0759 229
1.8662 -6.484400000000001 1.1816 184
1.9013999999999998 -6.6875 -1.2187999999999999 28
1.8096 -6.3672 0.0765 127
1.8506 -6.5078 -1.0254 190
1.8203 -6.4023 0.2306 0
1.7197 -6.046900000000001 -0.8031999999999999 179
1.8241999999999998 -6.417999999999999 0.38549999999999995 46
1.7012 -5.984400000000001 -0.6494 204
1.835 -6.453099999999999 0.5444 144
1.7031 -5.9922 -0.5054 26
1.8457 -6.4922 0.7051000000000001 168
1.7988 -6.328099999999999 -0.3801 236
1.8447 -6.488300000000001 0.8623000000000001 247
1.8115 -6.3711 -0.22949999999999998 165
1.8622999999999998 -6.550800000000001 1.0322 147
1.8154 -6.3828 -0.0767 72
1.8681999999999999 -6.5703 1.1973 136
1.8857 -6.7148 -1.2227 40
1.8086000000000002 -6.4453 0.0774 235
1.8691 -6.6602 -1.0479 219
1.8174000000000001 -6.4727 0.233 188
1.8271000000000002 -6.5078 0.3906 61
1.6816 -5.9922 -0.6494 11
1.8319999999999999 -6.5234000000000005 0.5498 232
1.6806999999999999 -5.988300000000001 -0.5044 35
1.8457 -6.578099999999999 0.7134 77
1.7266 -6.1484000000000005 -0.3689 152
1.8457 -6.574199999999999 0.873 194
1.8066 -6.4375 -0.23170000000000002 8
1.8563999999999998 -6.613300000000001 1.041 100
1.8174000000000001 -6.4765999999999995 -0.07780000000000001 132
1.8700999999999999 -6.6602 1.2129 250
1.8613 -6.730499999999999 -1.2236 217
1.8056999999999999 -6.5273 0.0783 167
1.8496000000000001 -6.6875 -1.0518 205
1.8066 -6.5312 0.2349 223
1.8291 -6.613300000000001 -0.877 109
1.8222999999999998 -6.5898 0.395 72
1.8291 -6.613300000000001 0.5566 128
1.6543 -5.980499999999999 -0.5034000000000001 237
1.8397999999999999 -6.6523 0.7206999999999999 89
1.6738 -6.050800000000001 -0.3625 240
1.8437999999999999 -6.6640999999999995 0.8837999999999999 226
1.8008000000000002 -6.511699999999999 -0.2341 25
1.8516 -6.6953 1.0527 115
1.8075999999999999 -6.5352 -0.0784 188
1.8662 -6.7461 1.2266 76
1.834 -6.7227 -1.2207 186
1.8047 -6.6172 0.0793 176
1.8369 -6.730499999999999 -1.0576 143
1.8105000000000002 -6.636699999999999 0.2384 44
1.8319999999999999 -6.7148 -0.8896 150
1.8174000000000001 -6.6602 0.39890000000000003 18
1.8252000000000002 -6.6875 0.5625 106
1.6338 -5.988300000000001 -0.5034000000000001 173
1.8319999999999999 -6.7148 0.7271 140
1.6436000000000002 -6.0234000000000005 -0.36060000000000003 211
1.8418 -6.75 0.8945000000000001 19
1.8027000000000002 -6.609400000000001 -0.23739999999999997 240
1.8496000000000001 -6.7773 1.0654000000000001 121
1.7997999999999998 -6.5977 -0.0791 226
1.8652000000000002 -6.8359000000000005 1.2422 36
1.8163999999999998 -6.7539 -1.2256 100
1.8047 -6.707000000000001 0.0803 100
1.8271000000000002 -6.792999999999999 -1.0654000000000001 25
1.8075999999999999 -6.7188 0.24109999999999998 12
1.8135 -6.7422 0.4036 183
1.8241999999999998 -6.7812 0.5698 140
1.6181999999999999 -6.011699999999999 -0.5049 28
1.8359 -6.824199999999999 0.7378 230
1.6181999999999999 -6.011699999999999 -0.35960000000000003 163
1.8378999999999999 -6.828099999999999 0.9043000000000001 195
1.8018 -6.699199999999999 -0.2404 202
1.8506 -6.8789 1.0791 76
1.8056999999999999 -6.707000000000001 -0.0803 132
1.8563999999999998 -6.8984000000000005 1.252 122
1.8075999999999999 -6.8125 -1.2354 161
1.7919999999999998 -6.7539 0.0808 95
1.9219 -7.2461 -1.1367 183
1.8056999999999999 -6.8047 0.2441 67
1.8125 -6.832000000000001 0.40840000000000004 8
2.3418 -8.8281 -0.9551000000000001 251
1.8252000000000002 -6.8789 0.5776 214
1.8311000000000002 -6.9023 0.7461 15
1.5966999999999998 -6.015599999999999 -0.35960000000000003 98
1.8330000000000002 -6.9102 0.9140999999999999 154
1.7949000000000002 -6.765599999999999 -0.2427 33
1.8477000000000001 -6.9609000000000005 1.0918 105
1.7988 -6.7773 -0.08109999999999999 178
1.8555000000000001 -6.9961 1.2686 134
1.8906 -7.2227 -1.3096 23
1.791 -6.8398 0.0818 221
1.8975 -7.2461 -1.1357 90
1.8008000000000002 -6.8789 0.2466 208
1.5762 -6.019500000000001 -0.7948999999999999 59
1.8086000000000002 -6.9062 0.4128 132
1.5791 -6.0312 -0.6504000000000001 145
1.8125 -6.921900000000001 0.5811 171
1.5791 -6.0312 -0.5059 179
1.8369 -7.015599999999999 0.7578 87
1.5762 -6.0234000000000005 -0.35960000000000003 9
1.8359 -7.011699999999999 0.9268000000000001 119
1.5986000000000002 -6.105499999999999 -0.2186 82
1.8496000000000001 -7.0664 1.1074 151
1.8008000000000002 -6.8789 -0.08220000000000001 96
1.8603999999999998 -7.105499999999999 1.2881 223
1.8721 -7.25 -1.3125 90
1.7949000000000002 -6.953099999999999 0.08310000000000001 89
2.2988 -8.9062 -1.3955000000000002 151
1.7988 -6.9688 0.2495 57
1.5508000000000002 -6.0039 -0.7925 242
1.8154 -7.0273 0.41969999999999996 238
1.5556999999999999 -6.0234000000000005 -0.6489 61
1.8193000000000001 -7.046900000000001 0.5908 13
1.5537 -6.019500000000001 -0.5039 1
1.8300999999999998 -7.0859000000000005 0.7646 239
1.5527000000000002 -6.011699999999999 -0.3586 164
1.8388999999999998 -7.1211 0.9404 150
1.5703 -6.082000000000001 -0.2175 47
1.8437999999999999 -7.140599999999999 1.1181999999999999 246
1.7949000000000002 -6.953099999999999 -0.08310000000000001 214
1.8622999999999998 -7.2109000000000005 1.3056999999999999 167
1.8418 -7.25 -1.3115 239
1.7919999999999998 -7.050800000000001 0.0842 253
1.5497999999999998 -6.0977 -0.9526 214
1.7969 -7.0703 0.2529 153
1.5127000000000002 -5.949199999999999 -0.7842 122
1.8086000000000002 -7.1172 0.42460000000000003 64
1.5293 -6.019500000000001 -0.6479 238
1.8184 -7.1523 0.5991 33
1.5253999999999999 -6.0039 -0.5024000000000001 39
1.8241999999999998 -7.1797 0.7739 91
1.5215 -5.984400000000001 -0.3567 162
1.834 -7.2188 0.9526 0
1.5438999999999998 -6.074199999999999 -0.217 171
1.8437999999999999 -7.2539 1.1348 113
1.7949000000000002 -7.0625 -0.0843 23
1.8544999999999998 -7.296900000000001 1.3203 5
1.79 -7.1484000000000005 0.08529999999999999 157
1.5078 -6.019500000000001 -0.9399 21
1.7959 -7.171900000000001 0.2563 240
1.4863 -5.9336 -0.7812 8
1.8056999999999999 -7.207000000000001 0.42969999999999997 2
1.501 -5.9922 -0.6445000000000001 196
1.8184 -7.2578 0.6074 48
1.4971 -5.9765999999999995 -0.49950000000000006 213
1.8232 -7.2812 0.7842 149
1.4961000000000002 -5.9765999999999995 -0.3557 249
1.8291 -7.3047 0.9629000000000001 26
1.5166 -6.0586 -0.2163 42
1.8418 -7.355499999999999 1.1494 37
1.791 -7.1523 -0.08529999999999999 16
1.8506 -7.386699999999999 1.3359 158
1.5116999999999998 -6.1289 -1.1055 125
1.7841999999999998 -7.234400000000001 0.0862 95
1.4766 -5.984400000000001 -0.9331 140
1.7959 -7.2773 0.26 193
1.4647999999999999 -5.9375 -0.7807999999999999 103
1.8018 -7.3047 0.4351 95
1.4746000000000001 -5.9765999999999995 -0.6420999999999999 126
1.8075999999999999 -7.328099999999999 0.6128 79
1.4746000000000001 -5.9765999999999995 -0.4993 142
1.8241999999999998 -7.394500000000001 0.7959 72
1.4727000000000001 -5.9688 -0.3552 254
1.8262 -7.4023 0.9756 93
1.4931999999999999 -6.050800000000001 -0.2159 21
1.8418 -7.4648 1.166 140
1.5361000000000002 -6.2265999999999995 -0.0741 204
1.8486000000000002 -7.4922 1.3535 214
1.4824000000000002 -6.1015999999999995 -1.0996 64
1.7871000000000001 -7.3515999999999995 0.0876 163
1.4472999999999998 -5.953099999999999 -0.9277 239
1.791 -7.3672 0.26289999999999997 163
1.4424000000000001 -5.9336 -0.7798 19
1.8037 -7.421900000000001 0.44189999999999996 218
1.4472999999999998 -5.957000000000001 -0.6396000000000001 84
1.8096 -7.449199999999999 0.6225999999999999 254
1.4512 -5.9688 -0.498 236
1.8222999999999998 -7.4961 0.8062 93
1.4541 -5.984400000000001 -0.3555 121
1.8252000000000002 -7.5078 0.9887999999999999 34
1.4707 -6.050800000000001 -0.21559999999999999 153
1.8388999999999998 -7.5664 1.1806999999999999 144
1.5059 -6.1953 -0.0737 204
1.8496000000000001 -7.613300000000001 1.374 45
1.4491999999999998 -6.042999999999999 -1.0889 64
1.7832 -7.4375 0.0886 74
1.4355000000000002 -5.988300000000001 -0.9320999999999999 235
1.7891 -7.4609000000000005 0.2661 203
1.4188999999999998 -5.917999999999999 -0.7773 170
1.8008000000000002 -7.515599999999999 0.4468 6
1.4287 -5.9609000000000005 -0.6396000000000001 167
1.8066 -7.5390999999999995 0.6294 199
1.4277000000000002 -5.953099999999999 -0.4966 137
1.8241999999999998 -7.609400000000001 0.8179000000000001 214
1.4325999999999999 -5.9765999999999995 -0.355 163
1.8271000000000002 -7.6211 1.0029000000000001 93
1.4521000000000002 -6.0586 -0.2158 195
1.8369 -7.6602 1.1953 251
1.4805000000000001 -6.175800000000001 -0.07339999999999999 204
1.8506 -7.7227 1.3925999999999998 11
1.4219 -6.019500000000001 -1.083 82
1.7841999999999998 -7.5547 0.0898 47
1.4199000000000002 -6.011699999999999 -0.9355 57
1.7861000000000002 -7.5625 0.2695 194
1.3955000000000002 -5.9062 -0.7754000000000001 175
1.7978999999999998 -7.613300000000001 0.4524 110
1.4121000000000001 -5.9765999999999995 -0.6411 239
1.8105000000000002 -7.667999999999999 0.6396000000000001 170
1.4072 -5.957000000000001 -0.4963 189
1.8154 -7.6875 0.8256999999999999 248
1.4131 -5.980499999999999 -0.355 247
1.8281 -7.738300000000001 1.0176 161
1.4306999999999999 -6.0586 -0.21559999999999999 149
1.8369 -7.7773 1.2119 132
1.4541 -6.1562 -0.0731 23
1.8486000000000002 -7.828099999999999 1.4102000000000001 15
1.3944999999999999 -6.011699999999999 -1.0811 15
1.7694999999999999 -7.625 0.0906 56
1.3877000000000002 -5.984400000000001 -0.9301999999999999 108
1.7812000000000001 -7.675800000000001 0.2734 115
1.3711000000000002 -5.9102 -0.7748999999999999 128
1.7919999999999998 -7.7227 0.4587 142
1.3847999999999998 -5.9688 -0.6392 201
1.8047 -7.7773 0.6484000000000001 1
1.3866999999999998 -5.980499999999999 -0.4976 20
1.8115 -7.8086 0.8379000000000001 135
1.3857 -5.9727 -0.354 188
1.8193000000000001 -7.8398 1.0303 134
1.4053 -6.0586 -0.2155 86
1.834 -7.9062 1.2314 62
1.4306999999999999 -6.167999999999999 -0.0731 90
1.8408000000000002 -7.9375 1.4297 182
1.3486000000000002 -5.9140999999999995 -1.0615 5
1.7686000000000002 -7.7539 0.09210000000000002 93
1.3555000000000001 -5.9414 -0.9229 156
1.7793 -7.800800000000001 0.2776 203
1.3506 -5.921900000000001 -0.7759 165
1.7861000000000002 -7.832000000000001 0.4646 151
1.3563999999999998 -5.949199999999999 -0.6367 235
1.8018 -7.8984000000000005 0.6581999999999999 153
1.3652000000000002 -5.984400000000001 -0.4978 67
1.8075999999999999 -7.925800000000001 0.8495999999999999 50
1.3633000000000002 -5.9765999999999995 -0.354 225
1.8115 -7.9414 1.042 187
1.3809 -6.0547 -0.215 234
1.8281 -8.0156 1.2470999999999999 169
1.4091999999999998 -6.175800000000001 -0.0732 98
1.8397999999999999 -8.0625 1.4512 69
1.3241999999999998 -5.886699999999999 -1.0566 241
1.7725 -7.875 0.0935 159
1.3291 -5.9102 -0.917 8
1.7793 -7.9102 0.2812 117
1.3291 -5.9062 -0.7734000000000001 146
1.791 -7.9609000000000005 0.4719 2
1.334 -5.9297 -0.6343 27
1.7988 -7.9961 0.6659999999999999 30
1.3397999999999999 -5.953099999999999 -0.4949 198
1.8144999999999998 -8.0625 0.8643000000000001 217
1.3477000000000001 -5.988300000000001 -0.35450000000000004 237
1.8154 -8.0703 1.0586 86
1.3603999999999998 -6.046900000000001 -0.2146 15
1.8262 -8.1172 1.2617 215
1.3896000000000002 -6.175800000000001 -0.0731 213
1.8437999999999999 -8.1953 1.4736000000000002 125
1.3018 -5.875 -1.0537 212
1.7744 -8.0078 0.095 230
1.3086000000000002 -5.9102 -0.9165000000000001 163
1.7753999999999999 -8.0156 0.2849 97
1.3105000000000002 -5.9140999999999995 -0.7739 85
1.79 -8.0859 0.479 30
1.3241999999999998 -5.9765999999999995 -0.6386999999999999 8
1.7959 -8.1094 0.6748000000000001 156
1.3184 -5.949199999999999 -0.4941 233
1.8075999999999999 -8.1641 0.8740000000000001 146
1.3262 -5.988300000000001 -0.3542 131
1.8115 -8.1797 1.0723 145
1.3418 -6.0586 -0.2148 104
1.8213 -8.2266 1.2783 176
1.3700999999999999 -6.1875 -0.0732 251
1.834 -8.2812 1.4883000000000002 162
1.2783 -5.875 -1.0527 26
1.7686000000000002 -8.125 0.0964 7
1.2891 -5.921900000000001 -0.9179999999999999 123
1.7715 -8.1328 0.2891 72
1.2881 -5.917999999999999 -0.7739 175
1.7803 -8.1797 0.4844 130
1.3037 -5.988300000000001 -0.6396000000000001 173
1.791 -8.2266 0.6840999999999999 0
1.3008000000000002 -5.9765999999999995 -0.4961 235
1.7978999999999998 -8.2578 0.8837999999999999 240
1.3037 -5.988300000000001 -0.354 72
1.8047 -8.2891 1.0859 105
1.3203 -6.0625 -0.215 113
1.8174000000000001 -8.3516 1.2969 56
1.3525 -6.2148 -0.0735 184
1.834 -8.4219 1.5127000000000002 182
1.2549 -5.863300000000001 -1.0498 123
1.7549000000000001 -8.2031 0.09720000000000001 162
1.2686 -5.9297 -0.9179999999999999 137
1.7646000000000002 -8.25 0.2927 29
1.2686 -5.925800000000001 -0.7739 148
1.7772999999999999 -8.3047 0.4915 37
1.2773 -5.9688 -0.6367 29
1.7930000000000001 -8.375 0.6962999999999999 11
1.2822 -5.988300000000001 -0.4966 79
1.8008000000000002 -8.4141 0.8998999999999999 57
1.2841999999999998 -6.0 -0.35450000000000004 111
1.8066 -8.4453 1.1055 9
1.2997999999999998 -6.074199999999999 -0.2151 37
1.8241999999999998 -8.5234 1.3222999999999998 121
1.7656 -8.25 -0.0978 98
1.8330000000000002 -8.5625 1.5371000000000001 103
1.2393 -5.890599999999999 -1.0547 228
1.7597999999999998 -8.3672 0.09910000000000001 28
1.25 -5.9414 -0.9189 34
1.7686000000000002 -8.4062 0.2981 160
1.248 -5.9336 -0.7744 147
1.7734 -8.4297 0.4985 1
1.2568000000000001 -5.9765999999999995 -0.6372 62
1.7871000000000001 -8.5 0.7056 94
1.2607 -5.9961 -0.4966 196
1.8037 -8.5703 0.9165000000000001 53
1.2646 -6.011699999999999 -0.3547 39
1.8037 -8.5781 1.1220999999999999 224
1.2812000000000001 -6.0898 -0.2155 46
1.8193000000000001 -8.6484 1.3408000000000002 60
1.7616999999999998 -8.375 -0.0992 70
1.8311000000000002 -8.7031 1.5605000000000002 127
1.2266 -5.9336 -1.0615 33
1.751 -8.4688 0.1002 219
1.2314 -5.957000000000001 -0.9214 171
1.7627000000000002 -8.5234 0.30219999999999997 143
1.2402 -6.0 -0.7822 196
1.7725 -8.5781 0.5068 12
1.2402 -6.0 -0.6392 32
1.7803 -8.6094 0.7148 108
1.2402 -6.0 -0.4966 229
1.7997999999999998 -8.7031 0.9297 88
1.249 -6.042999999999999 -0.35619999999999996 146
1.8027000000000002 -8.7188 1.1396 116
1.2607 -6.0977 -0.2157 76
1.8184 -8.7969 1.3633000000000002 100
1.7616999999999998 -8.5234 -0.1008 210
1.8291 -8.8438 1.5859 161
1.7519999999999998 -8.6328 0.10210000000000001 88
1.2109 -5.9648 -0.9218999999999999 77
1.7519999999999998 -8.6328 0.3059 83
1.2168 -5.9961 -0.7812 38
1.7705000000000002 -8.7266 0.5151 0
1.2236 -6.0273 -0.6420999999999999 110
1.7763999999999998 -8.7578 0.7261 32
1.2217 -6.019500000000001 -0.498 6
1.7861000000000002 -8.8047 0.9395 171
1.2314 -6.0703 -0.3577 230
1.7959 -8.8516 1.1562000000000001 75
1.2402 -6.113300000000001 -0.2161 230
1.8144999999999998 -8.9375 1.3847999999999998 213
1.751 -8.6328 -0.10210000000000001 151
1.8241999999999998 -8.9922 1.6103999999999998 84
1.749 -8.7734 0.1038 63
1.7519999999999998 -8.7969 0.31129999999999997 74
1.2002 -6.019500000000001 -0.7842 54
1.7627000000000002 -8.8438 0.522 240
1.21 -6.0703 -0.6459999999999999 240
1.7597999999999998 -8.8281 0.7314 224
1.21 -6.074199999999999 -0.5024000000000001 105
1.7803 -8.9375 0.9531000000000001 74
1.2129 -6.0859000000000005 -0.35840000000000005 70
1.7949000000000002 -9.0078 1.1758 217
1.2246 -6.144500000000001 -0.2169 63
1.8105000000000002 -9.0859 1.4062000000000001 153
1.7461000000000002 -8.7578 -0.1036 165
1.8184 -9.125 1.6338 60
1.7402000000000002 -8.8828 0.105 211
1.7480000000000002 -8.9219 0.3157 237
1.7597999999999998 -8.9844 0.5297999999999999 43
1.7763999999999998 -9.0703 0.7509999999999999 21
1.2031 -6.144500000000001 -0.5078 151
1.7861000000000002 -9.125 0.9722 56
1.1934 -6.0977 -0.3586 176
1.7919999999999998 -9.1484 1.1934 153
1.7480000000000002 -8.9219 -0.3157 18
1.8105000000000002 -9.2422 1.4297 181
1.7471 -8.9219 -0.1054 128
1.8154 -9.2734 1.6582 105
1.7402000000000002 -9.0469 0.10679999999999999 77
1.7461000000000002 -9.0781 0.321 204
1.7578 -9.1328 0.5386 118
1.7725 -9.2109 0.7626999999999999 115
2.8086 -14.601600000000001 -1.2109 48
1.791 -9.3125 0.9917 166
1.1768 -6.1172 -0.35960000000000003 126
1.7881 -9.2969 1.2119 123
1.7353999999999998 -9.0156 -0.3188 233
1.8115 -9.4219 1.4561000000000002 101
1.7450999999999999 -9.0703 -0.10710000000000001 233
1.8203 -9.4609 1.6924000000000001 23
1.7353999999999998 -9.1953 0.10859999999999999 29
1.7422 -9.2422 0.3264 168
1.7529 -9.2969 0.5478999999999999 224
1.7675999999999998 -9.375 0.7754000000000001 34
1.1582 -6.140599999999999 -0.5068 204
1.7822 -9.4531 1.0068000000000001 185
1.1543 -6.1211 -0.3599 74
1.7841999999999998 -9.4609 1.2334 152
1.7294999999999998 -9.1719 -0.324 107
1.7969 -9.5234 1.4716999999999998 76
1.7393 -9.2188 -0.10880000000000001 21
1.8163999999999998 -9.6328 1.7207 23
1.7285 -9.3438 0.11019999999999999 122
1.7344 -9.375 0.33130000000000004 83
1.749 -9.4531 0.5566 235
1.7607 -9.5156 0.7870999999999999 63
1.1367 -6.1484000000000005 -0.5068 247
1.7725 -9.5859 1.0195 54
1.1357 -6.140599999999999 -0.36060000000000003 2
1.7861000000000002 -9.6562 1.2578 64
1.7246000000000001 -9.3203 -0.3293 1
1.7978999999999998 -9.7188 1.5 127
1.7363 -9.3828 -0.1107 222
1.8144999999999998 -9.8125 1.7519999999999998 30
1.7178 -9.4766 0.1118 75
1.7294999999999998 -9.5391 0.3369 69
1.7441 -9.625 0.5669 22
1.7607 -9.7188 0.8027 109
1.1152 -6.1523 -0.5073 198
1.7763999999999998 -9.8047 1.042 252
1.1201 -6.1836 -0.3628 164
1.7803 -9.8281 1.2793 44
1.7227000000000001 -9.5078 -0.3354 213
1.7959 -9.9141 1.5293 184
1.7216999999999998 -9.5078 -0.1121 39
1.8066 -9.9688 1.7793 75
1.7187999999999999 -9.6797 0.11410000000000001 6
1.7275 -9.7266 0.3433 122
1.7402000000000002 -9.8047 0.5767 196
1.7559 -9.8906 0.8169 205
1.0947 -6.1640999999999995 -0.5078 99
1.7675999999999998 -9.9531 1.0576 48
1.1016 -6.199199999999999 -0.3638 154
1.7772999999999999 -10.0078 1.3018 176
1.7168 -9.6641 -0.3411 133
1.7949000000000002 -10.1094 1.5586000000000002 209
1.7216999999999998 -9.6953 -0.1143 114
1.8037 -10.1562 1.8115 118
1.7138999999999998 -9.8438 0.1159 150
1.7227000000000001 -9.8906 0.3489 2
1.1162 -6.4062 -0.8311 156
1.7344 -9.9531 0.5854 73
1.0918 -6.269500000000001 -0.6646 254
1.75 -10.0469 0.8295999999999999 155
1.0742 -6.171900000000001 -0.5078 227
1.7715 -10.1719 1.0801 252
1.7080000000000002 -9.8047 -0.5767 149
1.7753999999999999 -10.1875 1.3252000000000002 248
1.709 -9.8125 -0.34590000000000004 218
1.7938999999999998 -10.2969 1.5878999999999999 92
1.7216999999999998 -9.8828 -0.1165 51
1.8047 -10.3594 1.8466999999999998 211
1.7147999999999999 -10.0391 0.1182 174
1.7197 -10.0703 0.355 7
1.0947 -6.4102 -0.8311 102
1.7372999999999998 -10.1719 0.5981000000000001 88
1.0703 -6.269500000000001 -0.6636 18
1.7450999999999999 -10.2188 0.8432999999999999 208
1.0576 -6.1914 -0.5093 132
1.7686000000000002 -10.3594 1.0996 28
1.7031 -9.9688 -0.5859000000000001 177
1.7725 -10.3828 1.3496000000000001 219
1.7069999999999999 -10.0 -0.3525 115
1.7930000000000001 -10.5 1.6181999999999999 119
1.7207 -10.0781 -0.11869999999999999 23
1.8047 -10.5703 1.8828 69
1.7080000000000002 -10.2266 0.1204 111
1.7128999999999999 -10.2578 0.3613 120
1.7294999999999998 -10.351600000000001 0.6079 189
1.0518 -6.296900000000001 -0.6665000000000001 50
1.7471 -10.460899999999999 0.8628 66
1.7597999999999998 -10.539100000000001 1.1181999999999999 32
1.7002000000000002 -10.1797 -0.5981000000000001 0
1.7694999999999999 -10.601600000000001 1.3769999999999998 79
1.7012 -10.1875 -0.3589 28
1.7841999999999998 -10.6875 1.6455000000000002 183
1.7080000000000002 -10.2266 -0.1204 88
1.7997999999999998 -10.781199999999998 1.9199000000000002 10
1.7080000000000002 -10.4531 0.12300000000000001 149
1.7069999999999999 -10.4453 0.3679 206
1.0498 -6.421900000000001 -0.8315 133
1.7246000000000001 -10.5547 0.6196 184
1.0381 -6.3515999999999995 -0.6718999999999999 244
1.7431999999999999 -10.664100000000001 0.8794 85
2.3496 -14.3828 -1.1865 170
1.749 -10.7031 1.1357 64
1.6913999999999998 -10.351600000000001 -0.6074 64
1.7578 -10.7578 1.3965 20
1.6991999999999998 -10.398399999999999 -0.36619999999999997 161
1.7793 -10.8906 1.6758000000000002 32
1.7021000000000002 -10.4219 -0.1226 15
1.7959 -10.9922 1.9561000000000002 193
1.6953 -10.625 0.1249 255
1.7031 -10.664100000000001 0.37549999999999994 87
1.0234 -6.4102 -0.8295999999999999 28
1.7138999999999998 -10.7344 0.6299 83
1.7256 -10.8047 0.8901 183
2.2988 -14.406199999999998 -1.1875 204
1.7471 -10.9453 1.1602 225
1.6865 -10.5625 -0.6201 134
1.7578 -11.0078 1.4287 220
1.6894999999999998 -10.5781 -0.37229999999999996 33
1.7744 -11.1094 1.71 155
1.6982 -10.6406 -0.1251 75
1.8174000000000001 -11.3828 2.0254 52
1.6806999999999999 -10.7656 0.1266 30
1.6943000000000001 -10.8594 0.3821 134
1.002 -6.421900000000001 -0.8306 236
1.7109 -10.968800000000002 0.6431 147
1.7313999999999998 -11.093800000000002 0.9136 124
2.248 -14.398399999999999 -1.1865 50
1.6797 -10.7656 -0.6313 236
1.7549000000000001 -11.2422 1.4580000000000002 72
1.6825999999999999 -10.781199999999998 -0.37939999999999996 230
1.7763999999999998 -11.3828 1.75 80
1.6885 -10.8203 -0.1272 175
1.8027000000000002 -11.5547 2.0547 73
1.6865 -11.0625 0.13 49
1.6885 -11.0703 0.38939999999999997 3
1.709 -11.2031 0.6567000000000001 229
1.7256 -11.3203 0.9316 218
2.2344 -14.656199999999998 -1.207 240
1.7529 -11.4922 1.2178 102
1.6797 -11.0156 -0.6455 232
1.7450999999999999 -11.4453 1.4834 42
1.6777000000000002 -11.0 -0.38670000000000004 103
1.7694999999999999 -11.601600000000001 1.7832 226
1.6865 -11.0625 -0.13 116
1.6855000000000002 -11.3203 0.1329 93
1.6846 -11.3125 0.39770000000000005 237
1.6972999999999998 -11.398399999999999 0.6679999999999999 19
1.7197 -11.5469 0.9497 134
2.291 -15.3828 -1.2666 63
1.7372999999999998 -11.664100000000001 1.2354 237
1.6747999999999998 -11.25 -0.6587000000000001 138
1.7431999999999999 -11.7031 1.5166 32
1.6728999999999998 -11.2344 -0.3948 110
1.7627000000000002 -11.835899999999999 1.8184 119
1.6806999999999999 -11.281199999999998 -0.1326 85
1.6806999999999999 -11.531199999999998 0.1354 76
1.6777000000000002 -11.5156 0.4045 63
1.6991999999999998 -11.656199999999998 0.6826000000000001 142
1.7158000000000002 -11.773399999999999 0.9682999999999999 117
1.7441 -11.968800000000002 1.2666 7
1.666 -11.4375 -0.6694 84
1.7461000000000002 -11.9844 1.5527000000000002 173
1.6709 -11.468800000000002 -0.4028 167
1.7607 -12.085899999999999 1.8563999999999998 192
1.6787 -11.523399999999999 -0.1353 183
1.6787 -11.7969 0.1384 215
1.6797 -11.8047 0.4146 110
1.6963 -11.914100000000001 0.6978 102
1.709 -12.0078 0.9873000000000001 119
2.0996 -14.7422 -1.2129 51
1.7216999999999998 -12.101600000000001 1.2803 239
1.6611000000000002 -11.6719 -0.6831 121
1.7402000000000002 -12.226600000000001 1.5830000000000002 52
1.6641 -11.6875 -0.4104 27
1.7675999999999998 -12.414100000000001 1.9062000000000001 227
1.6728999999999998 -11.75 -0.1379 142
1.6582 -11.968800000000002 0.1404 30
1.665 -12.0156 0.4219 66
1.6816 -12.1328 0.71 90
1.7138999999999998 -12.3672 1.0166 244
2.0449 -14.75 -1.2129 140
1.7285 -12.468800000000002 1.3184 229
1.6543 -11.9375 -0.6987000000000001 200
1.7334 -12.5078 1.6181999999999999 60
1.6572 -11.9531 -0.41969999999999996 189
1.79 -12.914100000000001 1.9813999999999998 229
1.6641 -12.0078 -0.1409 163
1.6621000000000001 -12.3125 0.43189999999999995 221
1.6816 -12.4531 0.7284999999999999 87
1.7031 -12.6172 1.0361 84
1.6494 -12.210899999999999 -0.7143999999999999 156
1.7324000000000002 -12.8281 1.6602000000000001 150
1.6494 -12.218800000000002 -0.42869999999999997 29
1.6621000000000001 -12.3125 -0.1444 157
1.6582 -12.6094 0.4424 162
1.6747999999999998 -12.7422 0.7451000000000001 226
1.6934 -12.875 1.0576 172
1.7187999999999999 -13.0781 1.3818000000000001 98
1.6425999999999998 -12.5 -0.7304999999999999 204
1.7256 -13.125 1.6972999999999998 23
1.6387 -12.468800000000002 -0.43729999999999997 78
1.6513999999999998 -12.5625 -0.14730000000000001 154
10.3672 -78.875 14.023399999999999 133
1.6522999999999999 -12.914100000000001 0.45289999999999997 176
1.6699000000000002 -13.0547 0.7631999999999999 204
1.6894999999999998 -13.210899999999999 1.084 8
1.9003999999999999 -14.851600000000001 -1.2197 27
1.7061000000000002 -13.335899999999999 1.4082 241
1.6338 -12.7656 -0.7461 137
1.7158000000000002 -13.414100000000001 1.7344 94
1.6357 -12.789100000000001 -0.4482 199
1.6436000000000002 -12.843800000000002 -0.1505 141
1.6396000000000002 -13.2031 0.4629 7
1.6522999999999999 -13.3047 0.7773 126
1.665 -13.406199999999998 1.0996 214
1.626 -13.093800000000002 -0.7651 108
1.7061000000000002 -13.7422 1.7753999999999999 34
1.625 -13.0781 -0.4585 175
1.6357 -13.1719 -0.1543 172
1.6191 -13.414100000000001 0.15710000000000002 228
1.6279 -13.4922 0.4727 129
1.6475 -13.656199999999998 0.7979 105
1.6758000000000002 -13.8828 1.1387 250
1.6191 -13.414100000000001 -0.7837000000000001 15
1.6963 -14.0625 1.8163999999999998 90
1.6191 -13.4219 -0.4702 139
1.6288999999999998 -13.5 -0.15810000000000002 62
1.6211000000000002 -13.843800000000002 0.4849 119
1.6396000000000002 -14.0 0.8173999999999999 230
1.6611000000000002 -14.1797 1.1621 170
1.6055000000000001 -13.710899999999999 -0.8003 33
1.6025 -13.6797 -0.4792 108
1.6172 -13.8125 -0.1617 186
1.6006 -14.093800000000002 0.49340000000000006 35
1.6309 -14.3594 0.8379000000000001 212
1.6503999999999999 -14.531199999999998 1.1904000000000001 252
1.5996000000000001 -14.0781 -0.8218000000000001 219
1.5957 -14.0547 -0.4919 191
1.6063999999999998 -14.1406 -0.1655 42
1.5986000000000002 -14.5 0.5078 240
1.6133000000000002 -14.6328 0.8540000000000001 48
1.6455000000000002 -14.9297 1.2236 168
1.5947 -14.468800000000002 -0.8442000000000001 227
1.5908000000000002 -14.4375 -0.5054 179
1.5957 -14.476600000000001 -0.16940000000000002 203
1.5937999999999999 -14.914100000000001 0.522 91
1.6162 -15.125 0.8823000000000001 30
1.6494 -15.4297 1.2637 72
1.5830000000000002 -14.8125 -1.2129 74
1.5811000000000002 -14.789100000000001 -0.8628 79
1.5830000000000002 -14.8203 -0.5186 224
1.5928 -14.906199999999998 -0.1744 128
1.5878999999999999 -15.3906 0.5386 27
1.6055000000000001 -15.5625 0.9077 62
1.6299000000000001 -15.7969 1.2930000000000001 248
1.5596 -15.1094 -1.2373 67
1.5674000000000001 -15.1953 -0.8862000000000001 37
1.5644999999999998 -15.164100000000001 -0.5303 154
1.5800999999999998 -15.3203 -0.17920000000000003 14
1.5703 -15.7578 0.5513 167
1.5888999999999998 -15.9453 0.9297 181
1.6269999999999998 -16.3281 1.3369 231
1.6309 -16.3594 -1.3397999999999999 0
1.5556999999999999 -15.6172 -0.9106000000000001 38
1.5478999999999998 -15.539100000000001 -0.5435 200
1.5693000000000001 -15.75 -0.18420000000000003 115
1.5615 -16.25 0.5684 185
1.5908000000000002 -16.5469 0.9648 54
1.5703 -16.3281 -1.3369 151
1.6709 -17.375 1.8300999999999998 159
1.5449000000000002 -16.0781 -0.937 225
1.5459 -16.0938 -0.5625 177
1.5575999999999999 -16.2031 -0.18960000000000002 57
1.5800999999999998 -17.0625 0.9945999999999999 150
1.5918 -17.1875 1.4062000000000001 196
1.5352000000000001 -16.5781 -0.9662999999999999 147
1.5332 -16.5625 -0.5791 187
1.541 -16.6406 -0.1946 198
1.5303 -17.1406 0.5991 207
1.5253999999999999 -17.0938 -0.9956 158
1.5263999999999998 -17.0938 -0.5977 245
1.5322 -17.1719 -0.2007 224
1.5156 -17.6406 -1.0273 190
5.1602 -68.625 4.0 127
4.4375 -68.8125 4.0078 233
3.043 -82.9375 2.8964999999999996 209
0.1433 -5.4727 -0.6987000000000001 12
0.12269999999999999 -5.4062 -0.6899 55
0.1035 -5.3438 -0.8086 248
0.1038 -5.355499999999999 -0.6836 229
0.08470000000000001 -5.2734000000000005 -0.7974 116
0.08560000000000001 -5.332000000000001 -0.6801999999999999 207
0.0925 -5.7578 -0.6006 98
0.06480000000000001 -5.1523 -0.7793000000000001 161
0.0665 -5.2890999999999995 -0.6748000000000001 91
0.0087 -0.9355 -0.1576 65
0.0473 -5.1094 -0.7729 173
0.047599999999999996 -5.144500000000001 -0.6562 11
0.0051 -0.9120999999999999 -0.1534 52
0.028399999999999998 -5.082 -0.7686 70
0.032799999999999996 -5.8672 -0.4756 216
0.0356 -6.3789 -0.36840000000000006 130
0.0019 -0.8843000000000001 -0.14859999999999998 196
0.0106 -5.0664 -0.7661 68
0.010700000000000001 -5.1289 -0.6543000000000001 118
0.012 -5.734400000000001 -0.4646 96
-0.0013 -0.9037999999999999 -0.152 0
-0.0070999999999999995 -5.0547 -0.7642 138
-0.0079 -5.6602 -0.4587 128
-0.0044 -0.9037999999999999 -0.152 147
-0.024700000000000003 -5.0508 -0.7637 103
-0.0248 -5.0781 -0.6479 248
-0.0275 -5.6328 -0.45649999999999996 122
-0.0308 -6.296900000000001 -0.3635 73
-0.0077 -0.9037999999999999 -0.152 239
-0.0431 -5.0352 -0.7612000000000001 50
-0.043899999999999995 -5.1289 -0.6543000000000001 17
-0.0478 -5.5938 -0.4531 9
-0.053200000000000004 -6.2188 -0.3591 151
-0.0108 -0.8998999999999999 -0.1514 184
-0.060599999999999994 -5.0352 -0.7612000000000001 43
-0.0682 -5.6602 -0.4587 143
-0.07730000000000001 -6.421900000000001 -0.2224 219
-0.013500000000000002 -0.8726 -0.1465 145
-0.0783 -5.0391 -0.7622 12
-0.07980000000000001 -5.140599999999999 -0.6557999999999999 144
-0.0867 -5.582000000000001 -0.4521 248
-0.1008 -6.484400000000001 -0.22469999999999998 213
-0.0167 -0.8765000000000001 -0.1471 106
-0.09539999999999998 -5.0117 -0.7583 101
-0.09720000000000001 -5.1094 -0.6518999999999999 103
-0.1057 -5.5547 -0.45020000000000004 238
-0.1249 -6.5625 -0.0759 122
-0.0202 -0.9037999999999999 -0.152 41
-0.1119 -5.0117 -0.7578 148
-0.1131 -5.0625 -0.6455 84
-0.12269999999999999 -5.4922 -0.4451 192
-0.1427 -6.386699999999999 -0.3689 176
-0.1467 -6.5664 -0.0759 34
-0.0256 -0.998 -0.16870000000000002 245
-0.129 -5.0312 -0.7606999999999999 199
-0.1304 -5.082 -0.6484000000000001 213
-0.1429 -5.5703 -0.4517 136
-0.1611 -6.2812 -0.3628 122
-0.1882 -7.3359000000000005 -0.2544 188
-0.14730000000000001 -5.0234 -0.7598 166
-0.1481 -5.0469 -0.644 209
-0.163 -5.5547 -0.45020000000000004 88
-0.1858 -6.332000000000001 -0.366 42
-0.2157 -7.355499999999999 -0.2551 90
-0.16469999999999999 -5.0156 -0.7587999999999999 97
-0.166 -5.0586 -0.6455 27
-0.1805 -5.5 -0.4458 4
-0.2054 -6.261699999999999 -0.3618 144
-0.0318 -0.8798999999999999 -0.1478 114
-0.18100000000000002 -5.0078 -0.7578 27
-0.18600000000000003 -5.1484000000000005 -0.6572 112
-0.19690000000000002 -5.4453 -0.4414 161
-0.0338 -0.856 -0.1437 245
-0.2651 -6.7148 0.07769999999999999 18
-0.19699999999999998 -4.9922 -0.7554000000000001 79
-0.20350000000000001 -5.1562 -0.6581999999999999 144
-0.2151 -5.449199999999999 -0.44189999999999996 174
-0.2883 -7.3086 -0.25370000000000004 122
-0.036699999999999997 -0.8521 -0.1429 208
-0.2883 -6.6836 0.07730000000000001 197
-0.2159 -5.0039 -0.7573000000000001 75
-0.2218 -5.140599999999999 -0.6562 110
-0.2327 -5.394500000000001 -0.43729999999999997 63
-0.3132 -7.2578 -0.252 33
-0.040999999999999995 -0.8794 -0.1478 126
-0.3132 -6.7148 0.07769999999999999 187
-0.2327 -4.9883 -0.7548999999999999 84
-0.2527 -5.417999999999999 -0.43920000000000003 158
-0.3406 -7.3047 -0.25370000000000004 71
-0.047 -0.9346 -0.1576 82
-0.3345 -6.6484000000000005 0.077 116
-0.2515 -4.9961 -0.7563 50
-0.271 -5.386699999999999 -0.43700000000000006 198
-0.366 -7.2773 -0.2527 129
-0.0482 -0.895 -0.1506 118
-0.3611 -6.7109000000000005 0.07769999999999999 24
-0.2688 -4.9961 -0.7563 156
-0.2683 -4.9844 -0.6367 220
-0.2898 -5.386699999999999 -0.43700000000000006 46
-0.39280000000000004 -7.300800000000001 -0.2534 144
-0.0527 -0.9224 -0.1555 99
-0.37939999999999996 -6.640599999999999 0.0768 39
-0.28300000000000003 -4.9531 -0.75 84
-0.2876 -5.0312 -0.6431 183
-0.3049 -5.3359000000000005 -0.43310000000000004 38
-0.4167 -7.292999999999999 -0.2534 228
-0.055999999999999994 -0.9258 -0.1561 201
-0.40259999999999996 -6.6562 0.0771 212
-0.30219999999999997 -5.0 -0.7573000000000001 160
-0.3037 -5.0234 -0.6420999999999999 122
-0.324 -5.355499999999999 -0.4346 251
-0.4409 -7.292999999999999 -0.2534 255
-0.0581 -0.9062 -0.1527 126
-0.4255 -6.636699999999999 0.0768 231
-0.3176 -4.9492 -0.75 69
-0.344 -5.363300000000001 -0.4353 236
-0.4675 -7.2890999999999995 -0.2534 103
-0.0601 -0.8881999999999999 -0.1495 112
-0.44780000000000003 -6.6172 0.0767 150
-0.3345 -4.9453 -0.7490000000000001 50
-0.3386 -5.0039 -0.6396000000000001 142
-0.3418 -5.0508 -0.5278 35
-0.3616 -5.3477 -0.4341 107
-0.4939 -7.300800000000001 -0.25370000000000004 63
-0.0637 -0.8901 -0.1499 147
-0.47490000000000004 -6.640599999999999 0.077 169
-0.3557 -4.9766 -0.7539 60
-0.3538 -4.9492 -0.6328 35
-0.3582 -5.0078 -0.5229 169
-0.38280000000000003 -5.3515999999999995 -0.4346 102
-0.5186 -7.2539 -0.2522 166
-0.0675 -0.8975 -0.1514 136
-0.498 -6.6211 0.0768 143
-0.38060000000000005 -5.0625 -0.7676000000000001 135
-0.3713 -4.9375 -0.6313 195
-0.375 -4.9883 -0.521 22
-0.4023 -5.3515999999999995 -0.4346 46
-0.5478999999999999 -7.2852 -0.2534 4
-0.0704 -0.9014 -0.152 215
-0.519 -6.636699999999999 0.077 242
-0.3906 -4.9961 -0.7578 101
-0.39399999999999996 -5.0391 -0.6445000000000001 211
-0.3901 -4.9883 -0.5215 232
-0.4114 -5.261699999999999 -0.4275 181
-0.0725 -0.8892 -0.1499 49
-0.5381 -6.6015999999999995 0.0765 207
-0.4072 -4.9961 -0.7578 40
-0.40549999999999997 -4.9727 -0.6367 92
-0.406 -4.9805 -0.5205 42
-0.4351 -5.3359000000000005 -0.4336 43
-0.0739 -0.8672 -0.1461 212
-0.564 -6.6211 0.0768 104
-0.42719999999999997 -5.0117 -0.7606999999999999 87
-0.42310000000000003 -4.9648 -0.6353 223
-0.4255 -4.9961 -0.5225 63
-0.4514 -5.300800000000001 -0.4307 128
-0.07730000000000001 -0.8711 -0.1469 165
-0.583 -6.5703 0.0762 146
-0.4434 -5.0 -0.7587999999999999 215
-0.4397 -4.957 -0.6343 74
-0.4404 -4.9648 -0.5195000000000001 201
-0.4756 -5.359400000000001 -0.436 40
-0.0816 -0.8848 -0.1492 87
-0.6099 -6.609400000000001 0.0767 49
-0.45899999999999996 -4.9766 -0.7559 171
-0.45799999999999996 -4.9648 -0.6362 131
-0.49369999999999997 -5.3515999999999995 -0.4353 146
-0.5635 -6.109400000000001 -0.3542 48
-0.4707 -4.9141 -0.8633 194
-0.6309 -6.5859000000000005 0.0765 52
-0.4768 -4.9805 -0.7563 122
-0.4736 -4.9453 -0.6338 237
-0.5132 -5.359400000000001 -0.436 74
-0.585 -6.109400000000001 -0.3542 116
-0.47729999999999995 -4.8086 -0.8447 106
-0.6528 -6.578099999999999 0.0764 77
-0.49340000000000006 -4.9688 -0.7548999999999999 35
-0.4941 -4.9766 -0.6377 151
-0.4968 -5.0039 -0.5239 159
-0.5268999999999999 -5.3086 -0.4321 152
-0.49219999999999997 -4.7852 -0.8408 103
-0.6797 -6.609400000000001 0.0768 145
-0.5117 -4.9766 -0.7563 20
-0.5136999999999999 -5.0 -0.6406000000000001 166
-0.5161 -5.0195 -0.5254 156
-0.5478999999999999 -5.328099999999999 -0.4341 155
-0.6274000000000001 -6.1015999999999995 -0.3542 156
-0.6820999999999999 -6.6328 -0.0771 15
-0.5107 -4.7969 -0.8432999999999999 159
-0.6997 -6.5703 0.0764 230
-0.5268999999999999 -4.9453 -0.752 208
-0.5307999999999999 -4.9844 -0.6392 149
-0.5312 -4.9883 -0.5225 67
-0.5615 -5.2734000000000005 -0.4294 188
-0.6498999999999999 -6.1015999999999995 -0.3542 42
-0.7041 -6.609400000000001 -0.0768 19
-0.5273 -4.793 -0.8428 222
-0.7251000000000001 -6.5898 0.0766 237
-0.5493 -4.9922 -0.7593000000000001 21
-0.5527000000000001 -5.0234 -0.6445000000000001 218
-0.5459 -4.9609 -0.52 242
-0.585 -5.3125 -0.43310000000000004 243
-0.6714 -6.0977 -0.3542 89
-0.7271 -6.609400000000001 -0.0768 59
-0.5449 -4.8047 -0.8456999999999999 245
-0.7465999999999999 -6.582000000000001 0.0766 251
-0.5669 -4.9961 -0.7603 124
-5.6602 -49.9062 1.7519999999999998 252
-0.5693 -5.0195 -0.644 48
-0.5693 -5.0195 -0.5264 205
-0.6011 -5.300800000000001 -0.4321 232
-0.7476 -6.5938 -0.0767 139
-0.5600999999999999 -4.7969 -0.8442000000000001 185
-0.7709999999999999 -6.605499999999999 0.0768 164
-0.5820000000000001 -4.9844 -0.7587999999999999 5
-0.5864 -5.0195 -0.6445000000000001 234
-0.5903 -5.0547 -0.5303 66
-0.6172 -5.2852 -0.43119999999999997 84
-0.7676000000000001 -6.574199999999999 -0.0765 10
-0.5767 -4.7773 -0.8412999999999999 135
-0.7929999999999999 -6.574199999999999 0.0765 65
-0.6006 -4.9766 -0.7583 101
-0.6054999999999999 -5.0156 -0.6445000000000001 193
-0.6064 -5.0273 -0.5278 220
-0.6392 -5.296900000000001 -0.4321 80
-0.7915000000000001 -6.5586 -0.0764 209
-0.5957 -4.7969 -0.8447 75
-0.8212999999999999 -6.609400000000001 0.077 2
-0.6182 -4.9766 -0.7583 205
-6.0703 -48.875 1.7178 197
-0.623 -5.0156 -0.6445000000000001 250
-5.675800000000001 -45.6875 2.6776999999999997 203
-0.6201 -4.9922 -0.5244 57
-0.6626000000000001 -5.332000000000001 -0.4353 24
-0.8154 -6.5664 -0.0765 106
-0.6172 -4.8438 -0.8540000000000001 176
-0.8389 -6.5859000000000005 0.0767 250
-0.6333 -4.9688 -0.7573000000000001 199
-6.144500000000001 -48.2188 1.6963 86
-0.6401 -5.0234 -0.6459999999999999 155
-6.5078 -51.0625 2.9922000000000004 44
-0.6431 -5.0469 -0.5303 211
-0.6762999999999999 -5.3086 -0.43329999999999996 170
-0.8373999999999999 -6.574199999999999 -0.0766 125
-0.6553 -5.0078 -0.8833 190
-0.8667 -6.6289 0.07730000000000001 111
-0.6484000000000001 -4.9609 -0.7563 192
-6.324199999999999 -48.375 1.7012 95
-0.6548 -5.0078 -0.644 132
-5.9414 -45.4375 2.6641000000000004 60
-0.6567000000000001 -5.0195 -0.5278 185
-6.515599999999999 -49.8438 4.1016 79
-0.6958 -5.3203 -0.4346 15
-0.855 -6.5390999999999995 -0.0762 70
-0.6640999999999999 -4.9297 -0.8695999999999999 32
-0.8872 -6.5859000000000005 0.0768 7
-0.6704000000000001 -4.9766 -0.7593000000000001 190
-6.3984000000000005 -47.5 1.6719 144
-0.6665000000000001 -4.9492 -0.6372 49
-6.1602 -45.75 2.6836 162
-0.6812 -5.0586 -0.5317000000000001 135
-0.7134 -5.296900000000001 -0.43310000000000004 219
-0.8881999999999999 -6.5977 -0.07690000000000001 136
-0.6646 -4.8086 -0.8486 230
-0.9111 -6.5898 0.07690000000000001 251
-0.688 -4.9766 -0.7598 103
-6.5625 -47.5 1.6719 12
-0.6855 -4.9609 -0.6386999999999999 130
-6.3711 -46.0938 2.7051 95
