# .PCD v0.7 - Point Cloud Data file format
VERSION 0.7
FIELDS x y z intensity
SIZE 4 4 4 4
TYPE F F F F
COUNT 1 1 1 1
WIDTH 1342
HEIGHT 1
VIEWPOINT 0 0 0 1 0 0 0
POINTS 1342
DATA ascii
2.1406 -2.9336 -0.2086 180
3.9608999999999996 -5.425800000000001 0.8584 71
2.1465 -2.9414 -0.12539999999999998 53
4.0 -5.480499999999999 1.0283 42
2.1387 -2.9276999999999997 -0.0415 71
2.1543 -2.9726999999999997 0.0421 141
2.0703 -2.8574 -0.5317000000000001 167
2.1484 -2.9648000000000003 0.1261 91
1.9971 -2.7558999999999996 -0.4324 229
2.1641 -2.9863 0.2119 86
2.1484 -2.9648000000000003 -0.3804 159
2.1191 -2.9238 -0.2913 237
4.0078 -5.5312 0.7134 201
2.1328 -2.9433999999999996 -0.2089 236
3.9297000000000004 -5.421900000000001 0.856 173
2.1465 -2.9608999999999996 -0.126 112
3.9355 -5.4297 1.0166 5
2.1328 -2.9414 -0.0416 11
3.0137 -4.1562 0.8979 79
0.5693 -0.7915000000000001 -0.1646 233
2.1484 -2.9863 0.0421 99
2.0176 -2.8047000000000004 -0.5205 36
2.1543 -2.9961 0.12710000000000002 97
2.002 -2.7832 -0.4355 174
2.1562 -2.9961 0.2122 68
2.1367 -2.9688 -0.3799 254
2.1309 -2.9608999999999996 -0.2942 50
3.9199 -5.449199999999999 0.7006999999999999 19
2.125 -2.9531 -0.209 189
3.8906 -5.4062 0.8515999999999999 45
2.1445 -2.9824 -0.1265 90
3.9160000000000004 -5.4453 1.0166 30
2.1328 -2.9668 -0.0418 169
3.0058999999999996 -4.1797 0.8998999999999999 111
0.5435 -0.7612000000000001 -0.1576 166
2.1426 -3.002 0.042199999999999994 246
2.002 -2.8026999999999997 -0.5186 9
2.1562 -3.0214999999999996 0.1278 200
2.0078 -2.8105 -0.4387 122
2.1602 -3.0254000000000003 0.21359999999999998 140
2.1289 -2.9805 -0.3804 196
2.127 -2.9785000000000004 -0.2952 30
3.9120999999999997 -5.4765999999999995 0.7026 186
2.1289 -2.9824 -0.2104 208
3.8613 -5.4062 0.8491 161
2.1387 -2.9961 -0.1267 17
3.8926 -5.453099999999999 1.0146 211
2.1426 -3.002 -0.042199999999999994 251
3.0 -4.2031 0.9028 61
0.5547 -0.7827 -0.1617 72
2.1406 -3.0195 0.0424 80
1.9931999999999999 -2.8105 -0.519 98
2.1445 -3.0273000000000003 0.1278 40
2.0039 -2.8281 -0.44020000000000004 9
2.1621 -3.0488 0.2147 95
2.123 -2.9961 -0.38130000000000003 130
2.1191 -2.9882999999999997 -0.2957 87
2.1328 -3.0098000000000003 -0.212 133
3.8438 -5.421900000000001 0.8491 223
2.1309 -3.0077999999999996 -0.127 233
3.8613 -5.449199999999999 1.0117 211
2.1426 -3.0233999999999996 -0.0424 30
2.9766000000000004 -4.1992 0.8998999999999999 133
0.5249 -0.7456 -0.1534 14
2.1445 -3.0488 0.042699999999999995 60
1.9922 -2.832 -0.5215 127
2.1445 -3.0469 0.1283 210
2.0039 -2.8476999999999997 -0.4424 128
2.1602 -3.0702999999999996 0.2157 232
2.127 -3.0233999999999996 -0.38380000000000003 165
2.1113 -3.0 -0.2959 169
2.127 -3.0233999999999996 -0.21230000000000002 58
3.8125 -5.417999999999999 0.8467 244
2.1348 -3.0332 -0.1278 27
3.8301 -5.4414 1.0088 178
2.1328 -3.0312 -0.0424 148
2.9608999999999996 -4.2109 0.8998999999999999 95
0.5356000000000001 -0.7670999999999999 -0.1576 211
2.1406 -3.0645 0.042800000000000005 184
1.9971 -2.8594 -0.5254 240
2.1406 -3.0645 0.1288 87
2.002 -2.8672000000000004 -0.4443 150
2.1484 -3.0781 0.2157 216
2.123 -3.0391000000000004 -0.385 150
2.1133 -3.0254000000000003 -0.29760000000000003 240
2.1191 -3.0332 -0.2125 213
3.7870999999999997 -5.421900000000001 0.8452 58
2.1328 -3.0526999999999997 -0.1283 247
3.8339999999999996 -5.488300000000001 1.0146 18
2.127 -3.0469 -0.0425 142
0.5151 -0.7432 -0.152 215
2.1367 -3.082 0.0429 218
1.9961000000000002 -2.8789 -0.5278 203
2.1445 -3.0957 0.1298 172
2.0039 -2.8906 -0.447 68
2.1484 -3.0976999999999997 0.2167 164
2.1211 -3.0605 -0.38670000000000004 181
2.1172 -3.0526999999999997 -0.2998 73
2.1133 -3.0469 -0.213 165
2.1504 -3.1016000000000004 -0.13 0
3.7870999999999997 -5.4648 1.0068000000000001 112
2.1348 -3.0801 -0.0429 150
0.5171 -0.7515000000000001 -0.1534 159
2.1328 -3.1016000000000004 0.0431 9
1.9950999999999999 -2.8983999999999996 -0.5303 83
2.1445 -3.1151999999999997 0.13019999999999998 200
2.0195 -2.9355 -0.45289999999999997 184
2.1484 -3.123 0.21789999999999998 65
2.1133 -3.0702999999999996 -0.3872 165
2.1172 -3.0781 -0.3015 91
2.1133 -3.0702999999999996 -0.21420000000000003 250
2.7344 -3.9745999999999997 0.6152000000000001 15
2.1406 -3.1113 -0.1301 42
0.521 -0.7626999999999999 -0.1555 111
1.9971 -2.9238 -0.5337 148
2.1367 -3.127 0.1305 180
2.1016 -3.0762 -0.4736 233
2.1562 -3.1582 0.21969999999999998 28
2.1133 -3.0938 -0.3892 67
2.1035 -3.082 -0.301 31
2.1094 -3.0879000000000003 -0.2148 0
2.7305 -3.9961 0.6172 133
2.7851999999999997 -4.0781 0.7465999999999999 95
2.1172 -3.0995999999999997 -0.043 40
0.5493 -0.8101 -0.16519999999999999 212
2.1289 -3.1426 0.0435 83
1.9980000000000002 -2.9473000000000003 -0.5366 170
2.1289 -3.1426 0.1307 12
2.1094 -3.1113 -0.478 236
2.1504 -3.1719 0.2202 18
2.1172 -3.125 -0.3921 108
2.0977 -3.0957 -0.3018 192
2.1133 -3.1191000000000004 -0.21660000000000001 42
2.7188 -4.0117 0.6177 212
2.127 -3.1367000000000003 -0.1305 252
2.7285000000000004 -4.0273 0.7354 110
2.1055 -3.1074 -0.043 73
3.6992000000000003 -5.457000000000001 1.1553 26
0.5444 -0.8090999999999999 -0.1646 92
2.1309 -3.168 0.0437 176
2.0098 -2.9844 -0.542 148
2.127 -3.1601999999999997 0.13119999999999998 174
2.0938 -3.1113 -0.4771 116
2.1484 -3.1933999999999996 0.2213 148
2.1172 -3.1445 -0.39380000000000004 207
2.1035 -3.125 -0.304 151
2.7031 -4.0156 0.5044 77
2.1074 -3.1327999999999996 -0.217 148
2.6914 -3.998 0.6147 199
2.127 -3.1601999999999997 -0.13119999999999998 95
2.1035 -3.125 -0.0432 40
0.5415 -0.8105 -0.1646 91
2.1211 -3.1738 0.0437 62
2.0078 -3.0039 -0.5444 199
2.1367 -3.1973000000000003 0.1324 194
2.0996 -3.1445 -0.48100000000000004 230
2.1426 -3.2051 0.2217 76
2.1133 -3.1641000000000004 -0.3953 196
2.0977 -3.1406 -0.3049 20
2.1016 -3.1464999999999996 -0.21739999999999998 137
2.125 -3.1816000000000004 -0.1318 24
2.1113 -3.1601999999999997 -0.0435 76
0.5171 -0.7798 -0.1576 130
2.1191 -3.1952999999999996 0.043899999999999995 170
2.0137 -3.0370999999999997 -0.5493 171
2.1348 -3.2207 0.1332 228
2.1016 -3.1719 -0.4839 232
2.1426 -3.2324 0.2229 234
2.1035 -3.1738 -0.39549999999999996 184
2.1094 -3.1836 -0.30829999999999996 164
2.1035 -3.1738 -0.2189 191
2.1113 -3.1855 -0.1317 184
1.9727000000000001 -2.9766000000000004 0.6221 4
0.5142 -0.7817000000000001 -0.1576 187
2.1152 -3.2148000000000003 0.0441 38
2.7207 -4.1328 -0.748 174
2.127 -3.2324 0.1333 92
2.1035 -3.1992000000000003 -0.48710000000000003 239
2.1426 -3.2577999999999996 0.2242 132
2.1035 -3.1973000000000003 -0.39770000000000005 94
2.0977 -3.1895 -0.3081 24
2.1035 -3.1973000000000003 -0.22 71
1.9687999999999999 -2.9922000000000004 0.45530000000000004 233
2.1055 -3.2012 -0.132 100
2.1113 -3.2089999999999996 -0.044000000000000004 185
1.9628999999999999 -2.9824 0.6221 60
0.5181 -0.7935 -0.1597 252
2.1133 -3.2363 0.0443 4
2.6973000000000003 -4.1289 -0.7456 196
2.1211 -3.25 0.1338 55
2.0938 -3.207 -0.48729999999999996 41
2.1406 -3.2793 0.22519999999999998 116
2.1035 -3.2226999999999997 -0.39990000000000003 112
2.0859 -3.1973000000000003 -0.3081 18
1.9941 -3.0547000000000004 0.3789 228
2.1055 -3.2245999999999997 -0.2214 33
1.9219 -2.9433999999999996 0.4468 126
2.1094 -3.2324 -0.1329 149
1.9325999999999999 -2.9608999999999996 0.5327000000000001 33
2.1074 -3.2285000000000004 -0.044199999999999996 93
1.9219 -2.9433999999999996 0.6123 187
0.4851 -0.7490000000000001 -0.1499 134
2.1113 -3.2577999999999996 0.044500000000000005 170
2.6836 -4.1445 -0.7461 18
2.123 -3.2773000000000003 0.1346 20
2.0918 -3.2305 -0.48950000000000005 2
2.1348 -3.2949 0.2257 254
2.1055 -3.25 -0.4023 32
1.9404 -2.9941000000000004 0.2878 106
2.0938 -3.2305 -0.31079999999999997 34
1.9141 -2.9551 0.3655 240
2.0957 -3.2363 -0.2217 145
1.9072 -2.9433999999999996 0.4456 134
2.1113 -3.2577999999999996 -0.1338 11
1.9219 -2.9668 0.5327000000000001 65
2.1094 -3.2539 -0.0444 231
1.9053 -2.9414 0.6103999999999999 137
2.1035 -3.2695 0.0446 6
2.6952999999999996 -4.1914 -0.7534000000000001 94
2.123 -3.3026999999999997 0.1353 75
2.084 -3.2401999999999997 -0.49 211
2.125 -3.3047000000000004 0.226 108
2.1016 -3.2676 -0.40380000000000005 178
1.915 -2.9785000000000004 0.2854 93
2.0879 -3.248 -0.3118 29
1.9022999999999999 -2.957 0.365 168
2.0898 -3.25 -0.222 200
1.8857 -2.9336 0.44310000000000005 187
2.1094 -3.2812 -0.1344 127
1.9072 -2.9668 0.5312 68
2.0977 -3.2637 -0.044500000000000005 186
1.8818000000000001 -2.9276999999999997 0.6064 83
0.5034000000000001 -0.7886 -0.1576 118
2.0996 -3.2891000000000004 0.0447 212
2.6836 -4.207 -0.7539 133
2.1211 -3.3242000000000003 0.1359 171
2.1133 -3.3105 -0.49979999999999997 190
2.127 -3.332 0.2273 162
2.0918 -3.2773000000000003 -0.40409999999999996 138
1.915 -3.002 0.2871 227
2.0938 -3.2812 -0.31420000000000003 177
1.9003999999999999 -2.9785000000000004 0.3667 132
2.084 -3.2676 -0.2228 21
1.8652000000000002 -2.9238 0.4404 241
2.1055 -3.2988 -0.1349 86
1.8975 -2.9726999999999997 0.5312 170
2.0977 -3.2870999999999997 -0.0447 16
1.8700999999999999 -2.9297000000000004 0.6054999999999999 102
2.0996 -3.3164 0.045 207
2.668 -4.2148 -0.7539 255
2.1152 -3.3418 0.1364 47
2.6132999999999997 -4.1289 -0.623 149
2.125 -3.3574 0.2285 58
2.0918 -3.3047000000000004 -0.4065 36
1.9619 -3.0995999999999997 0.2959 41
2.0918 -3.3026999999999997 -0.3157 246
1.8896000000000002 -2.9844 0.3667 146
2.0898 -3.2988 -0.2245 162
1.8622999999999998 -2.9414 0.4424 180
2.0996 -3.3145 -0.1353 26
1.8652000000000002 -2.9473000000000003 0.5254 255
2.1016 -3.3202999999999996 -0.045 35
1.8652000000000002 -2.9452999999999996 0.6074 13
2.1016 -3.3457 0.0453 167
2.6719 -4.2539 -0.7598 223
2.1074 -3.3535000000000004 0.1365 64
2.5664 -4.0859 -0.6152000000000001 98
2.125 -3.3808999999999996 0.2296 68
2.0938 -3.332 -0.4089 234
2.082 -3.3125 -0.3159 214
1.8691 -2.9745999999999997 0.36450000000000005 157
2.0898 -3.3262 -0.22579999999999997 47
1.8486000000000002 -2.9433999999999996 0.44170000000000004 76
2.1016 -3.3438 -0.1361 131
1.8672 -2.9707 0.5288 24
2.0996 -3.3418 -0.0453 251
1.8584 -2.9589999999999996 0.6089 172
2.1055 -3.3789 0.045700000000000005 59
2.6523000000000003 -4.2578 -0.7583 195
2.1055 -3.3789 0.13720000000000002 130
2.5449 -4.0859 -0.6138 106
2.125 -3.4101999999999997 0.2311 42
2.0938 -3.3594 -0.4114 247
2.082 -3.3398000000000003 -0.3176 250
1.8535 -2.9745999999999997 0.3638 11
2.0879 -3.3516000000000004 -0.2271 236
1.8359 -2.9452999999999996 0.4412 211
2.1016 -3.373 -0.13699999999999998 3
1.8477000000000001 -2.9648000000000003 0.5264 168
1.8428 -2.957 0.6069 63
2.0996 -3.3964999999999996 0.0458 40
2.6289 -4.2539 -0.7559 8
2.1113 -3.4141000000000004 0.1383 166
2.5273 -4.0859 -0.6123 1
2.1191 -3.4276999999999997 0.23170000000000002 166
2.0859 -3.373 -0.41240000000000004 28
2.082 -3.3672000000000004 -0.3196 231
1.8408000000000002 -2.9766000000000004 0.36329999999999996 39
2.0801 -3.3632999999999997 -0.2273 18
1.8271000000000002 -2.9551 0.4414 189
2.0938 -3.3867000000000003 -0.13720000000000002 2
1.8369 -2.9707 0.5264 69
2.0957 -3.3887 -0.045700000000000005 6
1.8262 -2.9531 0.605 0
0.48950000000000005 -0.7974 -0.1576 74
2.0957 -3.4141000000000004 0.045899999999999996 14
2.6035000000000004 -4.2422 -0.7524 51
2.1113 -3.4395 0.1392 185
2.5664 -4.1836 -0.626 43
2.1152 -3.4452999999999996 0.2325 114
2.0859 -3.3964999999999996 -0.4143 175
2.0859 -3.3983999999999996 -0.322 155
1.8359 -2.9922000000000004 0.36450000000000005 202
2.0781 -3.3848000000000003 -0.2284 136
1.8144999999999998 -2.957 0.4407 216
2.0918 -3.4082 -0.1378 113
1.8281 -2.9785000000000004 0.5264 190
2.0898 -3.4043 -0.0458 69
1.8184 -2.9629000000000003 0.6054999999999999 127
2.0938 -3.4375 0.0462 118
2.6191000000000004 -4.3008 -0.7612000000000001 95
2.1035 -3.4531 0.1394 124
2.5371 -4.1641 -0.6215999999999999 226
2.1172 -3.4766000000000004 0.2341 186
2.082 -3.418 -0.41600000000000004 198
2.0781 -3.4120999999999997 -0.3225 164
1.8271000000000002 -3.0 0.36450000000000005 10
2.0801 -3.4160000000000004 -0.23 120
1.8008000000000002 -2.957 0.4397 226
2.0879 -3.4257999999999997 -0.1383 66
1.8075999999999999 -2.9668 0.5234000000000001 88
2.0938 -3.4355 -0.0461 235
1.8135 -2.9766000000000004 0.6074 16
0.5205 -0.8613 -0.17 165
2.0938 -3.4668 0.0464 240
2.6620999999999997 -4.4062 -0.7783 30
2.1016 -3.4785000000000004 0.1401 207
2.4883 -4.1172 -0.6138 253
2.1191 -3.5058999999999996 0.2357 25
2.0898 -3.457 -0.4199 109
2.0723 -3.4316000000000004 -0.3237 206
1.8184 -3.0098000000000003 0.365 145
2.0898 -3.4589999999999996 -0.2324 99
1.8047 -2.9863 0.4434 115
2.0859 -3.4531 -0.1392 207
1.8066 -2.9901999999999997 0.5264 96
2.0898 -3.4589999999999996 -0.0464 73
1.8008000000000002 -2.9805 0.6064 46
0.48100000000000004 -0.8022 -0.1576 154
2.0918 -3.4882999999999997 0.0467 119
2.7401999999999997 -4.5703 -0.8062 44
2.1035 -3.5077999999999996 0.141 246
2.4473 -4.082 -0.6069 216
2.1094 -3.5195 0.2361 16
2.0879 -3.4824 -0.42210000000000003 25
2.082 -3.4726999999999997 -0.32689999999999997 144
1.7997999999999998 -3.002 0.36329999999999996 199
2.0762 -3.4648000000000003 -0.2323 184
1.791 -2.9882999999999997 0.4426 216
2.0898 -3.4863 -0.1401 129
1.791 -2.9882999999999997 0.5249 221
2.0762 -3.4629000000000003 -0.0463 96
1.7891 -2.9844 0.6064 97
0.4783 -0.8042 -0.1576 67
2.0859 -3.5058999999999996 0.046799999999999994 30
2.7305 -4.5898 -0.8076000000000001 0
2.1035 -3.5351999999999997 0.1418 140
2.4395 -4.1016 -0.6084 186
2.1055 -3.543 0.2371 210
2.0801 -3.498 -0.42310000000000003 194
2.0742 -3.4882999999999997 -0.32789999999999997 11
1.7891 -3.0098000000000003 0.36329999999999996 89
2.0723 -3.4844 -0.2332 166
1.7772999999999999 -2.9882999999999997 0.44189999999999996 56
2.0898 -3.5156 -0.141 148
1.7988 -3.0254000000000003 0.5303 12
2.0762 -3.4922000000000004 -0.0466 254
1.7793 -2.9922000000000004 0.6064 67
0.4753 -0.8057 -0.1576 199
2.0781 -3.5214999999999996 0.046900000000000004 22
2.7148000000000003 -4.6016 -0.8086 55
2.0996 -3.5605 0.1426 86
2.4336 -4.125 -0.6103999999999999 35
2.1055 -3.5702999999999996 0.23850000000000002 23
2.0684 -3.5058999999999996 -0.42310000000000003 77
2.0801 -3.5254000000000003 -0.3306 97
1.7969 -3.0469 0.36719999999999997 180
2.0703 -3.5077999999999996 -0.2343 108
1.7715 -3.002 0.4429 43
2.084 -3.5312 -0.1414 216
1.7919999999999998 -3.0370999999999997 0.5312 148
2.084 -3.5312 -0.0471 30
1.7705000000000002 -3.0 0.6069 250
0.4727 -0.8070999999999999 -0.1576 72
2.0781 -3.5488 0.0472 159
2.7226999999999997 -4.6484 -0.8149 213
2.0938 -3.5781 0.1429 208
2.4141 -4.1211 -0.6089 142
2.1133 -3.6074 0.24059999999999998 192
2.0742 -3.5410000000000004 -0.4268 64
2.0723 -3.5391000000000004 -0.33130000000000004 3
1.8174000000000001 -3.1035000000000004 0.37329999999999997 151
2.0742 -3.543 -0.23620000000000002 44
1.7607 -3.0077999999999996 0.4429 86
2.082 -3.5547000000000004 -0.1421 72
1.7959 -3.0683999999999996 0.5356000000000001 87
2.0898 -3.5683999999999996 -0.0475 87
1.7881 -3.0547000000000004 0.6167 81
0.49579999999999996 -0.853 -0.1666 33
2.082 -3.582 0.0475 255
2.4336 -4.1875 -0.7319 71
2.0938 -3.6016000000000004 0.1437 249
3.4336 -5.9102 -0.8734999999999999 12
2.1074 -3.625 0.2412 212
2.0801 -3.5781 -0.4304 233
2.0664 -3.5566000000000004 -0.3323 176
2.0742 -3.5702999999999996 -0.2375 115
1.7988 -3.0957 0.4551 110
2.0801 -3.5781 -0.1427 198
1.7938999999999998 -3.0879000000000003 0.6221 13
0.467 -0.8105 -0.1576 23
2.084 -3.6172000000000004 0.0479 50
2.4121 -4.1875 -0.7304999999999999 22
2.0879 -3.623 0.1442 244
2.3301 -4.043 -0.5947 169
2.1016 -3.6464999999999996 0.2422 28
2.0781 -3.6074 -0.4329 227
2.2578 -3.918 0.3657 47
2.0684 -3.5898000000000003 -0.3347 164
2.0664 -3.5858999999999996 -0.2382 94
2.0879 -3.623 -0.1442 28
2.0762 -3.6016000000000004 -0.04769999999999999 237
2.0781 -3.6367000000000003 0.0481 137
2.4062 -4.2109 -0.7329000000000001 81
2.0918 -3.6620999999999997 0.14550000000000002 156
3.3789 -5.9102 -0.8701000000000001 37
2.1016 -3.6757999999999997 0.2437 72
2.0762 -3.6308999999999996 -0.4351 119
2.2324 -3.9043 0.3638 72
2.0625 -3.6074 -0.3357 110
2.0586 -3.6016000000000004 -0.23879999999999998 90
2.0879 -3.6523000000000003 -0.1451 118
2.0664 -3.6172000000000004 -0.0478 40
0.46140000000000003 -0.8140000000000001 -0.1576 42
2.3789 -4.1953 -0.7290000000000001 8
2.0957 -3.6973000000000003 0.1466 11
3.3066000000000004 -5.832000000000001 -0.8569 158
2.0957 -3.6973000000000003 0.2446 85
2.0742 -3.6601999999999997 -0.4375 182
2.0723 -3.6543 -0.3394 217
2.1816 -3.8476999999999997 0.4604 42
2.0625 -3.6387 -0.2407 183
2.1914 -3.8672000000000004 0.6714 148
2.1699 -3.8281 0.7686 178
0.48950000000000005 -0.8706 -0.16870000000000002 177
2.3555 -4.1914 -0.7265999999999999 88
2.082 -3.7031 0.1466 34
2.3027 -4.0938 -0.5986 224
2.0996 -3.7344 0.2466 164
2.0723 -3.6836 -0.4397 18
2.1641 -3.8495999999999997 0.4595 134
2.0684 -3.6776999999999997 -0.24280000000000002 41
2.1504 -3.8223000000000003 0.5586 191
2.0703 -3.6836 -0.1458 141
2.1523 -3.8301 0.6636 64
2.0762 -3.6933999999999996 -0.048600000000000004 32
0.47490000000000004 -0.8515999999999999 -0.1646 68
2.0781 -3.7266000000000004 0.049 166
2.3398 -4.1953 -0.7256 62
2.082 -3.7344 0.1475 3
2.2715 -4.0742 -0.5942000000000001 64
2.0996 -3.7637 0.248 84
2.0742 -3.7188 -0.4429 239
2.1289 -3.8183999999999996 0.3533 146
2.0605 -3.6933999999999996 -0.3418 138
2.1465 -3.8495999999999997 0.4587 241
2.0723 -3.7168 -0.24489999999999998 149
2.1387 -3.8358999999999996 0.5596 156
2.0742 -3.7188 -0.1469 209
2.1504 -3.8555 0.6665000000000001 187
2.0703 -3.7108999999999996 -0.048799999999999996 206
2.1504 -3.8555 0.7709999999999999 183
0.48710000000000003 -0.8809 -0.17 66
2.0781 -3.7577999999999996 0.0493 23
2.3223 -4.1953 -0.7251000000000001 188
2.0859 -3.7695 0.14859999999999998 20
2.2598 -4.0859 -0.5952000000000001 93
2.0938 -3.7851999999999997 0.2489 4
2.0742 -3.75 -0.4458 239
2.123 -3.8379000000000003 0.35450000000000004 141
2.0742 -3.75 -0.3464 167
2.127 -3.8457 0.4573 59
2.0625 -3.7285000000000004 -0.2452 186
2.1289 -3.8476999999999997 0.5600999999999999 178
2.0742 -3.75 -0.1478 170
2.1406 -3.8691000000000004 0.6675 205
2.0605 -3.7266000000000004 -0.0489 192
2.1367 -3.8632999999999997 0.7709999999999999 255
2.0703 -3.7733999999999996 0.049400000000000006 217
2.3066 -4.2031 -0.7245999999999999 158
2.0859 -3.8026999999999997 0.1497 243
2.2832 -4.1602 -0.605 15
2.0859 -3.8026999999999997 0.24960000000000002 55
2.0664 -3.7656 -0.4468 211
2.1172 -3.8594 0.35600000000000004 70
2.0762 -3.7851999999999997 -0.3489 51
2.1289 -3.8808999999999996 0.4604 202
2.0645 -3.7617000000000003 -0.2469 28
2.1152 -3.8535000000000004 0.5600999999999999 111
2.0742 -3.7793 -0.14880000000000002 53
2.1309 -3.8827999999999996 0.6689 108
2.0742 -3.7793 -0.0495 172
2.1367 -3.8964999999999996 0.7759 17
2.041 -3.752 -0.7461 86
2.0645 -3.7949 0.0496 214
2.2852 -4.1992 -0.7227 218
2.0801 -3.8242000000000003 0.1503 93
2.2754 -4.1836 -0.6069 192
2.0879 -3.8358999999999996 0.2515 188
2.0605 -3.7851999999999997 -0.4485 205
2.0996 -3.8574 0.355 190
2.0703 -3.8066000000000004 -0.3503 208
2.1133 -3.8848000000000003 0.46020000000000005 226
2.0664 -3.7969 -0.2488 165
2.1074 -3.8711 0.5615 133
2.0723 -3.8086 -0.1495 220
2.1309 -3.9160000000000004 0.6733 44
2.0645 -3.7949 -0.0496 73
2.1445 -3.9433999999999996 0.7842 104
1.9971 -3.7012 -0.7339 118
2.0664 -3.8281 0.05 208
2.2656 -4.1992 -0.7212000000000001 204
2.0801 -3.8535000000000004 0.15109999999999998 206
2.2734 -4.2148 -0.6103999999999999 130
2.0879 -3.8691000000000004 0.2532 186
2.0625 -3.8223000000000003 -0.45189999999999997 130
2.1016 -3.8945 0.3579 92
2.0762 -3.8495999999999997 -0.35350000000000004 242
2.1152 -3.9219 0.4636 80
2.0625 -3.8242000000000003 -0.25 220
2.1074 -3.9043 0.5654 64
2.0664 -3.8301 -0.1501 125
2.125 -3.9375 0.6758 162
2.0762 -3.8495999999999997 -0.050199999999999995 127
2.1426 -3.9688 0.7881 188
1.9950999999999999 -3.7285000000000004 -0.7383 211
2.0703 -3.8691000000000004 0.0504 28
2.2559 -4.2188 -0.7227 128
2.0703 -3.8711 0.1515 20
2.2676 -4.2344 -0.6123 134
2.0859 -3.8983999999999996 0.2546 26
2.0664 -3.8613 -0.4558 59
2.1035 -3.9316000000000004 0.36060000000000003 47
2.0645 -3.8594 -0.354 142
2.1133 -3.9473000000000003 0.4661 21
2.0586 -3.8476999999999997 -0.25120000000000003 227
2.1172 -3.957 0.5718 52
2.0664 -3.8613 -0.15109999999999998 106
2.1191 -3.9589999999999996 0.6781999999999999 72
2.0703 -3.8691000000000004 -0.0504 40
2.1406 -4.0 0.7929999999999999 143
1.9893 -3.75 -0.7412000000000001 110
2.0723 -3.9043 0.0508 112
2.2461 -4.2305 -0.7241 156
2.0723 -3.9082 0.1527 236
2.293 -4.3203 -0.6235 29
2.0879 -3.9375 0.2566 238
2.0684 -3.8964999999999996 -0.45899999999999996 7
2.0957 -3.9492000000000003 0.3616 132
2.0586 -3.8808999999999996 -0.3552 67
2.1074 -3.9707 0.4678 129
2.0566 -3.875 -0.25239999999999996 76
2.1094 -3.9745999999999997 0.5732 70
2.0664 -3.8926 -0.1521 52
2.1211 -3.9961 0.6831 186
2.0645 -3.8906 -0.0506 205
2.1289 -4.0117 0.7935 245
1.9834 -3.7695 -0.7437 220
2.0684 -3.9316000000000004 0.051100000000000007 99
2.252 -4.2812 -0.7314 245
2.0781 -3.9473000000000003 0.1539 143
2.3613 -4.4883 -0.647 121
2.0801 -3.9551 0.25730000000000003 123
2.0625 -3.9219 -0.4612 81
2.0957 -3.9824 0.364 156
2.0645 -3.9238 -0.35840000000000005 218
2.1035 -4.0 0.4705 200
2.0488 -3.8926 -0.2532 76
2.1016 -3.9941000000000004 0.5752 82
2.0723 -3.9395 -0.1537 30
2.127 -4.043 0.6904 215
2.0625 -3.9219 -0.0509 122
2.1289 -4.0469 0.7988 113
2.0215 -3.873 -0.7626999999999999 240
2.0586 -3.9473000000000003 0.051100000000000007 86
2.2539 -4.3203 -0.7368000000000001 39
2.0723 -3.9726999999999997 0.1547 149
2.377 -4.5586 -0.6557999999999999 150
2.0742 -3.9785000000000004 0.2583 128
2.0547 -3.9375 -0.4622 34
2.0938 -4.0117 0.366 218
2.0547 -3.9395 -0.3594 28
2.1074 -4.0391 0.47409999999999997 238
2.0527 -3.9355 -0.2556 75
2.0918 -4.0078 0.5761999999999999 97
2.0645 -3.957 -0.15410000000000001 228
2.127 -4.0781 0.6948000000000001 115
2.0605 -3.9492000000000003 -0.0512 194
2.1309 -4.0859 0.8051999999999999 105
2.127 -4.1094 -0.8086 181
2.0605 -3.9824 0.051500000000000004 7
2.2363 -4.3203 -0.7354 3
2.0703 -4.0039 0.15560000000000002 250
2.4668 -4.7695 -0.6851 124
2.0781 -4.0195 0.2605 189
2.0488 -3.9629000000000003 -0.4644 42
2.0859 -4.0352 0.36719999999999997 155
2.0449 -3.9551 -0.3601 207
2.1074 -4.0742 0.4775 170
2.0527 -3.9688 -0.25730000000000003 233
2.1055 -4.0703 0.584 203
2.0527 -3.9688 -0.1543 45
2.1172 -4.0938 0.6962999999999999 248
2.0625 -3.9863 -0.0516 23
2.1328 -4.1211 0.8109999999999999 201
2.1406 -4.1758 -0.8198000000000001 101
2.0605 -4.0195 0.0519 110
2.2402 -4.3672 -0.7422 234
2.0664 -4.0312 0.1564 143
2.457 -4.793 -0.6875 58
2.0742 -4.0469 0.26170000000000004 117
2.0566 -4.0117 -0.4692 190
2.084 -4.0625 0.3691 209
2.043 -3.9824 -0.3618 252
2.1016 -4.0977 0.47950000000000004 252
2.0508 -4.0 -0.2588 157
2.1055 -4.1055 0.5879 147
2.0527 -4.0 -0.1553 240
2.1172 -4.1289 0.7012 236
2.0566 -4.0078 -0.0518 65
2.1387 -4.1719 0.8193 163
2.1152 -4.1602 -0.8159000000000001 85
2.0586 -4.0469 0.052199999999999996 74
2.2266 -4.3789 -0.7426999999999999 172
2.0684 -4.0664 0.1576 210
2.4453 -4.8086 -0.6884999999999999 20
2.0723 -4.0742 0.2632 47
2.0586 -4.0508 -0.4729 167
2.0918 -4.1133 0.37329999999999997 197
2.0449 -4.0195 -0.36469999999999997 11
2.1016 -4.1328 0.4827 96
2.0469 -4.0273 -0.26030000000000003 91
2.1055 -4.1445 0.5922999999999999 91
2.0566 -4.0469 -0.1567 249
2.1289 -4.1875 0.71 205
2.0527 -4.0391 -0.0521 213
2.0977 -4.1562 -0.8134999999999999 240
2.0566 -4.0781 0.0525 169
2.2246 -4.4102 -0.7471 118
2.0684 -4.0977 0.1586 249
2.4863 -4.9258 -0.7045999999999999 44
2.0723 -4.1055 0.26489999999999997 247
2.0508 -4.0664 -0.47409999999999997 155
2.0957 -4.1562 0.3765 60
2.043 -4.0508 -0.3667 67
2.1113 -4.1836 0.488 182
2.041 -4.0469 -0.261 152
2.0586 -4.082 -0.1578 45
2.7363 -5.425800000000001 0.9198999999999999 57
2.0547 -4.0742 -0.0525 186
2.7245999999999997 -5.4023 1.0595999999999999 96
2.0938 -4.1836 -0.8173999999999999 223
2.0566 -4.1133 0.0529 121
2.2148 -4.4258 -0.748 86
2.0723 -4.1406 0.15990000000000001 134
2.6914 -5.3789 -0.7686 31
2.082 -4.1602 0.2681 104
2.0508 -4.1016 -0.47729999999999995 56
2.1074 -4.2109 0.3809 116
2.0488 -4.0938 -0.3701 70
2.1348 -4.2656 0.4968 57
2.0391 -4.0742 -0.2625 209
2.6875 -5.3711 0.7670999999999999 180
2.0547 -4.1094 -0.1586 21
2.7031 -5.4023 0.915 217
2.0527 -4.1016 -0.0527 93
2.6952999999999996 -5.386699999999999 1.0547 71
2.0781 -4.1953 -0.8184 44
2.0566 -4.1523 0.0533 250
2.1914 -4.4258 -0.7461 109
2.082 -4.2031 0.162 191
2.6875 -5.425800000000001 -0.7734000000000001 195
2.0996 -4.2383 0.2725 169
2.0547 -4.1484 -0.48219999999999996 220
2.1074 -4.2539 0.3843 151
2.0371 -4.1133 -0.3713 229
2.6776999999999997 -5.4023 0.6294 124
2.0371 -4.1133 -0.2644 191
2.6660000000000004 -5.3789 0.7670999999999999 132
2.0449 -4.1289 -0.1591 33
2.6719 -5.394500000000001 0.9111 194
2.0723 -4.1836 -0.0537 11
2.6757999999999997 -5.4023 1.0556999999999999 205
2.0156 -4.1094 -0.7993000000000001 157
2.0898 -4.2578 0.0546 3
2.1816 -4.4453 -0.7484999999999999 114
2.0879 -4.2539 0.1636 222
2.668 -5.4336 -0.7734000000000001 40
2.1035 -4.2852 0.2751 250
2.0625 -4.2031 -0.4875 29
2.6426 -5.3828 0.4863 162
2.6504000000000003 -5.4023 0.6279 129
2.0879 -4.2539 -0.2729 213
2.6445 -5.390599999999999 0.7670999999999999 187
2.5156 -5.125 -0.19760000000000003 92
2.6426 -5.386699999999999 0.9081999999999999 26
2.0625 -4.2031 -0.053899999999999997 222
2.6483999999999996 -5.3984000000000005 1.0527 186
2.0371 -4.1797 -0.8125 183
2.1777 -4.4688 -0.752 176
2.6094 -5.359400000000001 0.20629999999999998 111
2.6776999999999997 -5.4961 -0.7807999999999999 135
3.4395 -7.0586 -0.8208 247
2.6308999999999996 -5.3984000000000005 0.4868 173
2.6035000000000004 -5.3438 -0.4819 126
2.627 -5.394500000000001 0.626 217
2.4414 -5.0117 -0.3218 106
2.625 -5.386699999999999 0.7651 50
2.6113 -5.363300000000001 -0.2064 60
2.6211 -5.3828 0.9062 144
2.627 -5.394500000000001 1.0508 135
2.0684 -4.2812 -0.8311 150
2.582 -5.3477 0.06849999999999999 37
2.1953 -4.5469 -0.7631999999999999 235
2.5957 -5.3711 0.2065 253
2.6797000000000004 -5.550800000000001 -0.7870999999999999 123
2.5898000000000003 -5.363300000000001 0.34380000000000005 98
3.4219 -7.0859000000000005 -0.8223 112
2.6074 -5.3984000000000005 0.4858 56
2.5957 -5.375 -0.4839 218
2.6055 -5.394500000000001 0.625 172
2.5683999999999996 -5.3164 -0.3408 142
2.5957 -5.3711 0.7622 217
2.5801 -5.3438 -0.2054 180
2.6113 -5.4062 0.9087000000000001 90
2.543 -5.265599999999999 -0.0675 122
2.6016000000000004 -5.3828 1.0469 174
2.0742 -4.3359 -0.8398 229
2.5527 -5.3398 0.0683 148
2.1992 -4.5977 -0.7705 46
2.5702999999999996 -5.375 0.20629999999999998 156
2.6601999999999997 -5.5625 -0.7876000000000001 104
2.5645 -5.363300000000001 0.3433 52
3.4101999999999997 -7.1328 -0.8262 232
2.5742000000000003 -5.3828 0.4836 66
2.5527 -5.3359000000000005 -0.47950000000000004 81
2.5839999999999996 -5.4023 0.6245 149
2.5488 -5.328099999999999 -0.3411 158
2.5683999999999996 -5.3672 0.7598 85
2.5645 -5.359400000000001 -0.2057 233
2.5858999999999996 -5.4062 0.9072 166
2.5 -5.2265999999999995 -0.0669 249
2.5742000000000003 -5.3828 1.0449 111
2.0703 -4.3672 -0.8447 152
2.5332 -5.3438 0.0682 233
2.1758 -4.5898 -0.7681 141
2.543 -5.3672 0.20559999999999998 80
2.6562 -5.605499999999999 -0.7925 70
2.5449 -5.3711 0.34299999999999997 94
2.5469 -5.375 0.4819 80
2.5312 -5.3398 -0.479 8
2.5605 -5.4023 0.6235 172
2.5254 -5.328099999999999 -0.3403 166
2.5488 -5.3789 0.7598 71
2.5078 -5.292999999999999 -0.2028 75
2.5586 -5.3984000000000005 0.9043000000000001 166
2.4883 -5.2461 -0.067 225
2.5527 -5.386699999999999 1.0439 251
2.0449 -4.3516 -0.8408 2
2.5137 -5.3477 0.0682 162
2.1465 -4.5703 -0.7631999999999999 90
2.5215 -5.3672 0.2052 238
2.6582 -5.6562 -0.7983 53
2.5293 -5.3828 0.3433 152
3.9648000000000003 -8.4375 -0.9751000000000001 88
2.5293 -5.3828 0.4819 110
2.5078 -5.3359000000000005 -0.4778 215
2.5332 -5.390599999999999 0.6215999999999999 243
2.502 -5.324199999999999 -0.3396 105
2.5254 -5.375 0.7583 72
2.5312 -5.386699999999999 0.9009 147
2.4883 -5.296900000000001 -0.0675 160
2.5352 -5.394500000000001 1.0439 118
2.0059 -4.3047 -0.8301000000000001 185
2.4492 -5.2578 0.067 237
2.1211 -4.5508 -0.7593000000000001 145
2.4922 -5.3515999999999995 0.2043 218
2.668 -5.7265999999999995 -0.8070999999999999 248
2.502 -5.3711 0.342 107
3.9745999999999997 -8.5312 -0.9849 80
2.5078 -5.3828 0.4814 237
2.4844 -5.332000000000001 -0.4768 209
2.5078 -5.3828 0.6196 42
2.4824 -5.328099999999999 -0.3394 149
2.5098 -5.386699999999999 0.7587999999999999 186
2.4961 -5.355499999999999 -0.2045 188
2.5078 -5.3828 0.8989 189
2.4668 -5.292999999999999 -0.0674 72
2.5117 -5.390599999999999 1.041 96
2.043 -4.4258 -0.8521 116
2.418 -5.238300000000001 0.0666 235
2.0977 -4.5469 -0.7568 74
2.4766 -5.3672 0.2047 169
2.6445 -5.734400000000001 -0.8066 145
2.4746 -5.363300000000001 0.3408 100
3.9824 -8.6328 -0.9941 0
2.4883 -5.390599999999999 0.4814 121
2.4648 -5.3398 -0.4768 119
2.4902 -5.394500000000001 0.6201 25
2.4629 -5.3359000000000005 -0.33909999999999996 160
2.4805 -5.375 0.7559 33
2.4727 -5.359400000000001 -0.20420000000000002 209
2.4902 -5.394500000000001 0.8994 71
2.457 -5.324199999999999 -0.0677 196
2.4863 -5.386699999999999 1.0391 101
2.0508 -4.4844 -0.8618000000000001 194
2.4062 -5.261699999999999 0.0668 153
2.0645 -4.5117 -0.75 90
2.457 -5.375 0.2046 255
2.6582 -5.8125 -0.8169 15
2.4551 -5.3711 0.3408 187
2.8301 -6.1914 -0.7109000000000001 170
2.459 -5.3789 0.4792 226
2.4492 -5.355499999999999 -0.47729999999999995 26
2.4707 -5.4062 0.6201 188
2.4434 -5.3477 -0.3394 82
2.4551 -5.3672 0.7539 207
2.4453 -5.3515999999999995 -0.2036 115
2.4648 -5.390599999999999 0.8975 74
2.4414 -5.3398 -0.0677 18
2.4609 -5.3828 1.0361 229
2.0508 -4.5273 -0.8691 34
2.4121 -5.324199999999999 0.0674 218
2.0371 -4.4961 -0.7461 85
2.4297 -5.363300000000001 0.20370000000000002 216
2.6660000000000004 -5.886699999999999 -0.8256999999999999 66
2.4336 -5.3711 0.3406 167
2.8281 -6.2422 -0.7158 29
2.4355 -5.375 0.47850000000000004 216
2.418 -5.3359000000000005 -0.47490000000000004 81
2.4473 -5.4023 0.6187 253
2.4238 -5.3477 -0.3389 145
2.4316 -5.3711 0.7529 250
2.4199 -5.3438 -0.203 203
2.4414 -5.386699999999999 0.8955 134
2.418 -5.3398 -0.0676 28
2.4453 -5.3984000000000005 1.0381 141
2.0449 -4.5547 -0.873 43
2.4082 -5.3672 0.0679 66
2.0195 -4.5 -0.7456 180
2.3984 -5.3438 0.2028 84
2.6483999999999996 -5.8984000000000005 -0.8262 249
2.4141 -5.3789 0.3403 52
2.7714999999999996 -6.171900000000001 -0.7065 166
2.4141 -5.3789 0.4778 134
2.3945 -5.3359000000000005 -0.4739 139
2.4199 -5.390599999999999 0.6167 246
2.3984 -5.3438 -0.3381 75
2.416 -5.3828 0.7534000000000001 137
2.4004 -5.3477 -0.2029 174
2.4141 -5.3789 0.8931 255
2.3906 -5.328099999999999 -0.0674 118
2.4258 -5.4023 1.0371 59
2.0391 -4.582 -0.877 111
2.3867 -5.3672 0.0678 216
2.0117 -4.5234 -0.7484999999999999 211
2.3828 -5.355499999999999 0.2029 163
2.3398 -5.2578 -0.7349 83
2.3848 -5.363300000000001 0.3389 157
2.7401999999999997 -6.1602 -0.7041 57
2.3984 -5.394500000000001 0.47850000000000004 243
2.373 -5.3359000000000005 -0.47340000000000004 183
2.3945 -5.3828 0.6147 208
2.3809 -5.3515999999999995 -0.3381 19
2.3965 -5.386699999999999 0.7529 52
2.3809 -5.3515999999999995 -0.2028 242
2.3926 -5.3789 0.8911 191
2.3691 -5.328099999999999 -0.0673 170
2.4023 -5.3984000000000005 1.0342 109
2.0254 -4.5977 -0.8784000000000001 73
2.3633 -5.359400000000001 0.0676 86
1.9922 -4.5195 -0.7465999999999999 110
2.3594 -5.3515999999999995 0.2024 192
2.3203 -5.265599999999999 -0.7343999999999999 82
2.3633 -5.359400000000001 0.3381 43
2.7148000000000003 -6.1602 -0.7026 104
2.377 -5.390599999999999 0.4775 125
2.3594 -5.3515999999999995 -0.47409999999999997 214
2.3789 -5.3984000000000005 0.6152000000000001 13
2.3555 -5.3438 -0.3369 232
2.3711 -5.3789 0.7505 222
2.3633 -5.359400000000001 -0.2028 116
2.375 -5.386699999999999 0.8911 127
2.3477 -5.324199999999999 -0.06709999999999999 250
2.373 -5.3828 1.0303 26
2.0273 -4.6484 -0.8867 118
2.3359 -5.3515999999999995 0.0674 241
1.9824000000000002 -4.5469 -0.7495 89
2.3398 -5.363300000000001 0.2025 109
2.3008 -5.2734000000000005 -0.7349 254
2.3438 -5.3711 0.33840000000000003 135
2.6952999999999996 -6.175800000000001 -0.7036 63
2.3457 -5.3789 0.4756 238
2.332 -5.3477 -0.4727 165
2.3535 -5.394500000000001 0.6143 43
2.3281 -5.3359000000000005 -0.33590000000000003 69
2.3418 -5.3672 0.7476 87
2.3379 -5.355499999999999 -0.2023 30
2.3516 -5.390599999999999 0.8901 173
2.332 -5.3438 -0.0673 37
2.3516 -5.390599999999999 1.0293 27
2.0234 -4.6836 -0.8926000000000001 0
2.3145 -5.355499999999999 0.0673 102
1.9697 -4.5586 -0.7505 112
2.3125 -5.3515999999999995 0.2018 47
2.2812 -5.2773 -0.7343999999999999 52
2.3242 -5.3789 0.3381 168
2.7051 -6.2578 -0.7119 95
2.3242 -5.3789 0.47509999999999997 50
2.3047 -5.332000000000001 -0.4707 245
2.3301 -5.390599999999999 0.6128 142
2.3125 -5.355499999999999 -0.3367 171
2.3242 -5.3789 0.7484999999999999 210
2.3086 -5.3438 -0.2014 4
2.3281 -5.386699999999999 0.8881999999999999 196
2.3086 -5.3438 -0.06709999999999999 28
2.334 -5.4023 1.0303 215
2.0234 -4.7305 -0.8998999999999999 245
2.3027 -5.3828 0.0676 67
1.9619 -4.5859 -0.7539 7
2.2891 -5.3477 0.2014 100
2.2656 -5.296900000000001 -0.7358 30
2.3027 -5.3828 0.3379 10
2.7051 -6.324199999999999 -0.7182999999999999 86
2.2988 -5.375 0.4736 67
2.2773 -5.324199999999999 -0.4692 17
2.3086 -5.394500000000001 0.6123 138
2.291 -5.355499999999999 -0.3362 80
2.3008 -5.3789 0.7471 154
2.2871 -5.3477 -0.20129999999999998 70
2.3008 -5.3789 0.8853 253
2.2852 -5.3398 -0.067 20
2.3105 -5.4023 1.0283 133
2.0156 -4.7578 -0.9033 216
2.2754 -5.3711 0.0673 39
1.9569999999999999 -4.6172 -0.7583 59
2.2695 -5.359400000000001 0.2014 114
2.248 -5.3086 -0.7358 78
2.2773 -5.375 0.3369 128
2.6973000000000003 -6.3672 -0.7222 101
2.2852 -5.390599999999999 0.4746 28
2.2598 -5.332000000000001 -0.46950000000000003 248
2.2852 -5.390599999999999 0.6108 31
2.2617 -5.3359000000000005 -0.3345 104
2.2793 -5.3828 0.7461 243
2.2676 -5.3515999999999995 -0.20120000000000002 179
2.2793 -5.3828 0.8848 123
2.25 -5.3125 -0.0665 59
2.2852 -5.390599999999999 1.0254 120
2.0078 -4.7852 -0.9072 93
2.2402 -5.3398 0.0668 28
1.9658000000000002 -4.6836 -0.7681 2
2.2539 -5.3672 0.20149999999999998 207
2.6601999999999997 -6.3359000000000005 -0.8784000000000001 177
2.252 -5.363300000000001 0.33590000000000003 225
2.7051 -6.4453 -0.73 91
2.2637 -5.394500000000001 0.47409999999999997 159
2.2383 -5.332000000000001 -0.46880000000000005 91
2.2637 -5.394500000000001 0.6103999999999999 135
2.2402 -5.3398 -0.3342 224
2.2578 -5.3828 0.7451000000000001 173
2.248 -5.355499999999999 -0.201 227
2.2617 -5.386699999999999 0.8843000000000001 178
2.2285 -5.3125 -0.0665 6
2.2578 -5.3828 1.0215 139
2.0078 -4.8281 -0.9146 212
2.2051 -5.3047 0.0663 151
1.9521000000000002 -4.6953 -0.7686 0
2.2305 -5.363300000000001 0.201 48
2.6582 -6.390599999999999 -0.8848 207
2.2324 -5.3672 0.3357 204
3.7031 -8.9062 -1.0088 83
2.2383 -5.3828 0.47240000000000004 8
2.2246 -5.3477 -0.46950000000000003 226
2.2461 -5.3984000000000005 0.6099 139
2.2227 -5.3477 -0.3342 170
2.2344 -5.3711 0.7426999999999999 37
2.2207 -5.3398 -0.2002 12
2.2441 -5.394500000000001 0.8843000000000001 28
2.209 -5.3125 -0.0663 46
2.2441 -5.3984000000000005 1.0234 186
2.0039 -4.8672 -0.9209 134
2.1914 -5.3203 0.0664 25
1.9638999999999998 -4.7695 -0.7803 80
2.207 -5.359400000000001 0.2006 222
2.6504000000000003 -6.4375 -0.8901 204
2.2109 -5.3672 0.33520000000000005 139
2.2148 -5.3789 0.4714 24
2.1953 -5.332000000000001 -0.4673 133
2.2246 -5.4023 0.6093999999999999 11
2.2051 -5.355499999999999 -0.3342 158
2.2129 -5.375 0.7422 162
2.1973 -5.3359000000000005 -0.1996 166
2.2188 -5.386699999999999 0.8818 149
2.1895 -5.3164 -0.0663 145
2.2227 -5.394500000000001 1.0215 103
2.0039 -4.9141 -0.9281999999999999 207
2.1699 -5.3203 0.0663 34
2.0371 -4.9961 -0.8159000000000001 38
2.1836 -5.355499999999999 0.20010000000000003 152
2.6426 -6.4765999999999995 -0.8945000000000001 21
2.1934 -5.375 0.33520000000000005 86
2.1934 -5.3789 0.4707 22
2.1797 -5.3398 -0.4675 215
2.2031 -5.3984000000000005 0.6084 3
2.1895 -5.3672 -0.3345 31
2.1953 -5.3828 0.7422 132
2.1797 -5.3438 -0.1998 51
2.1934 -5.375 0.8789 3
2.166 -5.3086 -0.0662 58
2.2031 -5.3984000000000005 1.0205 56
1.9883000000000002 -4.9336 -0.9301999999999999 58
2.1523 -5.3359000000000005 0.0664 162
2.0586 -5.1055 -0.833 104
2.1582 -5.3515999999999995 0.1997 221
2.6426 -6.5547 -0.9033 189
2.166 -5.375 0.3345 213
2.1738 -5.390599999999999 0.47119999999999995 229
2.1484 -5.328099999999999 -0.4656 78
2.1699 -5.3828 0.6054999999999999 212
2.1562 -5.3477 -0.3328 197
2.1719 -5.386699999999999 0.7417 151
2.1582 -5.355499999999999 -0.1998 67
2.1719 -5.386699999999999 0.8789 155
2.1406 -5.3086 -0.066 235
2.1758 -5.3984000000000005 1.0186 92
1.9785 -4.9609 -0.9340999999999999 106
2.123 -5.3203 0.0661 230
2.0566 -5.1523 -0.8393999999999999 181
2.1406 -5.3672 0.2 183
2.6367000000000003 -6.605499999999999 -0.9097 10
2.1406 -5.3672 0.3335 20
2.1504 -5.390599999999999 0.4705 122
2.1309 -5.3398 -0.4658 92
2.1504 -5.390599999999999 0.6054999999999999 111
2.1309 -5.3398 -0.3318 232
2.1445 -5.375 0.7393000000000001 54
2.1328 -5.3477 -0.19920000000000002 244
2.1543 -5.3984000000000005 0.8798999999999999 162
2.1172 -5.3086 -0.0659 140
2.1465 -5.3828 1.0146 154
1.9805000000000001 -5.0117 -0.9429000000000001 10
2.1035 -5.324199999999999 0.066 113
2.0488 -5.1836 -0.8438 40
2.1211 -5.3672 0.1997 16
2.4492 -6.199199999999999 -0.8521 153
2.1211 -5.3711 0.3333 151
2.125 -5.3789 0.46880000000000005 83
2.1172 -5.359400000000001 -0.4668 114
2.1309 -5.394500000000001 0.605 225
2.1074 -5.332000000000001 -0.3311 192
2.1211 -5.3672 0.7368000000000001 245
2.1133 -5.3477 -0.19899999999999998 41
2.1328 -5.3984000000000005 0.8789 137
2.0938 -5.300800000000001 -0.06570000000000001 15
2.1309 -5.390599999999999 1.0146 221
1.9883000000000002 -5.0859 -0.9551000000000001 30
2.084 -5.328099999999999 0.066 121
1.9569999999999999 -5.0039 -0.8125 190
2.0938 -5.355499999999999 0.19899999999999998 17
2.4023 -6.140599999999999 -0.8428 190
2.1016 -5.375 0.33299999999999996 4
2.1035 -5.375 0.4678 131
2.0918 -5.3477 -0.4653 8
2.1113 -5.3984000000000005 0.6045 114
2.0898 -5.3438 -0.33130000000000004 135
2.1016 -5.375 0.7368000000000001 222
2.0879 -5.3398 -0.1984 92
2.1094 -5.394500000000001 0.8765000000000001 226
2.084 -5.328099999999999 -0.066 251
2.1094 -5.390599999999999 1.0137 173
1.9853999999999998 -5.125 -0.9614 164
2.0664 -5.332000000000001 0.066 170
2.043 -5.2734000000000005 -0.856 36
2.0742 -5.355499999999999 0.19870000000000002 142
2.3887 -6.167999999999999 -0.8452 190
2.084 -5.3789 0.33299999999999996 101
2.084 -5.3789 0.4673 247
2.0703 -5.3438 -0.4644 197
2.0898 -5.394500000000001 0.6035 104
2.0762 -5.359400000000001 -0.33149999999999996 82
2.084 -5.3789 0.7363 95
2.0664 -5.3359000000000005 -0.198 191
2.0859 -5.386699999999999 0.8740000000000001 212
2.0645 -5.328099999999999 -0.0659 119
2.0879 -5.390599999999999 1.0117 198
1.9766 -5.1523 -0.9658 203
2.0566 -5.359400000000001 0.0662 114
2.043 -5.324199999999999 -0.8633 67
2.0547 -5.359400000000001 0.1986 164
2.3613 -6.1562 -0.8428 36
2.0605 -5.3672 0.3318 17
2.0684 -5.390599999999999 0.46799999999999997 120
2.0469 -5.3359000000000005 -0.46340000000000003 97
2.0684 -5.394500000000001 0.6025 28
2.0449 -5.332000000000001 -0.3296 60
2.0625 -5.3789 0.7354 78
2.0527 -5.3477 -0.19820000000000002 102
2.0684 -5.390599999999999 0.8740000000000001 12
2.0508 -5.3438 -0.066 23
2.0684 -5.390599999999999 1.0107 69
1.9716999999999998 -5.1953 -0.9727 69
2.0352 -5.363300000000001 0.0662 23
2.3066 -6.074199999999999 -0.9843999999999999 184
2.0332 -5.359400000000001 0.1984 189
2.3359 -6.1523 -0.8412999999999999 27
2.0352 -5.363300000000001 0.33130000000000004 175
2.0469 -5.390599999999999 0.4673 22
2.0234 -5.332000000000001 -0.46240000000000003 148
2.0469 -5.394500000000001 0.6021 218
2.0176 -5.3164 -0.3281 72
2.0391 -5.3711 0.7334 0
2.0332 -5.359400000000001 -0.1984 169
2.0449 -5.390599999999999 0.8726 43
2.0234 -5.3359000000000005 -0.0658 96
2.0352 -5.363300000000001 1.0039 66
1.9727000000000001 -5.2539 -0.9819 115
2.0078 -5.3477 0.0659 234
2.2891 -6.0977 -0.9868000000000001 181
2.0137 -5.363300000000001 0.19820000000000002 10
2.3145 -6.1640999999999995 -0.8418000000000001 217
2.0156 -5.3672 0.3308 93
2.0195 -5.375 0.4653 196
2.0059 -5.3438 -0.46259999999999996 107
2.0254 -5.394500000000001 0.6011 2
2.0 -5.328099999999999 -0.3286 130
2.0137 -5.363300000000001 0.7314 188
2.0078 -5.3515999999999995 -0.1978 219
2.0273 -5.3984000000000005 0.873 11
2.002 -5.332000000000001 -0.06570000000000001 255
2.0215 -5.3828 1.0068000000000001 66
1.9697 -5.3047 -0.9902 116
1.9893 -5.359400000000001 0.0659 10
2.2598 -6.0859000000000005 -0.9834 24
1.9912 -5.363300000000001 0.198 184
2.2891 -6.167999999999999 -0.8408 255
1.9922 -5.363300000000001 0.33030000000000004 180
1.9961000000000002 -5.375 0.4648 145
1.9775 -5.324199999999999 -0.4604 93
2.0059 -5.3984000000000005 0.6006 80
1.9872999999999998 -5.3515999999999995 -0.3296 139
1.9950999999999999 -5.3711 0.7314 132
1.9756 -5.3203 -0.19640000000000002 121
1.9961000000000002 -5.3789 0.8682 194
1.9863 -5.3477 -0.0658 215
2.0039 -5.3984000000000005 1.0078 109
2.1953 -5.9765999999999995 -1.1152 3
1.9716999999999998 -5.3672 0.066 91
2.2383 -6.0938 -0.9834 83
1.9668 -5.355499999999999 0.1974 92
2.2617 -6.1562 -0.8379000000000001 53
1.9716999999999998 -5.3672 0.3301 247
1.9727000000000001 -5.3711 0.4636 226
1.9550999999999998 -5.3203 -0.4595 86
1.9785 -5.386699999999999 0.5986 247
1.9609 -5.3398 -0.3284 159
1.9746000000000001 -5.375 0.731 206
1.9609 -5.3359000000000005 -0.1968 200
1.9766 -5.3789 0.8676999999999999 14
1.9580000000000002 -5.328099999999999 -0.0655 231
1.9824000000000002 -5.3984000000000005 1.0068000000000001 38
2.1816 -6.0 -1.1181999999999999 254
1.9502000000000002 -5.363300000000001 0.0659 182
2.2109 -6.082000000000001 -0.9804999999999999 13
1.9482 -5.359400000000001 0.1974 70
2.2441 -6.171900000000001 -0.8389 124
1.9482 -5.359400000000001 0.32909999999999995 200
1.96 -5.390599999999999 0.4648 238
1.9346 -5.324199999999999 -0.45899999999999996 72
1.9609 -5.394500000000001 0.5986 33
1.9413999999999998 -5.3398 -0.32789999999999997 181
1.9619 -5.3984000000000005 0.7334 153
1.9424000000000001 -5.3438 -0.1967 125
1.9609 -5.394500000000001 0.8687 145
1.9375 -5.328099999999999 -0.0654 20
1.9609 -5.394500000000001 1.0049 195
2.1738 -6.042999999999999 -1.125 202
1.9277000000000002 -5.355499999999999 0.06570000000000001 236
2.2012 -6.1172 -0.9849 220
1.9297 -5.363300000000001 0.1971 185
2.2207 -6.171900000000001 -0.8379000000000001 221
1.9297 -5.363300000000001 0.3289 187
1.9413999999999998 -5.394500000000001 0.4646 144
1.9209 -5.3398 -0.4597 215
1.9424000000000001 -5.3984000000000005 0.5986 140
1.9180000000000001 -5.328099999999999 -0.32689999999999997 158
1.9404 -5.390599999999999 0.7314 200
1.9238 -5.3477 -0.1967 89
1.9463 -5.4102 0.8701000000000001 91
1.9228999999999998 -5.3438 -0.0655 36
1.9434 -5.4023 1.0049 238
2.1777 -6.1211 -1.1387 75
1.9022999999999999 -5.3477 0.0655 155
2.1895 -6.1523 -0.9893000000000001 63
1.9091999999999998 -5.3672 0.1971 96
2.207 -6.203099999999999 -0.8412999999999999 187
1.9121000000000001 -5.375 0.3293 108
1.9180000000000001 -5.390599999999999 0.4639 62
1.9268 -5.4140999999999995 0.5996 35
1.9033000000000002 -5.3515999999999995 -0.19649999999999998 112
1.8984 -5.3398 -0.0654 217
2.1953 -6.238300000000001 -1.1592 3
1.8916 -5.3789 0.0658 187
2.1855 -6.2109000000000005 -0.9976 225
1.8916 -5.3789 0.1973 118
2.1953 -6.2422 -0.8456999999999999 230
1.8965 -5.390599999999999 0.3298 216
1.8965 -5.390599999999999 0.4631 10
1.9141 -5.4414 0.6015999999999999 226
1.8838 -5.355499999999999 -0.19640000000000002 215
1.9121000000000001 -5.4336 0.8721 92
1.8857 -5.363300000000001 -0.06559999999999999 27
1.9121000000000001 -5.4336 1.0088 101
2.0762 -5.9648 -1.1064 193
1.8730000000000002 -5.3828 0.06570000000000001 154
2.1758 -6.2539 -1.0029000000000001 118
1.8721 -5.3789 0.1971 73
2.1816 -6.269500000000001 -0.8486 204
1.8847999999999998 -5.4140999999999995 0.3311 34
1.8866999999999998 -5.421900000000001 0.46509999999999996 103
1.8721 -5.3789 -0.46140000000000003 69
1.8877000000000002 -5.425800000000001 0.5991 133
1.8866999999999998 -5.421900000000001 0.7329000000000001 143
1.8700999999999999 -5.3711 -0.19690000000000002 133
1.8652000000000002 -5.359400000000001 -0.0654 163
2.0508 -5.953099999999999 -1.1025 253
1.8613 -5.4062 0.066 101
2.0938 -6.082000000000001 -0.9741 79
1.8594 -5.3984000000000005 0.19760000000000003 157
2.1797 -6.332000000000001 -0.8554999999999999 90
1.8691 -5.425800000000001 0.33130000000000004 213
1.8721 -5.4375 0.4661 217
1.8613 -5.4062 -0.46340000000000003 236
1.875 -5.4453 0.6006 69
1.8535 -5.3828 -0.3286 203
1.8603999999999998 -5.4023 -0.1978 48
1.8506 -5.375 -0.06559999999999999 59
1.8818000000000001 -5.4648 1.0117 173
2.0215 -5.9453 -1.1006 68
1.8477000000000001 -5.4375 0.0663 80
2.0703 -6.0898 -0.9741 217
1.8466999999999998 -5.4336 0.1986 81
2.1152 -6.2227 -0.8403 231
1.8506 -5.4453 0.3318 28
1.8603999999999998 -5.4765999999999995 0.46880000000000005 5
1.8408000000000002 -5.417999999999999 -0.4636 27
1.8613 -5.4765999999999995 0.6035 166
1.8457 -5.4297 -0.3311 132
1.8437999999999999 -5.425800000000001 -0.19820000000000002 86
1.8721 -5.5078 0.8809 64
1.8378999999999999 -5.4062 -0.0659 76
1.8730000000000002 -5.511699999999999 1.0195 143
2.0 -5.957000000000001 -1.1006 199
1.8311000000000002 -5.453099999999999 0.0664 56
2.0469 -6.0977 -0.9741 15
1.835 -5.4648 0.19949999999999998 14
2.0645 -6.1484000000000005 -0.8291 237
1.8428 -5.488300000000001 0.3342 165
1.835 -5.4648 -0.4673 97
1.8574000000000002 -5.5312 0.6089 202
1.8262 -5.4414 -0.33130000000000004 19
1.8555000000000001 -5.5234000000000005 0.7441 91
1.8359 -5.4648 -0.1996 165
1.8730000000000002 -5.578099999999999 0.8911 141
1.8311000000000002 -5.453099999999999 -0.0664 58
1.8818000000000001 -5.6015999999999995 1.0352 171
1.9794999999999998 -5.9609000000000005 -1.1006 194
1.8311000000000002 -5.515599999999999 0.06709999999999999 7
2.0098 -6.050800000000001 -0.9658 138
1.8359 -5.5273 0.20149999999999998 212
2.0469 -6.1640999999999995 -0.8301000000000001 53
1.8477000000000001 -5.5664 0.3386 170
1.8447 -5.5547 0.4744 107
1.8291 -5.5078 -0.4705 64
1.8613 -5.605499999999999 0.6162 68
1.8252000000000002 -5.4961 -0.3342 203
1.8622999999999998 -5.609400000000001 0.7548999999999999 151
1.8311000000000002 -5.515599999999999 -0.201 207
1.8721 -5.636699999999999 0.8989 195
1.8428 -5.550800000000001 -0.0675 9
1.875 -5.644500000000001 1.041 30
1.9569999999999999 -5.9648 -1.0996 134
1.835 -5.5898 0.0679 115
1.9931999999999999 -6.074199999999999 -0.9682999999999999 145
1.8359 -5.5938 0.2039 16
2.0215 -6.1602 -0.8286 189
1.8437999999999999 -5.6172 0.34130000000000005 115
1.8477000000000001 -5.6289 0.4805 39
1.8241999999999998 -5.5586 -0.47409999999999997 176
1.8555000000000001 -5.6523 0.6206 142
1.8271000000000002 -5.5664 -0.33840000000000003 66
1.8555000000000001 -5.6523 0.7598 129
1.834 -5.5898 -0.2036 106
1.8662 -5.6875 0.9062 148
1.8300999999999998 -5.578099999999999 -0.0677 251
1.8769999999999998 -5.7188 1.0537 29
1.9316 -5.949199999999999 -1.0957 136
1.8291 -5.6328 0.0684 182
1.9707 -6.0664 -0.9662999999999999 0
1.8300999999999998 -5.6328 0.2051 61
1.9971 -6.1523 -0.8262 82
1.8388999999999998 -5.6640999999999995 0.34380000000000005 30
1.8466999999999998 -5.6875 0.4849 80
1.8262 -5.625 -0.4792 179
1.8506 -5.699199999999999 0.625 70
1.8232 -5.6172 -0.3408 92
1.8584 -5.7227 0.7686 123
1.835 -5.6523 -0.2057 234
1.8672 -5.75 0.915 14
1.8359 -5.6562 -0.06860000000000001 214
1.8779 -5.7812 1.0645 197
1.9091999999999998 -5.9453 -1.0937999999999999 236
1.8330000000000002 -5.707000000000001 0.0692 44
1.9502000000000002 -6.074199999999999 -0.9662999999999999 145
1.8330000000000002 -5.7109000000000005 0.2076 121
1.9697 -6.1328 -0.8231999999999999 140
1.8388999999999998 -5.7265999999999995 0.34740000000000004 107
1.8525 -5.769500000000001 0.49119999999999997 157
1.8369 -5.7188 -0.48710000000000003 243
1.8574000000000002 -5.7852 0.6338 187
1.8203 -5.671900000000001 -0.34380000000000005 111
1.8613 -5.796900000000001 0.7778 217
